0.0113603 0.2560952 0.8426118
0.0118269 0.2569584 0.8428262
0.0118431 0.2575627 0.8427980
0.0118593 0.2581679 0.8427698
0.0118755 0.2587722 0.8427415
0.0123422 0.2596384 0.8429559
0.0123585 0.2602436 0.8429276
0.0123747 0.2608499 0.8428993
0.0113002 0.2534404 0.8427422
0.0117673 0.2542997 0.8429571
0.0117835 0.2549039 0.8429289
0.0117997 0.2555082 0.8429007
0.0118159 0.2561114 0.8428725
0.0122830 0.2569747 0.8430873
0.0122992 0.2575789 0.8430591
0.0123155 0.2581841 0.8430308
0.0123317 0.2587884 0.8430026
0.0127990 0.2596546 0.8432172
0.0128152 0.2602599 0.8431890
0.0122066 0.2537116 0.8432461
0.0122229 0.2543159 0.8432179
0.0126905 0.2551761 0.8434331
0.0127067 0.2557814 0.8434049
0.0127230 0.2563856 0.8433766
0.0127392 0.2569909 0.8433484
0.0127554 0.2575951 0.8433202
0.0127717 0.2582004 0.8432919
0.0132394 0.2590656 0.8435069
0.0132556 0.2596708 0.8434786
0.0132718 0.2602761 0.8434503
0.0130980 0.2533786 0.8437789
0.0131142 0.2539829 0.8437506
0.0131304 0.2545881 0.8437224
0.0131466 0.2551923 0.8436942
0.0131629 0.2557976 0.8436659
0.0136311 0.2566599 0.8438814
0.0136474 0.2572651 0.8438531
0.0136636 0.2578703 0.8438248
0.0136799 0.2584766 0.8437965
0.0135541 0.2533948 0.8440399
0.0135703 0.2539991 0.8440117
0.0140390 0.2548594 0.8442275
0.0140553 0.2554646 0.8441993
0.0140715 0.2560708 0.8441710
0.0140103 0.2534110 0.8443010
0.0140265 0.2540153 0.8442728
0.0144957 0.2548756 0.8444889
0.0145120 0.2554808 0.8444607
0.0145282 0.2560871 0.8444324
0.0149199 0.2536813 0.8448068
0.0149362 0.2542866 0.8447786
0.0149524 0.2548918 0.8447503
0.0153766 0.2536976 0.8450682
0.0153929 0.2543028 0.8450399
0.0158333 0.2537138 0.8453296
0.0158495 0.2543191 0.8453013
-0.0090736 0.2685585 0.8300978
-0.0087173 0.2649721 0.8305253
-0.0087012 0.2655723 0.8304973
-0.0086851 0.2661726 0.8304693
-0.0086690 0.2667728 0.8304412
-0.0086528 0.2673741 0.8304131
-0.0086367 0.2679743 0.8303851
-0.0086206 0.2685746 0.8303571
-0.0091946 0.2629031 0.8303796
-0.0091785 0.2635024 0.8303516
-0.0091624 0.2641026 0.8303236
-0.0090337 0.2688997 0.8300996
-0.0077865 0.2670611 0.8309303
-0.0077703 0.2676624 0.8309023
-0.0082644 0.2649882 0.8307845
-0.0082483 0.2655884 0.8307565
-0.0082322 0.2661887 0.8307285
-0.0081838 0.2679904 0.8306443
-0.0081677 0.2685907 0.8306163
-0.0081516 0.2691910 0.8305882
-0.0087583 0.2623189 0.8306665
-0.0087422 0.2629192 0.8306385
-0.0087262 0.2635185 0.8306105
-0.0087100 0.2641187 0.8305825
-0.0073492 0.2664760 0.8312179
-0.0073330 0.2670772 0.8311898
-0.0073169 0.2676785 0.8311618
-0.0073008 0.2682797 0.8311337
-0.0072846 0.2688810 0.8311056
-0.0078115 0.2650043 0.8310437
-0.0077954 0.2656045 0.8310157
-0.0076987 0.2692071 0.8308474
-0.0083061 0.2623350 0.8309254
-0.0082899 0.2629353 0.8308974
-0.0082739 0.2635345 0.8308694
-0.0082578 0.2641348 0.8308413
-0.0081130 0.2695321 0.8305893
-0.0080969 0.2701314 0.8305613
-0.0068957 0.2664921 0.8314774
-0.0068796 0.2670933 0.8314493
-0.0068635 0.2676946 0.8314213
-0.0068473 0.2682958 0.8313932
-0.0068312 0.2688971 0.8313651
-0.0073586 0.2650204 0.8313029
-0.0073425 0.2656206 0.8312749
-0.0072459 0.2692232 0.8311066
-0.0078376 0.2629514 0.8311563
-0.0078215 0.2635506 0.8311283
-0.0078054 0.2641509 0.8311002
-0.0076606 0.2695482 0.8308482
-0.0076445 0.2701475 0.8308202
-0.0064423 0.2665082 0.8317369
-0.0064262 0.2671095 0.8317089
-0.0064100 0.2677107 0.8316808
-0.0063939 0.2683120 0.8316527
-0.0063778 0.2689132 0.8316246
-0.0063617 0.2695145 0.8315965
-0.0069219 0.2644362 0.8315901
-0.0069057 0.2650365 0.8315621
-0.0068896 0.2656367 0.8315341
-0.0067769 0.2698395 0.8313378
-0.0067607 0.2704408 0.8313097
-0.0073852 0.2629674 0.8314151
-0.0073691 0.2635667 0.8313872
-0.0071760 0.2707638 0.8310511
-0.0055409 0.2673978 0.8321995
-0.0055248 0.2680001 0.8321714
-0.0055087 0.2686013 0.8321433
-0.0054925 0.2692036 0.8321152
-0.0060211 0.2653218 0.8320526
-0.0060050 0.2659231 0.8320245
-0.0059889 0.2665243 0.8319964
-0.0059082 0.2695306 0.8318561
-0.0064690 0.2644523 0.8318493
-0.0063240 0.2698556 0.8315970
-0.0063079 0.2704569 0.8315689
-0.0069490 0.2623833 0.8317021
-0.0069329 0.2629835 0.8316740
-0.0069168 0.2635828 0.8316460
-0.0067237 0.2707799 0.8313099
-0.0050870 0.2674140 0.8324594
-0.0050708 0.2680162 0.8324312
-0.0050547 0.2686175 0.8324032
-0.0050385 0.2692197 0.8323750
-0.0055677 0.2653379 0.8323121
-0.0055516 0.2659392 0.8322840
-0.0055354 0.2665404 0.8322560
-0.0054548 0.2695467 0.8321156
-0.0060161 0.2644684 0.8321085
-0.0058711 0.2698717 0.8318562
-0.0058550 0.2704730 0.8318281
-0.0064966 0.2623993 0.8319610
-0.0064805 0.2629996 0.8319329
-0.0064644 0.2635989 0.8319049
-0.0062713 0.2707960 0.8315688
-0.0046330 0.2674301 0.8327192
-0.0046168 0.2680324 0.8326911
-0.0046007 0.2686336 0.8326630
-0.0045845 0.2692359 0.8326348
-0.0045684 0.2698381 0.8326067
-0.0051304 0.2647528 0.8325997
-0.0051143 0.2653540 0.8325716
-0.0050981 0.2659553 0.8325435
-0.0050820 0.2665566 0.8325155
-0.0049852 0.2701641 0.8323470
-0.0049691 0.2707654 0.8323189
-0.0055954 0.2632830 0.8324238
-0.0055793 0.2638832 0.8323958
-0.0053860 0.2710893 0.8320593
-0.0060443 0.2624154 0.8322198
-0.0037456 0.2677185 0.8332111
-0.0037294 0.2683208 0.8331830
-0.0037132 0.2689240 0.8331548
-0.0036971 0.2695263 0.8331267
-0.0036809 0.2701285 0.8330985
-0.0041952 0.2668440 0.8330071
-0.0046770 0.2647689 0.8328592
-0.0046608 0.2653702 0.8328311
-0.0046447 0.2659714 0.8328031
-0.0045318 0.2701802 0.8326065
-0.0045156 0.2707815 0.8325784
-0.0051425 0.2632991 0.8326830
-0.0051264 0.2638993 0.8326550
-0.0055919 0.2624315 0.8324787
-0.0032911 0.2677347 0.8334712
-0.0032749 0.2683369 0.8334431
-0.0032587 0.2689402 0.8334149
-0.0032426 0.2695425 0.8333868
-0.0032264 0.2701447 0.8333587
-0.0037412 0.2668601 0.8332669
-0.0042235 0.2647850 0.8331187
-0.0042074 0.2653863 0.8330906
-0.0041913 0.2659875 0.8330626
-0.0040783 0.2701963 0.8328660
-0.0040622 0.2707976 0.8328379
-0.0046896 0.2633152 0.8329422
-0.0046735 0.2639154 0.8329142
-0.0051396 0.2624476 0.8327376
-0.0028365 0.2677509 0.8337314
-0.0028204 0.2683531 0.8337032
-0.0028042 0.2689564 0.8336751
-0.0027880 0.2695586 0.8336469
-0.0027719 0.2701609 0.8336188
-0.0033195 0.2656728 0.8335830
-0.0033033 0.2662750 0.8335548
-0.0032872 0.2668763 0.8335268
-0.0031903 0.2704878 0.8333581
-0.0031742 0.2710900 0.8333300
-0.0038023 0.2635996 0.8334343
-0.0037862 0.2642009 0.8334063
-0.0037701 0.2648011 0.8333782
-0.0046872 0.2624637 0.8329965
-0.0019146 0.2692459 0.8341682
-0.0018984 0.2698491 0.8341400
-0.0023982 0.2671638 0.8340197
-0.0023820 0.2677670 0.8339915
-0.0023659 0.2683693 0.8339634
-0.0023174 0.2701770 0.8338789
-0.0023012 0.2707803 0.8338508
-0.0028655 0.2656889 0.8338428
-0.0028494 0.2662911 0.8338147
-0.0033489 0.2636158 0.8336938
-0.0033328 0.2642170 0.8336658
-0.0033167 0.2648173 0.8336377
-0.0037999 0.2627471 0.8334887
-0.0014595 0.2692620 0.8344286
-0.0014434 0.2698653 0.8344004
-0.0014272 0.2704686 0.8343723
-0.0019760 0.2659754 0.8343360
-0.0019598 0.2665777 0.8343079
-0.0019437 0.2671799 0.8342798
-0.0019275 0.2677832 0.8342516
-0.0019113 0.2683854 0.8342235
-0.0018467 0.2707964 0.8341109
-0.0028793 0.2642331 0.8339253
-0.0028632 0.2648334 0.8338972
-0.0033471 0.2627632 0.8337479
-0.0033309 0.2633635 0.8337198
-0.0010045 0.2692782 0.8346891
-0.0009883 0.2698815 0.8346609
-0.0009721 0.2704847 0.8346327
-0.0015215 0.2659916 0.8345962
-0.0015053 0.2665938 0.8345680
-0.0014892 0.2671961 0.8345399
-0.0014730 0.2677993 0.8345117
-0.0014568 0.2684016 0.8344836
-0.0013921 0.2708126 0.8343710
-0.0019737 0.2651189 0.8343905
-0.0024259 0.2642492 0.8341848
-0.0029103 0.2621791 0.8340351
-0.0028942 0.2627793 0.8340071
-0.0028781 0.2633796 0.8339790
-0.0005818 0.2680879 0.8350058
-0.0005656 0.2686912 0.8349777
-0.0005494 0.2692944 0.8349495
-0.0005332 0.2698977 0.8349213
-0.0005170 0.2705009 0.8348932
-0.0010831 0.2654045 0.8348845
-0.0010670 0.2660077 0.8348563
-0.0010508 0.2666100 0.8348282
-0.0010346 0.2672122 0.8348000
-0.0009376 0.2708287 0.8346312
-0.0015359 0.2645338 0.8346784
-0.0020047 0.2630629 0.8345005
-0.0019886 0.2636641 0.8344724
-0.0024574 0.2621952 0.8342943
-0.0001267 0.2681041 0.8352663
-0.0001105 0.2687073 0.8352381
-0.0000943 0.2693106 0.8352099
-0.0000782 0.2699138 0.8351818
-0.0000620 0.2705171 0.8351536
-0.0000458 0.2711203 0.8351254
-0.0006448 0.2648184 0.8351727
-0.0006286 0.2654206 0.8351446
-0.0006124 0.2660239 0.8351164
-0.0005963 0.2666261 0.8350883
-0.0005801 0.2672284 0.8350602
-0.0015674 0.2624777 0.8347880
-0.0015513 0.2630790 0.8347600
-0.0015352 0.2636802 0.8347319
0.0003283 0.2681203 0.8355267
0.0003445 0.2687235 0.8354985
0.0003607 0.2693268 0.8354704
0.0003769 0.2699300 0.8354422
0.0003931 0.2705333 0.8354140
0.0004093 0.2711365 0.8353859
-0.0001903 0.2648345 0.8354329
-0.0001741 0.2654368 0.8354047
-0.0001579 0.2660400 0.8353766
-0.0001418 0.2666423 0.8353484
-0.0001256 0.2672446 0.8353203
-0.0011140 0.2624938 0.8350475
-0.0010978 0.2630951 0.8350195
-0.0010817 0.2636964 0.8349914
0.0007186 0.2657224 0.8358999
0.0007348 0.2663257 0.8358717
0.0007510 0.2669289 0.8358435
0.0007672 0.2675332 0.8358153
0.0007834 0.2681364 0.8357872
0.0007996 0.2687397 0.8357590
0.0008158 0.2693429 0.8357308
0.0008320 0.2699462 0.8357026
0.0008481 0.2705494 0.8356745
0.0008643 0.2711527 0.8356463
0.0002643 0.2648507 0.8356930
-0.0002063 0.2633777 0.8355142
-0.0001901 0.2639800 0.8354860
-0.0006605 0.2625100 0.8353071
0.0011575 0.2651354 0.8361885
0.0011737 0.2657386 0.8361603
0.0011899 0.2663419 0.8361322
0.0012061 0.2669451 0.8361040
0.0012223 0.2675494 0.8360758
0.0012385 0.2681526 0.8360476
0.0012547 0.2687559 0.8360194
0.0012708 0.2693591 0.8359913
0.0012870 0.2699624 0.8359631
0.0013032 0.2705656 0.8359349
0.0013194 0.2711689 0.8359067
0.0006864 0.2636614 0.8360094
0.0007026 0.2642646 0.8359812
0.0002316 0.2627926 0.8358021
0.0006856 0.2628087 0.8360619
0.0011409 0.2636775 0.8362695
0.0011571 0.2642808 0.8362414
0.0016126 0.2651515 0.8364489
0.0016288 0.2657548 0.8364208
0.0016449 0.2663580 0.8363926
0.0016611 0.2669613 0.8363644
0.0016773 0.2675655 0.8363362
0.0016935 0.2681688 0.8363080
0.0017097 0.2687720 0.8362799
0.0017259 0.2693753 0.8362517
0.0017421 0.2699785 0.8362235
0.0017583 0.2705818 0.8361954
0.0017745 0.2711850 0.8361672
0.0011234 0.2622226 0.8363498
0.0015793 0.2630914 0.8365578
0.0020353 0.2639612 0.8367657
0.0020515 0.2645645 0.8367376
0.0020676 0.2651677 0.8367094
0.0020838 0.2657710 0.8366812
0.0021000 0.2663742 0.8366530
0.0021162 0.2669775 0.8366249
0.0021324 0.2675817 0.8365966
0.0021810 0.2693915 0.8365121
0.0021971 0.2699947 0.8364840
0.0022133 0.2705980 0.8364558
0.0022295 0.2712012 0.8364276
0.0025885 0.2684565 0.8368043
0.0026047 0.2690608 0.8367761
0.0020177 0.2625053 0.8368461
0.0024741 0.2633741 0.8370543
0.0024903 0.2639774 0.8370262
0.0025065 0.2645806 0.8369980
0.0026684 0.2706141 0.8367162
0.0026846 0.2712174 0.8366881
0.0029631 0.2654525 0.8372061
0.0029793 0.2660567 0.8371779
0.0029955 0.2666610 0.8371497
0.0030117 0.2672652 0.8371215
0.0030279 0.2678694 0.8370933
0.0030441 0.2684727 0.8370651
0.0030603 0.2690769 0.8370369
0.0030765 0.2696812 0.8370087
0.0030927 0.2702854 0.8369804
0.0024722 0.2625215 0.8371062
0.0029292 0.2633903 0.8373148
0.0029454 0.2639936 0.8372866
0.0029616 0.2645968 0.8372584
0.0031235 0.2706303 0.8369767
0.0031396 0.2712336 0.8369485
0.0034187 0.2654687 0.8374669
0.0034349 0.2660729 0.8374387
0.0034511 0.2666772 0.8374105
0.0034673 0.2672814 0.8373822
0.0034835 0.2678856 0.8373540
0.0034997 0.2684889 0.8373259
0.0035159 0.2690931 0.8372976
0.0035321 0.2696974 0.8372694
0.0035483 0.2703016 0.8372412
0.0033519 0.2622000 0.8376316
0.0033681 0.2628033 0.8376034
0.0033843 0.2634065 0.8375752
0.0035947 0.2712497 0.8372089
0.0038419 0.2642774 0.8377840
0.0038581 0.2648816 0.8377558
0.0039391 0.2679018 0.8376148
0.0039553 0.2685051 0.8375866
0.0039715 0.2691093 0.8375584
0.0039877 0.2697136 0.8375302
0.0040040 0.2703178 0.8375019
0.0040202 0.2709221 0.8374737
0.0043158 0.2657545 0.8379645
0.0043320 0.2663587 0.8379363
0.0043482 0.2669639 0.8379081
0.0043644 0.2675682 0.8378798
0.0038070 0.2622162 0.8378920
0.0038231 0.2628194 0.8378638
0.0040498 0.2712659 0.8374694
0.0042813 0.2636893 0.8380730
0.0044433 0.2697298 0.8377909
0.0044596 0.2703340 0.8377627
0.0044758 0.2709383 0.8377345
0.0047395 0.2645612 0.8382821
0.0047557 0.2651654 0.8382539
0.0047719 0.2657707 0.8382256
0.0047881 0.2663749 0.8381974
0.0048044 0.2669802 0.8381691
0.0048206 0.2675844 0.8381409
0.0048368 0.2681897 0.8381126
0.0048530 0.2687939 0.8380844
0.0048693 0.2693991 0.8380562
0.0042620 0.2622324 0.8381524
0.0042782 0.2628356 0.8381243
0.0045048 0.2712821 0.8377298
0.0047369 0.2637055 0.8383338
0.0049314 0.2709545 0.8379952
0.0051956 0.2645774 0.8385431
0.0052118 0.2651816 0.8385149
0.0052281 0.2657869 0.8384867
0.0052443 0.2663911 0.8384584
0.0052605 0.2669964 0.8384302
0.0052767 0.2676006 0.8384020
0.0052930 0.2682059 0.8383737
0.0053092 0.2688101 0.8383455
0.0053254 0.2694154 0.8383172
0.0053416 0.2700196 0.8382890
0.0053579 0.2706249 0.8382607
0.0047171 0.2622485 0.8384129
0.0047333 0.2628518 0.8383847
0.0053870 0.2709707 0.8382560
0.0056355 0.2639884 0.8388325
0.0056517 0.2645936 0.8388042
0.0056680 0.2651979 0.8387760
0.0056842 0.2658031 0.8387477
0.0057004 0.2664073 0.8387195
0.0057167 0.2670126 0.8386912
0.0057329 0.2676168 0.8386630
0.0057491 0.2682221 0.8386348
0.0057653 0.2688263 0.8386065
0.0057816 0.2694316 0.8385783
0.0057978 0.2700358 0.8385501
0.0058140 0.2706411 0.8385218
0.0056157 0.2625294 0.8389117
0.0056319 0.2631336 0.8388835
0.0060917 0.2640046 0.8390935
0.0061079 0.2646098 0.8390653
0.0061241 0.2652141 0.8390371
0.0062053 0.2682383 0.8388958
0.0062215 0.2688425 0.8388676
0.0062377 0.2694478 0.8388393
0.0062539 0.2700520 0.8388111
0.0062702 0.2706573 0.8387829
0.0062864 0.2712615 0.8387546
0.0065840 0.2660880 0.8392470
0.0066002 0.2666932 0.8392187
0.0066165 0.2672985 0.8391904
0.0066327 0.2679047 0.8391621
0.0060713 0.2625456 0.8391724
0.0060875 0.2631498 0.8391442
0.0065478 0.2640208 0.8393546
0.0067101 0.2700683 0.8390722
0.0067263 0.2706735 0.8390439
0.0067425 0.2712777 0.8390157
0.0070082 0.2648927 0.8395649
0.0070244 0.2654990 0.8395366
0.0070407 0.2661042 0.8395083
0.0070569 0.2667095 0.8394801
0.0070731 0.2673147 0.8394518
0.0070894 0.2679210 0.8394235
0.0071056 0.2685262 0.8393952
0.0071219 0.2691315 0.8393670
0.0071381 0.2697367 0.8393387
0.0065269 0.2625618 0.8394332
0.0065431 0.2631660 0.8394050
0.0070040 0.2640370 0.8396157
0.0071662 0.2700845 0.8393332
0.0071825 0.2706897 0.8393050
0.0071987 0.2712940 0.8392768
0.0074649 0.2649090 0.8398263
0.0074811 0.2655152 0.8397980
0.0074974 0.2661205 0.8397697
0.0075136 0.2667257 0.8397415
0.0075298 0.2673310 0.8397132
0.0075461 0.2679372 0.8396849
0.0075623 0.2685424 0.8396566
0.0075786 0.2691477 0.8396283
0.0075948 0.2697529 0.8396001
0.0074114 0.2622385 0.8399615
0.0074277 0.2628437 0.8399332
0.0074439 0.2634490 0.8399049
0.0079053 0.2643200 0.8401159
0.0079215 0.2649252 0.8400877
0.0079378 0.2655315 0.8400593
0.0080515 0.2697692 0.8398614
0.0080678 0.2703754 0.8398331
0.0080840 0.2709807 0.8398049
0.0078676 0.2622547 0.8402225
0.0078838 0.2628600 0.8401943
0.0079000 0.2634652 0.8401660
0.0083620 0.2643362 0.8403773
0.0083237 0.2622709 0.8404836
0.0083399 0.2628762 0.8404553
0.0083562 0.2634814 0.8404271
0.0088187 0.2643524 0.8406387
0.0087799 0.2622871 0.8407446
0.0087961 0.2628924 0.8407164
0.0088123 0.2634976 0.8406881
0.0092754 0.2643687 0.8409000
0.0092360 0.2623034 0.8410057
0.0096996 0.2631744 0.8412179
0.0097158 0.2637797 0.8411897
0.0096922 0.2623196 0.8412668
0.0101563 0.2631907 0.8414793
0.0101725 0.2637959 0.8414510
0.0105967 0.2626007 0.8417690
0.0106130 0.2632069 0.8417407
0.0106292 0.2638121 0.8417124
0.0110534 0.2626169 0.8420304
0.0115101 0.2626331 0.8422917
0.0119667 0.2626494 0.8425531
-0.0058029 0.2714113 0.8317997
-0.0044995 0.2713827 0.8325503
-0.0049170 0.2717057 0.8322904
-0.0053344 0.2720277 0.8320306
-0.0053184 0.2726269 0.8320026
-0.0040461 0.2713988 0.8328099
-0.0044641 0.2717218 0.8325496
-0.0048821 0.2720438 0.8322895
-0.0048660 0.2726430 0.8322615
-0.0035926 0.2714150 0.8330694
-0.0035765 0.2720162 0.8330413
-0.0044297 0.2720598 0.8325484
-0.0044137 0.2726591 0.8325204
-0.0022850 0.2713825 0.8338226
-0.0031392 0.2714311 0.8333289
-0.0031231 0.2720323 0.8333008
-0.0035422 0.2723543 0.8330400
-0.0035261 0.2729545 0.8330120
-0.0039452 0.2732754 0.8327512
-0.0018305 0.2713987 0.8340828
-0.0022501 0.2717236 0.8338215
-0.0026696 0.2720485 0.8335603
-0.0030893 0.2723704 0.8332992
-0.0030732 0.2729706 0.8332712
-0.0034929 0.2732915 0.8330101
-0.0013760 0.2714148 0.8343429
-0.0017961 0.2717397 0.8340814
-0.0022162 0.2720646 0.8338198
-0.0022001 0.2726648 0.8337918
-0.0021840 0.2732661 0.8337637
-0.0030405 0.2733076 0.8332690
-0.0009215 0.2714310 0.8346030
-0.0013421 0.2717558 0.8343412
-0.0017628 0.2720807 0.8340793
-0.0017467 0.2726810 0.8340513
-0.0017305 0.2732822 0.8340232
-0.0021513 0.2736041 0.8337615
-0.0025721 0.2739229 0.8334999
-0.0025560 0.2745232 0.8334719
-0.0000296 0.2717236 0.8350972
-0.0004508 0.2720494 0.8348350
-0.0008720 0.2723742 0.8345729
-0.0008558 0.2729765 0.8345447
-0.0012771 0.2732983 0.8342827
-0.0012610 0.2738996 0.8342546
-0.0016823 0.2742204 0.8339927
-0.0016662 0.2748207 0.8339646
-0.0020875 0.2751385 0.8337028
0.0004255 0.2717398 0.8353577
0.0000037 0.2720656 0.8350952
-0.0004180 0.2723904 0.8348327
-0.0004018 0.2729926 0.8348046
-0.0008237 0.2733145 0.8345422
-0.0008075 0.2739157 0.8345141
-0.0012294 0.2742365 0.8342519
-0.0012133 0.2748368 0.8342238
-0.0016352 0.2751546 0.8339617
0.0008805 0.2717559 0.8356181
0.0004583 0.2720817 0.8353553
0.0004744 0.2726850 0.8353271
0.0004906 0.2732872 0.8352990
0.0000683 0.2736100 0.8350363
-0.0003541 0.2739318 0.8347737
-0.0003380 0.2745331 0.8347456
-0.0003218 0.2751343 0.8347175
-0.0007443 0.2754531 0.8344550
-0.0011667 0.2757710 0.8341925
-0.0011507 0.2763702 0.8341646
0.0013356 0.2717721 0.8358786
0.0009128 0.2720979 0.8356154
0.0009290 0.2727011 0.8355873
0.0009451 0.2733034 0.8355591
0.0009613 0.2739056 0.8355310
0.0005384 0.2742284 0.8352680
0.0001155 0.2745492 0.8350051
0.0001316 0.2751505 0.8349770
-0.0002914 0.2754692 0.8347142
-0.0002753 0.2760695 0.8346862
-0.0002591 0.2766708 0.8346581
-0.0006822 0.2769866 0.8343954
-0.0002299 0.2770026 0.8346543
0.0001615 0.2754853 0.8349734
0.0001776 0.2760856 0.8349454
0.0001938 0.2766869 0.8349173
0.0005689 0.2745653 0.8352646
0.0005850 0.2751666 0.8352365
0.0009924 0.2742446 0.8355278
0.0013673 0.2721140 0.8358756
0.0013835 0.2727173 0.8358474
0.0013996 0.2733195 0.8358193
0.0014158 0.2739218 0.8357911
0.0017906 0.2717883 0.8361390
0.0002386 0.2776180 0.8348852
0.0002547 0.2782182 0.8348572
0.0002708 0.2788175 0.8348292
0.0006628 0.2773032 0.8351484
0.0010546 0.2757840 0.8354679
0.0010707 0.2763852 0.8354399
0.0010869 0.2769865 0.8354118
0.0014464 0.2742607 0.8357876
0.0014625 0.2748629 0.8357595
0.0014787 0.2754642 0.8357314
0.0018380 0.2727334 0.8361075
0.0018542 0.2733357 0.8360794
0.0018703 0.2739380 0.8360513
0.0022457 0.2718045 0.8363994
0.0022619 0.2724077 0.8363713
0.0007231 0.2788336 0.8350881
0.0007392 0.2794338 0.8350600
0.0007553 0.2800331 0.8350320
0.0007714 0.2806334 0.8350040
0.0011318 0.2779196 0.8353796
0.0011479 0.2785198 0.8353516
0.0015242 0.2764013 0.8356994
0.0015403 0.2770026 0.8356713
0.0015564 0.2776038 0.8356432
0.0019165 0.2748791 0.8360193
0.0019326 0.2754803 0.8359913
0.0019488 0.2760826 0.8359631
0.0023248 0.2739541 0.8363114
0.0023410 0.2745574 0.8362832
0.0027008 0.2718206 0.8366599
0.0027170 0.2724239 0.8366317
0.0027331 0.2730271 0.8366035
0.0027493 0.2736304 0.8365754
0.0011755 0.2788497 0.8353470
0.0011916 0.2794499 0.8353189
0.0012076 0.2800492 0.8352909
0.0012237 0.2806494 0.8352629
0.0015846 0.2779357 0.8356388
0.0016008 0.2785359 0.8356108
0.0019776 0.2764174 0.8359589
0.0019937 0.2770187 0.8359308
0.0020099 0.2776200 0.8359027
0.0023705 0.2748952 0.8362792
0.0023866 0.2754965 0.8362511
0.0024028 0.2760987 0.8362229
0.0027794 0.2739703 0.8365715
0.0027956 0.2745735 0.8365434
0.0031558 0.2718368 0.8369203
0.0031720 0.2724401 0.8368922
0.0031882 0.2730433 0.8368640
0.0032044 0.2736466 0.8368358
0.0020859 0.2797536 0.8358139
0.0021020 0.2803538 0.8357858
0.0024633 0.2776361 0.8361622
0.0024794 0.2782373 0.8361342
0.0024956 0.2788386 0.8361061
0.0025117 0.2794398 0.8360780
0.0028567 0.2761149 0.8364828
0.0028729 0.2767171 0.8364546
0.0028890 0.2773184 0.8364266
0.0032501 0.2745897 0.8368035
0.0032662 0.2751919 0.8367754
0.0032824 0.2757952 0.8367472
0.0036109 0.2718530 0.8371808
0.0036271 0.2724562 0.8371526
0.0036433 0.2730595 0.8371244
0.0036595 0.2736627 0.8370963
0.0036757 0.2742670 0.8370680
0.0029329 0.2782535 0.8363937
0.0029490 0.2788547 0.8363656
0.0029651 0.2794560 0.8363375
0.0029813 0.2800572 0.8363094
0.0029974 0.2806575 0.8362814
0.0033269 0.2767333 0.8367145
0.0033430 0.2773345 0.8366864
0.0033592 0.2779368 0.8366583
0.0037207 0.2752081 0.8370355
0.0037369 0.2758113 0.8370073
0.0037531 0.2764136 0.8369792
0.0040660 0.2718692 0.8374412
0.0040821 0.2724724 0.8374130
0.0040983 0.2730757 0.8373849
0.0041145 0.2736789 0.8373567
0.0041307 0.2742832 0.8373285
0.0041469 0.2748864 0.8373003
0.0033863 0.2782696 0.8366532
0.0034024 0.2788708 0.8366251
0.0034186 0.2794721 0.8365970
0.0034347 0.2800733 0.8365689
0.0034508 0.2806736 0.8365409
0.0037809 0.2767494 0.8369743
0.0037970 0.2773507 0.8369462
0.0038131 0.2779529 0.8369181
0.0041753 0.2752242 0.8372956
0.0041915 0.2758275 0.8372674
0.0042076 0.2764298 0.8372393
0.0045210 0.2718854 0.8377016
0.0045372 0.2724886 0.8376735
0.0045534 0.2730919 0.8376453
0.0045696 0.2736951 0.8376171
0.0045858 0.2742994 0.8375889
0.0046020 0.2749026 0.8375607
0.0038720 0.2794882 0.8368565
0.0038881 0.2800895 0.8368285
0.0039042 0.2806897 0.8368004
0.0042671 0.2779690 0.8371779
0.0042833 0.2785713 0.8371498
0.0042994 0.2791726 0.8371217
0.0046621 0.2764459 0.8374994
0.0046783 0.2770482 0.8374713
0.0046945 0.2776514 0.8374431
0.0049923 0.2725048 0.8379339
0.0050084 0.2731080 0.8379057
0.0050246 0.2737113 0.8378776
0.0050408 0.2743155 0.8378494
0.0050570 0.2749188 0.8378212
0.0050732 0.2755220 0.8377930
0.0050894 0.2761253 0.8377648
0.0054032 0.2715749 0.8382278
0.0054194 0.2721782 0.8381996
0.0047373 0.2785874 0.8374096
0.0047534 0.2791887 0.8373815
0.0047696 0.2797910 0.8373534
0.0047857 0.2803932 0.8373253
0.0051652 0.2782698 0.8376752
0.0055121 0.2749350 0.8380816
0.0055283 0.2755382 0.8380535
0.0055445 0.2761415 0.8380253
0.0055607 0.2767447 0.8379971
0.0055768 0.2773480 0.8379689
0.0055930 0.2779512 0.8379408
0.0058588 0.2715911 0.8384885
0.0058750 0.2721944 0.8384603
0.0058912 0.2727986 0.8384321
0.0059074 0.2734029 0.8384039
0.0059236 0.2740071 0.8383757
0.0059398 0.2746114 0.8383475
0.0052397 0.2804093 0.8375851
0.0056197 0.2782860 0.8379353
0.0056358 0.2788882 0.8379072
0.0056520 0.2794915 0.8378790
0.0056682 0.2800937 0.8378509
0.0059833 0.2755544 0.8383139
0.0059995 0.2761576 0.8382857
0.0060157 0.2767609 0.8382576
0.0060319 0.2773641 0.8382294
0.0060481 0.2779674 0.8382012
0.0063468 0.2728148 0.8386929
0.0063630 0.2734191 0.8386647
0.0063792 0.2740233 0.8386364
0.0063954 0.2746276 0.8386082
0.0064116 0.2752308 0.8385800
0.0067588 0.2718830 0.8389874
0.0067750 0.2724872 0.8389592
0.0056937 0.2804255 0.8378449
0.0060742 0.2783021 0.8381954
0.0060904 0.2789044 0.8381673
0.0061065 0.2795076 0.8381391
0.0061227 0.2801099 0.8381110
0.0064384 0.2755706 0.8385743
0.0064546 0.2761738 0.8385462
0.0064708 0.2767771 0.8385180
0.0064870 0.2773803 0.8384898
0.0065031 0.2779836 0.8384616
0.0068024 0.2728310 0.8389536
0.0068186 0.2734353 0.8389254
0.0068348 0.2740395 0.8388972
0.0068510 0.2746437 0.8388690
0.0068672 0.2752470 0.8388408
0.0072149 0.2718992 0.8392485
0.0072311 0.2725035 0.8392203
0.0065772 0.2801261 0.8383711
0.0065934 0.2807293 0.8383430
0.0069420 0.2773965 0.8387503
0.0069582 0.2779997 0.8387221
0.0069744 0.2786030 0.8386939
0.0069906 0.2792062 0.8386657
0.0070068 0.2798095 0.8386376
0.0073228 0.2752632 0.8391016
0.0073390 0.2758674 0.8390733
0.0073553 0.2764717 0.8390451
0.0073715 0.2770759 0.8390169
0.0076710 0.2719154 0.8395096
0.0076873 0.2725197 0.8394813
0.0077035 0.2731249 0.8394531
0.0077197 0.2737302 0.8394248
0.0077360 0.2743344 0.8393966
0.0077522 0.2749396 0.8393683
0.0081002 0.2715859 0.8397766
0.0074295 0.2786192 0.8389544
0.0074456 0.2792224 0.8389262
0.0074618 0.2798257 0.8388980
0.0074780 0.2804289 0.8388698
0.0078271 0.2770921 0.8392776
0.0078433 0.2776964 0.8392494
0.0078595 0.2782996 0.8392213
0.0081596 0.2731411 0.8397141
0.0081759 0.2737464 0.8396859
0.0081921 0.2743506 0.8396576
0.0082083 0.2749559 0.8396294
0.0082245 0.2755601 0.8396012
0.0082408 0.2761654 0.8395729
0.0082570 0.2767696 0.8395447
0.0085569 0.2716021 0.8400380
0.0085732 0.2722074 0.8400097
0.0085894 0.2728136 0.8399814
0.0078845 0.2786353 0.8392148
0.0079007 0.2792386 0.8391866
0.0079169 0.2798418 0.8391585
0.0079331 0.2804451 0.8391303
0.0082827 0.2771083 0.8395384
0.0082989 0.2777126 0.8395102
0.0083151 0.2783158 0.8394820
0.0086158 0.2731573 0.8399752
0.0086320 0.2737626 0.8399469
0.0086482 0.2743668 0.8399187
0.0086645 0.2749721 0.8398904
0.0086807 0.2755763 0.8398622
0.0086969 0.2761816 0.8398340
0.0087131 0.2767858 0.8398057
0.0090136 0.2716184 0.8402994
0.0090299 0.2722236 0.8402711
0.0090461 0.2728299 0.8402428
0.0083881 0.2804613 0.8393907
0.0087869 0.2789363 0.8397145
0.0088031 0.2795405 0.8396863
0.0088193 0.2801448 0.8396581
0.0091206 0.2749883 0.8401515
0.0091368 0.2755925 0.8401233
0.0091531 0.2761978 0.8400950
0.0091693 0.2768020 0.8400668
0.0091855 0.2774073 0.8400385
0.0092017 0.2780115 0.8400103
0.0092180 0.2786168 0.8399821
0.0094866 0.2722398 0.8405325
0.0095028 0.2728461 0.8405041
0.0095191 0.2734513 0.8404759
0.0095353 0.2740566 0.8404476
0.0095515 0.2746618 0.8404194
0.0096092 0.2762140 0.8403561
0.0096254 0.2768183 0.8403279
0.0096417 0.2774235 0.8402996
0.0096579 0.2780277 0.8402714
0.0096741 0.2786330 0.8402431
0.0096903 0.2792372 0.8402149
0.0097066 0.2798425 0.8401866
0.0097228 0.2804467 0.8401584
0.0099757 0.2734676 0.8407373
0.0099920 0.2740728 0.8407090
0.0100082 0.2746781 0.8406807
0.0100245 0.2752843 0.8406524
0.0100407 0.2758895 0.8406241
0.0100654 0.2762302 0.8406171
0.0100816 0.2768345 0.8405889
0.0100978 0.2774397 0.8405607
0.0101140 0.2780440 0.8405324
0.0101303 0.2786492 0.8405042
0.0101465 0.2792534 0.8404760
0.0101627 0.2798587 0.8404477
0.0101789 0.2804629 0.8404195
0.0104324 0.2734838 0.8409986
0.0104487 0.2740890 0.8409704
0.0104649 0.2746943 0.8409421
0.0104812 0.2753005 0.8409138
0.0104974 0.2759058 0.8408855
0.0106027 0.2792697 0.8407370
0.0106189 0.2798749 0.8407088
0.0106351 0.2804792 0.8406806
0.0109866 0.2771325 0.8410904
0.0110029 0.2777387 0.8410621
0.0110191 0.2783440 0.8410338
0.0110353 0.2789492 0.8410055
0.0115082 0.2795707 0.8412386
0.0115245 0.2801769 0.8412103
0.0119812 0.2801932 0.8414717
0.0124379 0.2802094 0.8417330
-0.0089872 0.2874757 0.8289724
-0.0089711 0.2880760 0.8289444
-0.0089550 0.2886752 0.8289164
-0.0089389 0.2892755 0.8288884
-0.0085349 0.2874918 0.8292313
-0.0085188 0.2880921 0.8292033
-0.0085027 0.2886913 0.8291753
-0.0084866 0.2892916 0.8291473
-0.0080986 0.2869086 0.8295182
-0.0080825 0.2875079 0.8294902
-0.0080664 0.2881081 0.8294622
-0.0080503 0.2887074 0.8294342
-0.0080342 0.2893077 0.8294062
-0.0071993 0.2878211 0.8299782
-0.0071832 0.2884223 0.8299501
-0.0071671 0.2890226 0.8299221
-0.0071510 0.2896228 0.8298940
-0.0076463 0.2869247 0.8297770
-0.0067465 0.2878372 0.8302374
-0.0067303 0.2884384 0.8302093
-0.0067142 0.2890387 0.8301812
-0.0066981 0.2896389 0.8301532
-0.0071939 0.2869408 0.8300360
-0.0058616 0.2881504 0.8307262
-0.0058455 0.2887517 0.8306982
-0.0058294 0.2893529 0.8306701
-0.0067416 0.2869569 0.8302948
-0.0054082 0.2881665 0.8309858
-0.0053921 0.2887678 0.8309577
-0.0053759 0.2893691 0.8309296
-0.0058568 0.2872691 0.8307838
-0.0063214 0.2857734 0.8306097
-0.0063053 0.2863727 0.8305818
-0.0049548 0.2881827 0.8312453
-0.0049386 0.2887839 0.8312172
-0.0049225 0.2893852 0.8311891
-0.0054039 0.2872852 0.8310430
-0.0058691 0.2857895 0.8308686
-0.0058530 0.2863888 0.8308407
-0.0045013 0.2881988 0.8315048
-0.0044852 0.2888000 0.8314767
-0.0044691 0.2894013 0.8314486
-0.0049510 0.2873013 0.8313022
-0.0054167 0.2858056 0.8311275
-0.0054006 0.2864048 0.8310995
-0.0040479 0.2882149 0.8317643
-0.0040318 0.2888162 0.8317362
-0.0040156 0.2894174 0.8317081
-0.0044981 0.2873174 0.8315614
-0.0049643 0.2858217 0.8313864
-0.0049483 0.2864209 0.8313584
-0.0035945 0.2882310 0.8320238
-0.0035783 0.2888323 0.8319957
-0.0035622 0.2894335 0.8319676
-0.0040452 0.2873335 0.8318206
-0.0045120 0.2858377 0.8316453
-0.0044959 0.2864370 0.8316173
-0.0031571 0.2876469 0.8323113
-0.0031410 0.2882471 0.8322833
-0.0031249 0.2888484 0.8322552
-0.0031088 0.2894497 0.8322271
-0.0036245 0.2861491 0.8321358
-0.0036084 0.2867494 0.8321078
-0.0040757 0.2852536 0.8319322
-0.0022518 0.2885615 0.8327746
-0.0022357 0.2891628 0.8327466
-0.0027037 0.2876630 0.8325708
-0.0031716 0.2861652 0.8323950
-0.0031555 0.2867655 0.8323670
-0.0036234 0.2852696 0.8321911
-0.0017979 0.2885777 0.8330344
-0.0017817 0.2891789 0.8330064
-0.0022825 0.2864766 0.8328865
-0.0022664 0.2870779 0.8328584
-0.0022503 0.2876791 0.8328304
-0.0031711 0.2852857 0.8324500
-0.0013439 0.2885938 0.8332943
-0.0013278 0.2891951 0.8332662
-0.0018291 0.2864927 0.8331460
-0.0018130 0.2870940 0.8331179
-0.0017968 0.2876952 0.8330899
-0.0027187 0.2853018 0.8327089
-0.0009061 0.2880077 0.8335822
-0.0008899 0.2886100 0.8335541
-0.0008738 0.2892112 0.8335260
-0.0013757 0.2865088 0.8334055
-0.0013595 0.2871101 0.8333774
-0.0018291 0.2856132 0.8332007
-0.0022985 0.2841184 0.8330238
-0.0022824 0.2847186 0.8329958
-0.0004521 0.2880238 0.8338420
-0.0004359 0.2886261 0.8338139
-0.0004198 0.2892274 0.8337858
-0.0009222 0.2865250 0.8336650
-0.0009061 0.2871262 0.8336370
-0.0013762 0.2856293 0.8334599
-0.0018462 0.2841344 0.8332827
-0.0018301 0.2847347 0.8332546
0.0000019 0.2880400 0.8341019
0.0000180 0.2886422 0.8340737
0.0000342 0.2892435 0.8340457
-0.0004688 0.2865411 0.8339245
-0.0004527 0.2871423 0.8338965
-0.0009233 0.2856454 0.8337191
-0.0013938 0.2841505 0.8335416
-0.0013777 0.2847508 0.8335135
0.0008948 0.2883525 0.8345954
0.0009110 0.2889558 0.8345673
0.0004236 0.2868526 0.8344179
0.0004397 0.2874539 0.8343898
0.0004882 0.2892596 0.8343055
-0.0000315 0.2859559 0.8342121
-0.0005026 0.2844600 0.8340344
-0.0004865 0.2850603 0.8340063
-0.0009576 0.2835673 0.8338284
0.0013493 0.2883687 0.8348556
0.0013655 0.2889719 0.8348274
0.0013817 0.2895742 0.8347993
0.0008776 0.2868688 0.8346777
0.0008937 0.2874700 0.8346496
0.0003897 0.2847696 0.8345278
0.0004058 0.2853708 0.8344997
0.0004220 0.2859721 0.8344716
-0.0005213 0.2829842 0.8341153
-0.0005052 0.2835834 0.8340873
-0.0000689 0.2830002 0.8343742
-0.0000529 0.2835995 0.8343462
0.0008431 0.2847857 0.8347873
0.0008593 0.2853869 0.8347592
0.0008754 0.2859882 0.8347312
0.0013315 0.2868849 0.8349375
0.0013477 0.2874861 0.8349094
0.0018039 0.2883848 0.8351157
0.0018200 0.2889881 0.8350875
0.0018362 0.2895903 0.8350594
0.0003351 0.2812165 0.8347171
0.0003512 0.2818168 0.8346891
0.0003673 0.2824161 0.8346611
0.0003834 0.2830163 0.8346331
0.0008400 0.2839081 0.8348400
0.0012966 0.2848018 0.8350468
0.0013127 0.2854030 0.8350187
0.0017693 0.2862988 0.8352255
0.0022261 0.2871965 0.8354321
0.0022422 0.2877987 0.8354040
0.0022584 0.2884010 0.8353758
0.0022746 0.2890043 0.8353477
0.0022907 0.2896065 0.8353195
0.0007875 0.2812326 0.8349760
0.0012445 0.2821224 0.8351833
0.0012606 0.2827236 0.8351553
0.0012768 0.2833239 0.8351272
0.0017339 0.2842167 0.8353344
0.0017500 0.2848179 0.8353063
0.0017661 0.2854192 0.8352782
0.0022233 0.2863149 0.8354853
0.0026806 0.2872127 0.8356922
0.0026967 0.2878149 0.8356641
0.0027129 0.2884172 0.8356360
0.0027291 0.2890204 0.8356078
0.0027452 0.2896227 0.8355797
0.0012398 0.2812487 0.8352349
0.0016974 0.2821385 0.8354425
0.0017135 0.2827397 0.8354145
0.0017296 0.2833400 0.8353864
0.0021873 0.2842328 0.8355939
0.0022034 0.2848340 0.8355658
0.0022196 0.2854353 0.8355378
0.0026773 0.2863311 0.8357451
0.0031351 0.2872288 0.8359523
0.0031513 0.2878311 0.8359242
0.0031674 0.2884333 0.8358961
0.0031836 0.2890366 0.8358679
0.0031998 0.2896388 0.8358398
0.0021181 0.2809541 0.8357578
0.0021342 0.2815543 0.8357298
0.0025923 0.2824451 0.8359377
0.0026085 0.2830464 0.8359096
0.0026246 0.2836476 0.8358815
0.0026407 0.2842489 0.8358534
0.0030990 0.2851437 0.8360611
0.0031151 0.2857449 0.8360330
0.0035734 0.2866417 0.8362407
0.0036219 0.2884495 0.8361562
0.0036381 0.2890527 0.8361281
0.0036543 0.2896550 0.8360999
0.0040318 0.2875395 0.8364482
0.0040480 0.2881437 0.8364200
0.0030135 0.2812587 0.8362533
0.0030296 0.2818600 0.8362252
0.0030458 0.2824612 0.8361972
0.0030619 0.2830625 0.8361691
0.0030780 0.2836638 0.8361410
0.0035368 0.2845576 0.8363491
0.0035530 0.2851598 0.8363209
0.0035691 0.2857611 0.8362929
0.0040280 0.2866579 0.8365008
0.0041088 0.2896711 0.8363601
0.0044868 0.2875557 0.8367087
0.0045030 0.2881599 0.8366804
0.0045192 0.2887632 0.8366523
0.0045354 0.2893664 0.8366241
0.0034669 0.2812749 0.8365128
0.0034831 0.2818761 0.8364848
0.0034992 0.2824774 0.8364567
0.0035153 0.2830786 0.8364286
0.0035315 0.2836799 0.8364005
0.0039908 0.2845737 0.8366089
0.0044501 0.2854685 0.8368172
0.0044663 0.2860718 0.8367890
0.0044825 0.2866740 0.8367609
0.0045633 0.2896873 0.8366202
0.0049419 0.2875719 0.8369691
0.0049581 0.2881761 0.8369409
0.0049743 0.2887793 0.8369127
0.0049905 0.2893826 0.8368845
0.0039204 0.2812910 0.8367723
0.0039365 0.2818922 0.8367443
0.0039526 0.2824935 0.8367162
0.0039688 0.2830947 0.8366881
0.0044286 0.2839876 0.8368968
0.0044448 0.2845898 0.8368687
0.0049046 0.2854847 0.8370773
0.0049208 0.2860879 0.8370492
0.0049370 0.2866902 0.8370210
0.0050178 0.2897035 0.8368803
0.0053970 0.2875880 0.8372295
0.0054132 0.2881923 0.8372013
0.0054293 0.2887955 0.8371731
0.0054455 0.2893988 0.8371450
0.0048018 0.2809945 0.8372972
0.0048180 0.2815967 0.8372691
0.0048341 0.2821980 0.8372410
0.0048503 0.2828002 0.8372129
0.0048664 0.2834025 0.8371847
0.0048826 0.2840037 0.8371566
0.0048987 0.2846060 0.8371285
0.0053592 0.2855008 0.8373375
0.0053754 0.2861041 0.8373093
0.0058358 0.2870010 0.8375181
0.0058520 0.2876042 0.8374900
0.0058682 0.2882085 0.8374618
0.0058844 0.2888117 0.8374336
0.0059006 0.2894150 0.8374054
0.0052558 0.2810106 0.8375570
0.0052720 0.2816129 0.8375289
0.0052881 0.2822141 0.8375008
0.0053043 0.2828164 0.8374727
0.0053204 0.2834186 0.8374445
0.0053366 0.2840199 0.8374165
0.0057975 0.2849148 0.8376257
0.0058137 0.2855170 0.8375976
0.0058299 0.2861203 0.8375694
0.0062909 0.2870171 0.8377786
0.0063071 0.2876204 0.8377504
0.0063233 0.2882246 0.8377222
0.0063395 0.2888279 0.8376940
0.0063557 0.2894311 0.8376659
0.0057098 0.2810267 0.8378168
0.0057260 0.2816290 0.8377887
0.0057421 0.2822302 0.8377606
0.0057583 0.2828325 0.8377325
0.0057744 0.2834348 0.8377044
0.0057905 0.2840360 0.8376763
0.0062521 0.2849309 0.8378859
0.0062682 0.2855332 0.8378577
0.0062844 0.2861364 0.8378296
0.0067460 0.2870333 0.8380390
0.0067621 0.2876366 0.8380109
0.0067784 0.2882408 0.8379826
0.0067945 0.2888441 0.8379545
0.0068107 0.2894473 0.8379263
0.0066096 0.2813316 0.8383148
0.0066257 0.2819338 0.8382867
0.0066419 0.2825371 0.8382585
0.0066581 0.2831393 0.8382304
0.0066742 0.2837416 0.8382023
0.0066904 0.2843448 0.8381741
0.0067066 0.2849471 0.8381460
0.0071686 0.2858430 0.8383558
0.0071848 0.2864462 0.8383276
0.0072010 0.2870495 0.8382995
0.0072172 0.2876527 0.8382713
0.0072334 0.2882570 0.8382431
0.0076956 0.2891569 0.8384527
0.0077118 0.2897611 0.8384245
0.0070802 0.2819500 0.8385468
0.0070964 0.2825532 0.8385187
0.0071126 0.2831555 0.8384905
0.0071287 0.2837577 0.8384624
0.0071449 0.2843610 0.8384342
0.0074942 0.2810322 0.8388417
0.0075104 0.2816364 0.8388134
0.0076075 0.2852559 0.8386444
0.0076237 0.2858592 0.8386162
0.0076399 0.2864624 0.8385881
0.0076561 0.2870657 0.8385599
0.0076723 0.2876689 0.8385317
0.0076885 0.2882732 0.8385035
0.0081512 0.2891731 0.8387135
0.0081674 0.2897773 0.8386852
0.0075348 0.2819661 0.8388070
0.0075509 0.2825694 0.8387788
0.0075671 0.2831716 0.8387507
0.0075833 0.2837739 0.8387225
0.0075994 0.2843771 0.8386944
0.0079493 0.2810483 0.8391021
0.0079655 0.2816526 0.8390739
0.0080626 0.2852721 0.8389049
0.0080788 0.2858753 0.8388767
0.0080950 0.2864786 0.8388485
0.0081111 0.2870818 0.8388203
0.0081273 0.2876851 0.8387922
0.0081435 0.2882893 0.8387640
0.0086068 0.2891893 0.8389742
0.0086230 0.2897935 0.8389460
0.0080055 0.2825855 0.8390389
0.0080216 0.2831878 0.8390108
0.0080378 0.2837900 0.8389827
0.0084043 0.2810645 0.8393625
0.0084205 0.2816688 0.8393343
0.0084367 0.2822720 0.8393062
0.0085015 0.2846850 0.8391935
0.0085177 0.2852883 0.8391653
0.0085338 0.2858915 0.8391371
0.0085500 0.2864948 0.8391090
0.0085662 0.2870980 0.8390808
0.0090300 0.2879970 0.8392914
0.0090462 0.2886012 0.8392632
0.0090624 0.2892055 0.8392350
0.0090786 0.2898097 0.8392068
0.0088594 0.2810807 0.8396230
0.0088756 0.2816849 0.8395948
0.0088918 0.2822882 0.8395666
0.0089080 0.2828914 0.8395384
0.0089242 0.2834947 0.8395103
0.0089403 0.2840979 0.8394821
0.0089565 0.2847012 0.8394539
0.0089727 0.2853044 0.8394257
0.0089889 0.2859077 0.8393976
0.0090051 0.2865109 0.8393694
0.0090213 0.2871142 0.8393412
0.0092911 0.2807652 0.8398906
0.0094856 0.2880132 0.8395522
0.0095018 0.2886174 0.8395239
0.0095180 0.2892217 0.8394957
0.0095342 0.2898259 0.8394675
0.0093144 0.2810969 0.8398834
0.0093307 0.2817011 0.8398552
0.0093468 0.2823044 0.8398270
0.0093630 0.2829076 0.8397989
0.0093792 0.2835109 0.8397707
0.0093954 0.2841141 0.8397425
0.0094116 0.2847174 0.8397144
0.0094278 0.2853206 0.8396862
0.0094440 0.2859239 0.8396580
0.0094601 0.2865271 0.8396298
0.0094763 0.2871304 0.8396017
0.0097467 0.2807814 0.8401514
0.0099412 0.2880294 0.8398129
0.0099574 0.2886336 0.8397847
0.0099736 0.2892379 0.8397565
0.0099898 0.2898421 0.8397282
0.0098019 0.2823205 0.8400875
0.0098181 0.2829238 0.8400593
0.0098343 0.2835270 0.8400311
0.0098505 0.2841303 0.8400030
0.0098667 0.2847335 0.8399748
0.0098828 0.2853368 0.8399466
0.0098990 0.2859400 0.8399185
0.0102023 0.2807976 0.8404121
0.0102185 0.2814008 0.8403840
0.0102347 0.2820051 0.8403557
0.0103644 0.2868381 0.8401300
0.0103806 0.2874423 0.8401018
0.0103968 0.2880456 0.8400736
0.0104130 0.2886498 0.8400454
0.0108785 0.2895508 0.8402569
0.0107065 0.2826255 0.8405883
0.0107227 0.2832298 0.8405600
0.0107390 0.2838340 0.8405318
0.0107551 0.2844373 0.8405037
0.0107714 0.2850415 0.8404754
0.0107876 0.2856458 0.8404472
0.0108038 0.2862500 0.8404190
0.0108200 0.2868543 0.8403908
0.0108362 0.2874585 0.8403626
0.0111075 0.2811006 0.8409133
0.0111237 0.2817049 0.8408851
0.0111399 0.2823101 0.8408569
0.0113022 0.2883576 0.8405744
0.0113184 0.2889628 0.8405462
0.0113346 0.2895671 0.8405180
0.0115407 0.2807822 0.8411820
0.0111622 0.2826417 0.8408490
0.0111784 0.2832460 0.8408208
0.0111946 0.2838502 0.8407926
0.0112108 0.2844535 0.8407644
0.0112270 0.2850577 0.8407362
0.0112432 0.2856620 0.8407080
0.0112594 0.2862662 0.8406798
0.0112757 0.2868705 0.8406516
0.0112919 0.2874747 0.8406234
0.0115636 0.2811168 0.8411744
0.0115798 0.2817211 0.8411462
0.0115961 0.2823263 0.8411179
0.0117583 0.2883738 0.8408355
0.0117746 0.2889790 0.8408072
0.0117908 0.2895833 0.8407790
0.0119975 0.2807984 0.8414434
0.0116340 0.2832622 0.8410816
0.0116502 0.2838664 0.8410534
0.0116664 0.2844697 0.8410252
0.0116826 0.2850739 0.8409970
0.0120360 0.2817373 0.8414073
0.0120523 0.2823425 0.8413790
0.0120685 0.2829468 0.8413508
0.0121496 0.2859710 0.8412095
0.0121658 0.2865763 0.8411813
0.0121821 0.2871805 0.8411531
0.0121983 0.2877858 0.8411248
0.0122145 0.2883900 0.8410966
0.0122308 0.2889952 0.8410683
0.0122470 0.2895995 0.8410401
0.0124541 0.2808147 0.8417048
0.0124704 0.2814199 0.8416765
0.0125246 0.2829630 0.8416118
0.0125408 0.2835682 0.8415836
0.0125571 0.2841735 0.8415553
0.0125733 0.2847777 0.8415271
0.0125895 0.2853830 0.8414988
0.0126057 0.2859872 0.8414706
0.0126220 0.2865925 0.8414423
0.0126382 0.2871967 0.8414141
0.0126544 0.2878020 0.8413858
0.0126706 0.2884062 0.8413576
0.0126869 0.2890115 0.8413294
0.0127031 0.2896157 0.8413011
0.0129433 0.2820414 0.8419096
0.0129596 0.2826476 0.8418813
0.0129970 0.2835845 0.8418446
0.0130132 0.2841897 0.8418163
0.0130294 0.2847940 0.8417881
0.0130456 0.2853992 0.8417599
0.0130619 0.2860034 0.8417316
0.0130781 0.2866087 0.8417034
0.0130943 0.2872129 0.8416752
0.0134000 0.2820576 0.8421710
0.0134163 0.2826639 0.8421427
0.0134325 0.2832691 0.8421145
0.0135625 0.2881131 0.8418882
0.0135787 0.2887183 0.8418600
0.0135950 0.2893235 0.8418317
0.0136113 0.2899298 0.8418034
0.0134531 0.2836007 0.8421057
0.0134694 0.2842059 0.8420774
0.0134856 0.2848102 0.8420492
0.0135018 0.2854154 0.8420209
0.0135181 0.2860197 0.8419927
0.0135343 0.2866249 0.8419645
0.0135505 0.2872292 0.8419362
0.0138567 0.2820739 0.8424324
0.0138730 0.2826801 0.8424041
0.0138892 0.2832853 0.8423758
0.0140192 0.2881293 0.8421496
0.0140354 0.2887345 0.8421213
0.0140516 0.2893398 0.8420931
0.0140679 0.2899460 0.8420647
0.0143622 0.2839068 0.8426089
0.0143784 0.2845121 0.8425807
0.0143947 0.2851183 0.8425524
0.0144109 0.2857236 0.8425241
0.0144271 0.2863288 0.8424958
0.0144434 0.2869340 0.8424676
0.0144596 0.2875403 0.8424392
0.0144759 0.2881455 0.8424110
0.0148513 0.2851345 0.8428137
0.0148675 0.2857398 0.8427854
0.0153080 0.2851508 0.8430751
0.0153243 0.2857560 0.8430468
-0.0089229 0.2898748 0.8288604
-0.0084705 0.2898908 0.8291193
-0.0080181 0.2899069 0.8293782
-0.0080020 0.2905072 0.8293501
-0.0071349 0.2902231 0.8298660
-0.0075498 0.2905233 0.8296090
-0.0066820 0.2902392 0.8301252
-0.0070974 0.2905393 0.8298679
-0.0058132 0.2899542 0.8306420
-0.0062291 0.2902553 0.8303844
-0.0066450 0.2905554 0.8301268
-0.0066289 0.2911547 0.8300988
-0.0066128 0.2917549 0.8300708
-0.0053598 0.2899703 0.8309015
-0.0053437 0.2905716 0.8308734
-0.0057601 0.2908717 0.8306155
-0.0061766 0.2911708 0.8303577
-0.0061605 0.2917710 0.8303297
-0.0049064 0.2899864 0.8311610
-0.0048902 0.2905877 0.8311329
-0.0053072 0.2908878 0.8308747
-0.0057242 0.2911868 0.8306166
-0.0057081 0.2917871 0.8305885
-0.0044529 0.2900025 0.8314205
-0.0044368 0.2906038 0.8313925
-0.0048543 0.2909039 0.8311339
-0.0052719 0.2912029 0.8308755
-0.0052558 0.2918032 0.8308474
-0.0039995 0.2900187 0.8316800
-0.0039834 0.2906199 0.8316520
-0.0044014 0.2909200 0.8313931
-0.0048195 0.2912190 0.8311344
-0.0048034 0.2918193 0.8311063
-0.0047874 0.2924185 0.8310783
-0.0035461 0.2900348 0.8319396
-0.0035299 0.2906360 0.8319115
-0.0039485 0.2909361 0.8316523
-0.0043672 0.2912351 0.8313932
-0.0043511 0.2918353 0.8313652
-0.0043350 0.2924346 0.8313372
-0.0030926 0.2900509 0.8321991
-0.0030765 0.2906522 0.8321710
-0.0034957 0.2909522 0.8319115
-0.0034795 0.2915534 0.8318835
-0.0034634 0.2921537 0.8318554
-0.0038826 0.2924507 0.8315961
-0.0038665 0.2930509 0.8315681
-0.0038505 0.2936502 0.8315401
-0.0037056 0.2990485 0.8312880
-0.0022196 0.2897651 0.8327184
-0.0022034 0.2903663 0.8326903
-0.0026231 0.2906683 0.8324305
-0.0030428 0.2909683 0.8321707
-0.0030266 0.2915695 0.8321427
-0.0030105 0.2921698 0.8321146
-0.0034303 0.2924668 0.8318550
-0.0034142 0.2930670 0.8318270
-0.0033981 0.2936663 0.8317990
-0.0033820 0.2942665 0.8317710
-0.0033659 0.2948658 0.8317430
-0.0033498 0.2954661 0.8317149
-0.0033338 0.2960653 0.8316870
-0.0033176 0.2966656 0.8316589
-0.0033016 0.2972648 0.8316309
-0.0032855 0.2978651 0.8316029
-0.0032694 0.2984644 0.8315749
-0.0017656 0.2897812 0.8329782
-0.0017494 0.2903824 0.8329502
-0.0021696 0.2906844 0.8326900
-0.0021535 0.2912857 0.8326619
-0.0025737 0.2915856 0.8324019
-0.0025576 0.2921859 0.8323738
-0.0025415 0.2927861 0.8323458
-0.0025254 0.2933864 0.8323178
-0.0025093 0.2939867 0.8322897
-0.0024126 0.2975902 0.8321214
-0.0023965 0.2981905 0.8320934
-0.0029297 0.2942826 0.8320298
-0.0029136 0.2948819 0.8320019
-0.0028975 0.2954821 0.8319738
-0.0028814 0.2960814 0.8319458
-0.0028653 0.2966817 0.8319178
-0.0013116 0.2897973 0.8332381
-0.0012955 0.2903986 0.8332100
-0.0017162 0.2907005 0.8329495
-0.0017001 0.2913018 0.8329214
-0.0021208 0.2916017 0.8326611
-0.0021047 0.2922020 0.8326330
-0.0020886 0.2928022 0.8326050
-0.0020725 0.2934025 0.8325770
-0.0020564 0.2940028 0.8325489
-0.0019597 0.2976063 0.8323806
-0.0019436 0.2982066 0.8323526
-0.0024773 0.2942987 0.8322887
-0.0024612 0.2948980 0.8322607
-0.0024451 0.2954982 0.8322327
-0.0024291 0.2960975 0.8322047
-0.0024129 0.2966977 0.8321767
-0.0008576 0.2898135 0.8334979
-0.0008415 0.2904147 0.8334698
-0.0012628 0.2907166 0.8332090
-0.0012466 0.2913179 0.8331809
-0.0012305 0.2919192 0.8331529
-0.0012144 0.2925204 0.8331248
-0.0010853 0.2973295 0.8329002
-0.0010692 0.2979307 0.8328721
-0.0010531 0.2985320 0.8328440
-0.0016357 0.2928183 0.8328642
-0.0016196 0.2934186 0.8328362
-0.0016035 0.2940189 0.8328081
-0.0015874 0.2946201 0.8327800
-0.0015713 0.2952204 0.8327520
-0.0015552 0.2958206 0.8327240
-0.0015391 0.2964209 0.8326960
-0.0004036 0.2898296 0.8337577
-0.0003875 0.2904309 0.8337296
-0.0001776 0.2982562 0.8333642
-0.0001614 0.2988584 0.8333361
-0.0008093 0.2907328 0.8334685
-0.0007932 0.2913340 0.8334405
-0.0007771 0.2919353 0.8334124
-0.0007609 0.2925365 0.8333843
-0.0007448 0.2931378 0.8333562
-0.0007287 0.2937390 0.8333281
-0.0007125 0.2943403 0.8333001
-0.0006964 0.2949416 0.8332720
-0.0006803 0.2955428 0.8332439
-0.0006641 0.2961441 0.8332158
-0.0006480 0.2967443 0.8331878
-0.0006319 0.2973456 0.8331597
0.0000503 0.2898457 0.8340175
0.0000665 0.2904470 0.8339894
0.0002764 0.2982723 0.8336240
0.0002926 0.2988746 0.8335959
-0.0003559 0.2907489 0.8337280
-0.0003398 0.2913501 0.8337000
-0.0003236 0.2919514 0.8336719
-0.0003075 0.2925526 0.8336438
-0.0002914 0.2931539 0.8336157
-0.0002752 0.2937552 0.8335876
-0.0002591 0.2943564 0.8335596
-0.0002430 0.2949577 0.8335315
-0.0002268 0.2955589 0.8335034
-0.0002107 0.2961602 0.8334753
-0.0001946 0.2967604 0.8334473
-0.0001785 0.2973617 0.8334192
0.0011697 0.2985978 0.8341170
0.0005043 0.2898619 0.8342773
0.0005204 0.2904631 0.8342493
0.0007142 0.2976862 0.8339120
0.0000975 0.2907650 0.8339875
0.0001137 0.2913663 0.8339595
0.0001298 0.2919675 0.8339314
0.0001459 0.2925688 0.8339033
0.0001621 0.2931700 0.8338752
0.0001782 0.2937713 0.8338472
0.0001943 0.2943725 0.8338191
0.0002105 0.2949738 0.8337910
0.0002266 0.2955750 0.8337629
0.0002427 0.2961763 0.8337348
0.0002588 0.2967766 0.8337068
0.0016080 0.2980107 0.8344053
0.0016242 0.2986140 0.8343771
0.0009583 0.2898780 0.8345372
0.0009744 0.2904793 0.8345091
0.0009906 0.2910815 0.8344810
0.0011359 0.2964988 0.8342280
0.0011521 0.2971011 0.8341998
0.0005671 0.2913824 0.8342190
0.0005832 0.2919836 0.8341909
0.0005994 0.2925849 0.8341628
0.0006155 0.2931861 0.8341347
0.0006316 0.2937874 0.8341067
0.0006478 0.2943887 0.8340786
0.0006639 0.2949899 0.8340505
0.0006800 0.2955912 0.8340224
0.0010044 0.2907972 0.8345066
0.0010205 0.2913985 0.8344785
0.0010367 0.2919997 0.8344504
0.0010528 0.2926010 0.8344223
0.0010689 0.2932023 0.8343943
0.0010851 0.2938035 0.8343662
0.0011012 0.2944048 0.8343381
0.0011173 0.2950060 0.8343100
0.0011335 0.2956073 0.8342819
0.0014123 0.2898942 0.8347970
0.0014284 0.2904954 0.8347689
0.0015899 0.2965150 0.8344878
0.0016061 0.2971172 0.8344597
0.0020626 0.2980269 0.8346654
0.0020787 0.2986301 0.8346373
0.0014579 0.2908134 0.8347661
0.0014740 0.2914146 0.8347380
0.0014901 0.2920159 0.8347099
0.0015062 0.2926171 0.8346818
0.0015224 0.2932184 0.8346538
0.0015385 0.2938196 0.8346257
0.0015546 0.2944209 0.8345976
0.0015708 0.2950221 0.8345695
0.0018662 0.2899103 0.8350568
0.0018824 0.2905116 0.8350287
0.0020277 0.2959288 0.8347757
0.0020439 0.2965311 0.8347476
0.0020600 0.2971333 0.8347195
0.0025171 0.2980430 0.8349256
0.0029742 0.2989547 0.8351315
0.0019274 0.2914307 0.8349975
0.0019436 0.2920320 0.8349694
0.0019597 0.2926332 0.8349413
0.0019758 0.2932345 0.8349133
0.0019919 0.2938358 0.8348852
0.0020081 0.2944370 0.8348571
0.0020242 0.2950383 0.8348290
0.0023202 0.2899264 0.8353166
0.0023364 0.2905277 0.8352885
