0.0125147 0.2251155 0.8616084
0.0125179 0.2257338 0.8615675
0.0125210 0.2263511 0.8615266
0.0126165 0.2271664 0.8614797
0.0127119 0.2279827 0.8614328
0.0127151 0.2286019 0.8613918
0.0130292 0.2230708 0.8617842
0.0130324 0.2236890 0.8617433
0.0130355 0.2243063 0.8617025
0.0131317 0.2251187 0.8616558
0.0131348 0.2257369 0.8616149
0.0131380 0.2263542 0.8615741
0.0132341 0.2271695 0.8615272
0.0133303 0.2279858 0.8614803
0.0133334 0.2286051 0.8614393
0.0136454 0.2230739 0.8618316
0.0136485 0.2236922 0.8617907
0.0136517 0.2243095 0.8617498
0.0137485 0.2251218 0.8617032
0.0137517 0.2257401 0.8616623
0.0137548 0.2263574 0.8616215
0.0138517 0.2271727 0.8615747
0.0139486 0.2279890 0.8615278
0.0139518 0.2286083 0.8614869
0.0142678 0.2243126 0.8617972
0.0142710 0.2249299 0.8617564
0.0143686 0.2257432 0.8617098
0.0143717 0.2263605 0.8616689
0.0144693 0.2271758 0.8616222
0.0145669 0.2279922 0.8615754
0.0148841 0.2243158 0.8618446
0.0148872 0.2249331 0.8618037
0.0149854 0.2257464 0.8617572
0.0149886 0.2263637 0.8617163
0.0150869 0.2271790 0.8616697
0.0151852 0.2279953 0.8616229
0.0155002 0.2243189 0.8618920
0.0155033 0.2249362 0.8618511
0.0156024 0.2257496 0.8618046
0.0156055 0.2263668 0.8617638
0.0157045 0.2271822 0.8617171
0.0158036 0.2279985 0.8616705
0.0161195 0.2249394 0.8618985
0.0161226 0.2255567 0.8618576
0.0162224 0.2263700 0.8618112
0.0163222 0.2271853 0.8617646
0.0164219 0.2280017 0.8617180
0.0206548 0.2290643 0.8619741
0.0212724 0.2290674 0.8620216
0.0218901 0.2290706 0.8620691
0.0225076 0.2290738 0.8621166
0.0230208 0.2288778 0.8621693
0.0236376 0.2288810 0.8622167
0.0241455 0.2280678 0.8623100
0.0242546 0.2288841 0.8622641
0.0247648 0.2286892 0.8623165
0.0253810 0.2286924 0.8623639
0.0167419 0.2261781 0.8618641
0.0168425 0.2269914 0.8618177
0.0170402 0.2280048 0.8617655
0.0170434 0.2286241 0.8617246
0.0173582 0.2261812 0.8619115
0.0174593 0.2269946 0.8618651
0.0175605 0.2278109 0.8618186
0.0175637 0.2284292 0.8617777
0.0179743 0.2261844 0.8619588
0.0180762 0.2269977 0.8619126
0.0181781 0.2278141 0.8618661
0.0181813 0.2284324 0.8618252
0.0185905 0.2261875 0.8620062
0.0186931 0.2270009 0.8619600
0.0187957 0.2278172 0.8619136
0.0187988 0.2284355 0.8618727
0.0192099 0.2268080 0.8620127
0.0194133 0.2278204 0.8619611
0.0194165 0.2284387 0.8619202
0.0198260 0.2268111 0.8620601
0.0200309 0.2278236 0.8620085
0.0200341 0.2284418 0.8619676
0.0204422 0.2268143 0.8621075
0.0205469 0.2276287 0.8620614
0.0205501 0.2282469 0.8620205
0.0210583 0.2268174 0.8621549
0.0211638 0.2276318 0.8621088
0.0211669 0.2282501 0.8620679
0.0216745 0.2268206 0.8622022
0.0217807 0.2276350 0.8621562
0.0217839 0.2282532 0.8621153
0.0222938 0.2274410 0.8622088
0.0222970 0.2280583 0.8621679
0.0229100 0.2274442 0.8622561
0.0229131 0.2280615 0.8622153
0.0235262 0.2274473 0.8623035
0.0235294 0.2280646 0.8622627
0.0241424 0.2274505 0.8623509
0.0303135 0.2293349 0.8627020
0.0309297 0.2293380 0.8627494
0.0315458 0.2293412 0.8627968
0.0321620 0.2293443 0.8628441
0.0327751 0.2287302 0.8629323
0.0327782 0.2293475 0.8628915
0.0333912 0.2287334 0.8629797
0.0333943 0.2293506 0.8629389
0.0340105 0.2293538 0.8629862
0.0346266 0.2293569 0.8630336
0.0259972 0.2286955 0.8624112
0.0266133 0.2286987 0.8624586
0.0272295 0.2287018 0.8625060
0.0278456 0.2287050 0.8625534
0.0284619 0.2287081 0.8626007
0.0290780 0.2287113 0.8626481
0.0296941 0.2287144 0.8626955
0.0303104 0.2287176 0.8627429
0.0309265 0.2287207 0.8627902
0.0314985 0.2200780 0.8634097
0.0315427 0.2287239 0.8628376
0.0321146 0.2200811 0.8634571
0.0321588 0.2287270 0.8628850
0.0327309 0.2200843 0.8635045
0.0327340 0.2207026 0.8634636
0.0327372 0.2213198 0.8634227
0.0333502 0.2207057 0.8635109
0.0333533 0.2213230 0.8634701
0.0333565 0.2219403 0.8634292
0.0333880 0.2281151 0.8630206
0.0334636 0.2202766 0.8635483
0.0335771 0.2198466 0.8635856
0.0339663 0.2207089 0.8635583
0.0339695 0.2213261 0.8635175
0.0339726 0.2219434 0.8634766
0.0340805 0.2202798 0.8635957
0.0341947 0.2198497 0.8636331
0.0345825 0.2207120 0.8636057
0.0345856 0.2213293 0.8635648
0.0345888 0.2219466 0.8635240
0.0345919 0.2225639 0.8634831
0.0345951 0.2231811 0.8634423
0.0346974 0.2202829 0.8636431
0.0348122 0.2198529 0.8636806
0.0352208 0.2250371 0.8633671
0.0352429 0.2293601 0.8630810
0.0358338 0.2244230 0.8634553
0.0358369 0.2250403 0.8634144
0.0364499 0.2244262 0.8635026
0.0364531 0.2250434 0.8634618
0.0370662 0.2244293 0.8635500
0.0370693 0.2250466 0.8635092
0.0376823 0.2244325 0.8635974
0.0376854 0.2250497 0.8635565
0.0352050 0.2219497 0.8635714
0.0352082 0.2225670 0.8635305
0.0352113 0.2231843 0.8634897
0.0352145 0.2238026 0.8634487
0.0352176 0.2244199 0.8634079
0.0353174 0.2209044 0.8636496
0.0353205 0.2215227 0.8636087
0.0354298 0.2198560 0.8637281
0.0354330 0.2204753 0.8636871
0.0358211 0.2219529 0.8636187
0.0358243 0.2225702 0.8635779
0.0358275 0.2231875 0.8635370
0.0358306 0.2238057 0.8634961
0.0359343 0.2209075 0.8636971
0.0359375 0.2215258 0.8636561
0.0360475 0.2198592 0.8637756
0.0360506 0.2204785 0.8637346
0.0364404 0.2225733 0.8636253
0.0364436 0.2231906 0.8635844
0.0364468 0.2238089 0.8635435
0.0365512 0.2209107 0.8637445
0.0365543 0.2215290 0.8637036
0.0365575 0.2221472 0.8636627
0.0366650 0.2198624 0.8638231
0.0366682 0.2204816 0.8637821
0.0370567 0.2225765 0.8636726
0.0370598 0.2231938 0.8636318
0.0370630 0.2238120 0.8635909
0.0371681 0.2209138 0.8637919
0.0371713 0.2215321 0.8637510
0.0371744 0.2221504 0.8637101
0.0372826 0.2198655 0.8638705
0.0372858 0.2204848 0.8638296
0.0376728 0.2225796 0.8637200
0.0376760 0.2231969 0.8636792
0.0376791 0.2238152 0.8636382
0.0377849 0.2209170 0.8638393
0.0377881 0.2215353 0.8637984
0.0377913 0.2221536 0.8637575
0.0379003 0.2198687 0.8639180
0.0379034 0.2204879 0.8638770
0.0382858 0.2219655 0.8638082
0.0382890 0.2225828 0.8637674
0.0382921 0.2232001 0.8637265
0.0382953 0.2238183 0.8636856
0.0383987 0.2203019 0.8639277
0.0384019 0.2209202 0.8638868
0.0384050 0.2215384 0.8638459
0.0385178 0.2198718 0.8639655
0.0389020 0.2219687 0.8638556
0.0389051 0.2225859 0.8638147
0.0389083 0.2232032 0.8637739
0.0389114 0.2238215 0.8637330
0.0390156 0.2203050 0.8639751
0.0390187 0.2209233 0.8639342
0.0390219 0.2215416 0.8638933
0.0391354 0.2198750 0.8640130
0.0395182 0.2219718 0.8639030
0.0395214 0.2225891 0.8638621
0.0395245 0.2232064 0.8638213
0.0395277 0.2238246 0.8637804
0.0396325 0.2203082 0.8640225
0.0396356 0.2209265 0.8639816
0.0396388 0.2215448 0.8639407
0.0397531 0.2198782 0.8640605
0.0401280 0.2207404 0.8640320
0.0401312 0.2213577 0.8639912
0.0401343 0.2219750 0.8639503
0.0401375 0.2225922 0.8639095
0.0401406 0.2232095 0.8638686
0.0401438 0.2238278 0.8638277
0.0402493 0.2203114 0.8640700
0.0407442 0.2207436 0.8640794
0.0407473 0.2213608 0.8640386
0.0407505 0.2219781 0.8639977
0.0407536 0.2225954 0.8639569
0.0407568 0.2232127 0.8639160
0.0407599 0.2238310 0.8638751
0.0408663 0.2203145 0.8641174
0.0413667 0.2219813 0.8640451
0.0413699 0.2225986 0.8640042
0.0413730 0.2232158 0.8639634
0.0413762 0.2238341 0.8639225
0.0414831 0.2203177 0.8641648
0.0414863 0.2209359 0.8641239
0.0414894 0.2215542 0.8640830
0.0419829 0.2219844 0.8640925
0.0419860 0.2226017 0.8640516
0.0419892 0.2232190 0.8640108
0.0419923 0.2238373 0.8639699
0.0421000 0.2203208 0.8642123
0.0421032 0.2209391 0.8641713
0.0421064 0.2215574 0.8641304
0.0425990 0.2219876 0.8641398
0.0426022 0.2226049 0.8640990
0.0426053 0.2232221 0.8640581
0.0426085 0.2238404 0.8640172
0.0427169 0.2203240 0.8642597
0.0427200 0.2209423 0.8642188
0.0427232 0.2215605 0.8641778
0.0432183 0.2226080 0.8641464
0.0432215 0.2232253 0.8641055
0.0432246 0.2238436 0.8640646
0.0433338 0.2203271 0.8643071
0.0433370 0.2209454 0.8642662
0.0433401 0.2215637 0.8642253
0.0433433 0.2221820 0.8641844
0.0438345 0.2226112 0.8641937
0.0438377 0.2232284 0.8641529
0.0438409 0.2238467 0.8641120
0.0439506 0.2203303 0.8643545
0.0439538 0.2209486 0.8643136
0.0439570 0.2215669 0.8642727
0.0439601 0.2221851 0.8642318
0.0469501 0.2294200 0.8639811
0.0475662 0.2294232 0.8640285
0.0481824 0.2294263 0.8640758
0.0487986 0.2294295 0.8641232
0.0494147 0.2294326 0.8641706
0.0500309 0.2294358 0.8642179
0.0507806 0.2290199 0.8643035
0.0515350 0.2292223 0.8643483
0.0521526 0.2292255 0.8643958
0.0527701 0.2292286 0.8644433
0.0444570 0.2238499 0.8641593
0.0444602 0.2244672 0.8641185
0.0444633 0.2250844 0.8640777
0.0444665 0.2257017 0.8640368
0.0445676 0.2203335 0.8644020
0.0445707 0.2209517 0.8643611
0.0445739 0.2215700 0.8643201
0.0445771 0.2221883 0.8642792
0.0445802 0.2228066 0.8642383
0.0445834 0.2234248 0.8641974
0.0450763 0.2244703 0.8641659
0.0450794 0.2250876 0.8641250
0.0450826 0.2257049 0.8640842
0.0450858 0.2263231 0.8640433
0.0450889 0.2269404 0.8640024
0.0450921 0.2275577 0.8639616
0.0451939 0.2221914 0.8643266
0.0451971 0.2228097 0.8642857
0.0452002 0.2234280 0.8642448
0.0452034 0.2240463 0.8642039
0.0453146 0.2205259 0.8644468
0.0453178 0.2211442 0.8644059
0.0453210 0.2217634 0.8643650
0.0456924 0.2244735 0.8642132
0.0456956 0.2250907 0.8641724
0.0456987 0.2257080 0.8641315
0.0457019 0.2263263 0.8640906
0.0457051 0.2269436 0.8640498
0.0457082 0.2275609 0.8640089
0.0458108 0.2221946 0.8643741
0.0458140 0.2228129 0.8643332
0.0458172 0.2234312 0.8642923
0.0458203 0.2240494 0.8642513
0.0459323 0.2205290 0.8644943
0.0459354 0.2211473 0.8644534
0.0459386 0.2217666 0.8644124
0.0463150 0.2257112 0.8641789
0.0463181 0.2263295 0.8641380
0.0463213 0.2269467 0.8640972
0.0463245 0.2275640 0.8640563
0.0463276 0.2281813 0.8640155
0.0463308 0.2287996 0.8639746
0.0464372 0.2240526 0.8642988
0.0464403 0.2246709 0.8642579
0.0464435 0.2252891 0.8642169
0.0465466 0.2199129 0.8645828
0.0465498 0.2205322 0.8645418
0.0465593 0.2223890 0.8644189
0.0465625 0.2230073 0.8643780
0.0465656 0.2236266 0.8643370
0.0466847 0.2213407 0.8644984
0.0466879 0.2219600 0.8644574
0.0469406 0.2275672 0.8641037
0.0469438 0.2281845 0.8640628
0.0469469 0.2288027 0.8640219
0.0470635 0.2259106 0.8642235
0.0470666 0.2265279 0.8641826
0.0470698 0.2271461 0.8641417
0.0471643 0.2199161 0.8646303
0.0471864 0.2242490 0.8643436
0.0471896 0.2248673 0.8643026
0.0471927 0.2254866 0.8642617
0.0472997 0.2207236 0.8645870
0.0473029 0.2213439 0.8645459
0.0473061 0.2219632 0.8645050
0.0473092 0.2225825 0.8644640
0.0473124 0.2232027 0.8644229
0.0473156 0.2238220 0.8643820
0.0475567 0.2275703 0.8641511
0.0475599 0.2281876 0.8641102
0.0475631 0.2288059 0.8640693
0.0476836 0.2265310 0.8642300
0.0476867 0.2271493 0.8641891
0.0478072 0.2248704 0.8643501
0.0478104 0.2254897 0.8643091
0.0478135 0.2261090 0.8642682
0.0479149 0.2201075 0.8646755
0.0479181 0.2207268 0.8646345
0.0479307 0.2232059 0.8644705
0.0479339 0.2238252 0.8644295
0.0479371 0.2244454 0.8643884
0.0480543 0.2215364 0.8645912
0.0480575 0.2221566 0.8645501
0.0480607 0.2227769 0.8645091
0.0481730 0.2275735 0.8641984
0.0481761 0.2281908 0.8641576
0.0481793 0.2288090 0.8641167
0.0483004 0.2265342 0.8642775
0.0483036 0.2271524 0.8642366
0.0484247 0.2248736 0.8643976
0.0484279 0.2254929 0.8643566
0.0484311 0.2261121 0.8643156
0.0485332 0.2201107 0.8647230
0.0485364 0.2207300 0.8646821
0.0485491 0.2232090 0.8645180
0.0485522 0.2238283 0.8644770
0.0485554 0.2244486 0.8644360
0.0486734 0.2215395 0.8646387
0.0486765 0.2221598 0.8645977
0.0486797 0.2227801 0.8645567
0.0487923 0.2281939 0.8642050
0.0487954 0.2288122 0.8641641
0.0489237 0.2277739 0.8642431
0.0490487 0.2261153 0.8643631
0.0490519 0.2267336 0.8643222
0.0490550 0.2273529 0.8642812
0.0491516 0.2201139 0.8647706
0.0491547 0.2207331 0.8647296
0.0491769 0.2250710 0.8644425
0.0491801 0.2256903 0.8644016
0.0492924 0.2215427 0.8646863
0.0492956 0.2221630 0.8646453
0.0492987 0.2227832 0.8646042
0.0493019 0.2234035 0.8645632
0.0493051 0.2240238 0.8645222
0.0493083 0.2246450 0.8644810
0.0495405 0.2277770 0.8642905
0.0495437 0.2283953 0.8642496
0.0495468 0.2290136 0.8642087
0.0496695 0.2267367 0.8643697
0.0496727 0.2273560 0.8643287
0.0497699 0.2201170 0.8648181
0.0498016 0.2263137 0.8644081
0.0499083 0.2209256 0.8647750
0.0499114 0.2215459 0.8647339
0.0499178 0.2227864 0.8646518
0.0499209 0.2234067 0.8646108
0.0499241 0.2240269 0.8645698
0.0499273 0.2246482 0.8645286
0.0499304 0.2252685 0.8644876
0.0499336 0.2258887 0.8644466
0.0500499 0.2223564 0.8646907
0.0501574 0.2277802 0.8643379
0.0501606 0.2283985 0.8642970
0.0501638 0.2290167 0.8642561
0.0502870 0.2267399 0.8644172
0.0502902 0.2273592 0.8643762
0.0503882 0.2201202 0.8648657
0.0504199 0.2263169 0.8644556
0.0505274 0.2209288 0.8648226
0.0505305 0.2215490 0.8647815
0.0505369 0.2227896 0.8646994
0.0505401 0.2234098 0.8646584
0.0505432 0.2240301 0.8646174
0.0505464 0.2246514 0.8645762
0.0505496 0.2252716 0.8645352
0.0505527 0.2258919 0.8644942
0.0506696 0.2223596 0.8647383
0.0507774 0.2284016 0.8643444
0.0509110 0.2279816 0.8643827
0.0510066 0.2201234 0.8649132
0.0510414 0.2269393 0.8644622
0.0510446 0.2275596 0.8644211
0.0511464 0.2209319 0.8648702
0.0511654 0.2246545 0.8646238
0.0511686 0.2252748 0.8645828
0.0511718 0.2258951 0.8645417
0.0511749 0.2265153 0.8645007
0.0512862 0.2217415 0.8648271
0.0512893 0.2223628 0.8647860
0.0512925 0.2229840 0.8647448
0.0512957 0.2236053 0.8647037
0.0512989 0.2242265 0.8646626
0.0515318 0.2286030 0.8643893
0.0516597 0.2269425 0.8645097
0.0516629 0.2275628 0.8644687
0.0516660 0.2281820 0.8644277
0.0517623 0.2203148 0.8649588
0.0517654 0.2209351 0.8649178
0.0517876 0.2252780 0.8646304
0.0517908 0.2258982 0.8645893
0.0517940 0.2265185 0.8645483
0.0519060 0.2217447 0.8648747
0.0519218 0.2248510 0.8646692
0.0520465 0.2225562 0.8648316
0.0520497 0.2231785 0.8647904
0.0520529 0.2237997 0.8647493
0.0520561 0.2244220 0.8647081
0.0521494 0.2286062 0.8644368
0.0522780 0.2269457 0.8645572
0.0522812 0.2275659 0.8645162
0.0522844 0.2281852 0.8644752
0.0523813 0.2203180 0.8650064
0.0523845 0.2209383 0.8649654
0.0524066 0.2252811 0.8646780
0.0524098 0.2259014 0.8646369
0.0524130 0.2265217 0.8645959
0.0525257 0.2217478 0.8649224
0.0525416 0.2248541 0.8647168
0.0526669 0.2225594 0.8648793
0.0526701 0.2231817 0.8648381
0.0526733 0.2238029 0.8647970
0.0526765 0.2244252 0.8647558
0.0527670 0.2286094 0.8644842
0.0529027 0.2281884 0.8645228
0.0530003 0.2203212 0.8650540
0.0530352 0.2271451 0.8646024
0.0530383 0.2277654 0.8645614
0.0531422 0.2211297 0.8650111
0.0531454 0.2217510 0.8649700
0.0531645 0.2254776 0.8647234
0.0531676 0.2260989 0.8646823
0.0531708 0.2267201 0.8646412
0.0532875 0.2225626 0.8649270
0.0532906 0.2231848 0.8648858
0.0532938 0.2238061 0.8648447
0.0532970 0.2244284 0.8648035
0.0533002 0.2250496 0.8647624
0.0535241 0.2288108 0.8645293
0.0536193 0.2203243 0.8651016
0.0536542 0.2271483 0.8646500
0.0536574 0.2277685 0.8646090
0.0536605 0.2283888 0.8645679
0.0537621 0.2211329 0.8650588
0.0537906 0.2267233 0.8646889
0.0539047 0.2219445 0.8650158
0.0539238 0.2256750 0.8647689
0.0539269 0.2262973 0.8647277
0.0540475 0.2227561 0.8649728
0.0540506 0.2233793 0.8649315
0.0540538 0.2240016 0.8648904
0.0540570 0.2246238 0.8648492
0.0540602 0.2252461 0.8648080
0.0573780 0.2290281 0.8648125
0.0579970 0.2290313 0.8648600
0.0586160 0.2290344 0.8649076
0.0592350 0.2290376 0.8649552
0.0598541 0.2290408 0.8650028
0.0604731 0.2290439 0.8650504
0.0612403 0.2292454 0.8650963
0.0618601 0.2292486 0.8651439
0.0624798 0.2292518 0.8651916
0.0630995 0.2292549 0.8652392
0.0541424 0.2288140 0.8645768
0.0542384 0.2203275 0.8651492
0.0542732 0.2271514 0.8646976
0.0542764 0.2277717 0.8646566
0.0542796 0.2283920 0.8646155
0.0543818 0.2211361 0.8651064
0.0544103 0.2267265 0.8647365
0.0545252 0.2219477 0.8650635
0.0545443 0.2256782 0.8648166
0.0545475 0.2263005 0.8647754
0.0546686 0.2227592 0.8650205
0.0546717 0.2233825 0.8649793
0.0546749 0.2240047 0.8649381
0.0546813 0.2252493 0.8648558
0.0548184 0.2248193 0.8648950
0.0547608 0.2288171 0.8646244
0.0548574 0.2203307 0.8651968
0.0548986 0.2283951 0.8646631
0.0550015 0.2211393 0.8651541
0.0550332 0.2273509 0.8647430
0.0550364 0.2279722 0.8647019
0.0551456 0.2219508 0.8651112
0.0551647 0.2256814 0.8648643
0.0551679 0.2263037 0.8648231
0.0551711 0.2269249 0.8647820
0.0552898 0.2227624 0.8650683
0.0552930 0.2233857 0.8650270
0.0552961 0.2240079 0.8649859
0.0553025 0.2252524 0.8649035
0.0554403 0.2248225 0.8649428
0.0554764 0.2203338 0.8652444
0.0555176 0.2283983 0.8647107
0.0555208 0.2290186 0.8646697
0.0556213 0.2211424 0.8652017
0.0556531 0.2273541 0.8647907
0.0556562 0.2279753 0.8647496
0.0557662 0.2219540 0.8651589
0.0557916 0.2269281 0.8648297
0.0559110 0.2227656 0.8651160
0.0559142 0.2233888 0.8650748
0.0559269 0.2258789 0.8649100
0.0559301 0.2265011 0.8648689
0.0560590 0.2242024 0.8650318
0.0560622 0.2248257 0.8649906
0.0560654 0.2254489 0.8649493
0.0560954 0.2203370 0.8652920
0.0561398 0.2290217 0.8647173
0.0562791 0.2285998 0.8647561
0.0563834 0.2213349 0.8652478
0.0564152 0.2275535 0.8648363
0.0564183 0.2281748 0.8647952
0.0565290 0.2221465 0.8652050
0.0565322 0.2227688 0.8651638
0.0565481 0.2258821 0.8649578
0.0565513 0.2265043 0.8649166
0.0565545 0.2271266 0.8648754
0.0566777 0.2235823 0.8651209
0.0566809 0.2242056 0.8650796
0.0566841 0.2248289 0.8650384
0.0566873 0.2254521 0.8649972
0.0567146 0.2203402 0.8653396
0.0567589 0.2290249 0.8647649
0.0568989 0.2286029 0.8648038
0.0570039 0.2213381 0.8652955
0.0570357 0.2275567 0.8648840
0.0570389 0.2281780 0.8648429
0.0571501 0.2221497 0.8652527
0.0571533 0.2227719 0.8652116
0.0571692 0.2258852 0.8650055
0.0571724 0.2265075 0.8649644
0.0571756 0.2271298 0.8649232
0.0572996 0.2235855 0.8651687
0.0573028 0.2242088 0.8651275
0.0573060 0.2248320 0.8650862
0.0573092 0.2254553 0.8650450
0.0573336 0.2203433 0.8653871
0.0575187 0.2286061 0.8648514
0.0576243 0.2213413 0.8653432
0.0576561 0.2275599 0.8649317
0.0576593 0.2281811 0.8648906
0.0577713 0.2221529 0.8653005
0.0577745 0.2227751 0.8652593
0.0577968 0.2271329 0.8649710
0.0579216 0.2235887 0.8652165
0.0579247 0.2242120 0.8651753
0.0579279 0.2248352 0.8651340
0.0579311 0.2254585 0.8650928
0.0579343 0.2260817 0.8650515
0.0579375 0.2267050 0.8650103
0.0580940 0.2199136 0.8654745
0.0580971 0.2205348 0.8654334
0.0581384 0.2286093 0.8648991
0.0582448 0.2213445 0.8653909
0.0582766 0.2275631 0.8649794
0.0582798 0.2281843 0.8649383
0.0583926 0.2221560 0.8653483
0.0583957 0.2227783 0.8653071
0.0584180 0.2271361 0.8650187
0.0585435 0.2235919 0.8652643
0.0585466 0.2242151 0.8652231
0.0585498 0.2248384 0.8651818
0.0585530 0.2254617 0.8651406
0.0585562 0.2260849 0.8650994
0.0585594 0.2267082 0.8650581
0.0587137 0.2199168 0.8655221
0.0587169 0.2205380 0.8654810
0.0587581 0.2286125 0.8649467
0.0588653 0.2213476 0.8654386
0.0588970 0.2275662 0.8650271
0.0589002 0.2281875 0.8649860
0.0590138 0.2221592 0.8653960
0.0590169 0.2227815 0.8653548
0.0590392 0.2271393 0.8650665
0.0591654 0.2235951 0.8653121
0.0591686 0.2242183 0.8652709
0.0591717 0.2248416 0.8652297
0.0591749 0.2254648 0.8651884
0.0591781 0.2260881 0.8651472
0.0591813 0.2267114 0.8651059
0.0593334 0.2199199 0.8655698
0.0593366 0.2205412 0.8655287
0.0593778 0.2286156 0.8649944
0.0594858 0.2213508 0.8654863
0.0595175 0.2275694 0.8650748
0.0595207 0.2281907 0.8650337
0.0596349 0.2221624 0.8654438
0.0596381 0.2227847 0.8654026
0.0596412 0.2234079 0.8653614
0.0596603 0.2271425 0.8651142
0.0597905 0.2242215 0.8653187
0.0597936 0.2248448 0.8652775
0.0597968 0.2254680 0.8652362
0.0598000 0.2260913 0.8651950
0.0598032 0.2267145 0.8651537
0.0599532 0.2199231 0.8656174
0.0599564 0.2205444 0.8655763
0.0599977 0.2286188 0.8650420
0.0601062 0.2213540 0.8655340
0.0601380 0.2275726 0.8651225
0.0601411 0.2281938 0.8650814
0.0602561 0.2221656 0.8654915
0.0602593 0.2227878 0.8654504
0.0602625 0.2234111 0.8654091
0.0602815 0.2271456 0.8651620
0.0604124 0.2242247 0.8653665
0.0604156 0.2248480 0.8653253
0.0604187 0.2254712 0.8652840
0.0604219 0.2260945 0.8652428
0.0604251 0.2267177 0.8652016
0.0605729 0.2199263 0.8656651
0.0605761 0.2205475 0.8656240
0.0606174 0.2286220 0.8650897
0.0607267 0.2213572 0.8655817
0.0607585 0.2275758 0.8651702
0.0607617 0.2281970 0.8651291
0.0608773 0.2221688 0.8655393
0.0608805 0.2227910 0.8654981
0.0608837 0.2234143 0.8654569
0.0608964 0.2259043 0.8652921
0.0608996 0.2265266 0.8652509
0.0609028 0.2271488 0.8652098
0.0610343 0.2242279 0.8654143
0.0610375 0.2248511 0.8653731
0.0610406 0.2254744 0.8653319
0.0611927 0.2199294 0.8657127
0.0611958 0.2205507 0.8656716
0.0612371 0.2286251 0.8651373
0.0613471 0.2213603 0.8656294
0.0613503 0.2219826 0.8655882
0.0613535 0.2226039 0.8655471
0.0613789 0.2275789 0.8652179
0.0613821 0.2282002 0.8651768
0.0615048 0.2234175 0.8655046
0.0615080 0.2240397 0.8654635
0.0615143 0.2252842 0.8653811
0.0615175 0.2259075 0.8653399
0.0615207 0.2265297 0.8652987
0.0615239 0.2271520 0.8652575
0.0616594 0.2248543 0.8654209
0.0618125 0.2199326 0.8657604
0.0618157 0.2205539 0.8657193
0.0619676 0.2213635 0.8656771
0.0619708 0.2219858 0.8656359
0.0619740 0.2226070 0.8655948
0.0619994 0.2275821 0.8652656
0.0620026 0.2282034 0.8652245
0.0620058 0.2288256 0.8651833
0.0621260 0.2234206 0.8655524
0.0621292 0.2240429 0.8655112
0.0621355 0.2252874 0.8654289
0.0621387 0.2259107 0.8653876
0.0621419 0.2265329 0.8653464
0.0621451 0.2271552 0.8653053
0.0622813 0.2248575 0.8654687
0.0624322 0.2199358 0.8658080
0.0624354 0.2205571 0.8657669
0.0625881 0.2213667 0.8657248
0.0625912 0.2219889 0.8656836
0.0625944 0.2226102 0.8656425
0.0626198 0.2275853 0.8653133
0.0626230 0.2282066 0.8652722
0.0626262 0.2288288 0.8652310
0.0627472 0.2234238 0.8656002
0.0627504 0.2240461 0.8655590
0.0627536 0.2246683 0.8655178
0.0627567 0.2252906 0.8654766
0.0627599 0.2259138 0.8654354
0.0627631 0.2265361 0.8653942
0.0627663 0.2271584 0.8653530
0.0630519 0.2199390 0.8658557
0.0630551 0.2205602 0.8658145
0.0630583 0.2211805 0.8657735
0.0632117 0.2219921 0.8657313
0.0632149 0.2226134 0.8656902
0.0632181 0.2232356 0.8656490
0.0632403 0.2275885 0.8653610
0.0632435 0.2282097 0.8653199
0.0632467 0.2288320 0.8652787
0.0643391 0.2292613 0.8653345
0.0649588 0.2292644 0.8653821
0.0655786 0.2292676 0.8654298
0.0661983 0.2292708 0.8654774
0.0668181 0.2292740 0.8655251
0.0674379 0.2292771 0.8655727
0.0705366 0.2292930 0.8658110
0.0711563 0.2292962 0.8658586
0.0717761 0.2292993 0.8659063
0.0723958 0.2293025 0.8659539
0.0633716 0.2240493 0.8656067
0.0633748 0.2246715 0.8655656
0.0633780 0.2252938 0.8655244
0.0633811 0.2259170 0.8654831
0.0633843 0.2265393 0.8654420
0.0633875 0.2271615 0.8654008
0.0636717 0.2199421 0.8659033
0.0636749 0.2205634 0.8658622
0.0636781 0.2211837 0.8658212
0.0637193 0.2292581 0.8652869
0.0638323 0.2219953 0.8657790
0.0638354 0.2226166 0.8657379
0.0638386 0.2232388 0.8656967
0.0638609 0.2275916 0.8654087
0.0638640 0.2282129 0.8653676
0.0638672 0.2288352 0.8653264
0.0639927 0.2240524 0.8656545
0.0639959 0.2246747 0.8656133
0.0639991 0.2252970 0.8655721
0.0640023 0.2259202 0.8655309
0.0640054 0.2265425 0.8654897
0.0640086 0.2271647 0.8654485
0.0642915 0.2199453 0.8659510
0.0642946 0.2205666 0.8659098
0.0642978 0.2211868 0.8658688
0.0644527 0.2219985 0.8658267
0.0644559 0.2226197 0.8657856
0.0644590 0.2232420 0.8657444
0.0644813 0.2275948 0.8654564
0.0644845 0.2282161 0.8654153
0.0644876 0.2288383 0.8653741
0.0646139 0.2240556 0.8657022
0.0646171 0.2246779 0.8656611
0.0646203 0.2253001 0.8656199
0.0646235 0.2259234 0.8655787
0.0646266 0.2265456 0.8655375
0.0646298 0.2271679 0.8654963
0.0647620 0.2203814 0.8659583
0.0649175 0.2211900 0.8659165
0.0649207 0.2218113 0.8658753
0.0649239 0.2224325 0.8658342
0.0650796 0.2232452 0.8657922
0.0650827 0.2238664 0.8657510
0.0650986 0.2269757 0.8655453
0.0651018 0.2275980 0.8655041
0.0651050 0.2282193 0.8654630
0.0651081 0.2288415 0.8654218
0.0652383 0.2246811 0.8657088
0.0652415 0.2253033 0.8656677
0.0652447 0.2259266 0.8656264
0.0652479 0.2265488 0.8655852
0.0653810 0.2203845 0.8660059
0.0655373 0.2211932 0.8659641
0.0655405 0.2218144 0.8659230
0.0655437 0.2224357 0.8658819
0.0657000 0.2232483 0.8658399
0.0657031 0.2238696 0.8657987
0.0657063 0.2244919 0.8657576
0.0657095 0.2251131 0.8657165
0.0657127 0.2257354 0.8656753
0.0657159 0.2263576 0.8656341
0.0657190 0.2269789 0.8655930
0.0657222 0.2276012 0.8655518
0.0657254 0.2282224 0.8655107
0.0657286 0.2288447 0.8654695
0.0660000 0.2203877 0.8660535
0.0660032 0.2210080 0.8660124
0.0661602 0.2218176 0.8659706
0.0661634 0.2224389 0.8659295
0.0663205 0.2232515 0.8658876
0.0663237 0.2238728 0.8658465
0.0663268 0.2244950 0.8658053
0.0663300 0.2251163 0.8657642
0.0663332 0.2257386 0.8657230
0.0663364 0.2263608 0.8656818
0.0663395 0.2269821 0.8656407
0.0663427 0.2276043 0.8655995
0.0663459 0.2282256 0.8655584
0.0663491 0.2288479 0.8655172
0.0666190 0.2203909 0.8661010
0.0666222 0.2210111 0.8660600
0.0667800 0.2218208 0.8660183
0.0667831 0.2224420 0.8659772
0.0669409 0.2232547 0.8659353
0.0669441 0.2238760 0.8658942
0.0669473 0.2244982 0.8658530
0.0669504 0.2251195 0.8658119
0.0669536 0.2257417 0.8657707
0.0669568 0.2263640 0.8657295
0.0669600 0.2269853 0.8656884
0.0669631 0.2276075 0.8656472
0.0669663 0.2282288 0.8656061
0.0669695 0.2288510 0.8655649
0.0672381 0.2203940 0.8661486
0.0672412 0.2210143 0.8661076
0.0673998 0.2218240 0.8660659
0.0674030 0.2224452 0.8660248
0.0674061 0.2230665 0.8659837
0.0675646 0.2238791 0.8659419
0.0675678 0.2245014 0.8659007
0.0675709 0.2251227 0.8658596
0.0675741 0.2257449 0.8658184
0.0675773 0.2263672 0.8657772
0.0675805 0.2269884 0.8657361
0.0675837 0.2276107 0.8656949
0.0675868 0.2282320 0.8656538
0.0675900 0.2288542 0.8656126
0.0678571 0.2203972 0.8661962
0.0678603 0.2210175 0.8661552
0.0680195 0.2218271 0.8661136
0.0680227 0.2224484 0.8660725
0.0680259 0.2230697 0.8660314
0.0681850 0.2238823 0.8659896
0.0681882 0.2245046 0.8659484
0.0681914 0.2251258 0.8659073
0.0681945 0.2257481 0.8658661
0.0681977 0.2263703 0.8658249
0.0682009 0.2269916 0.8657838
0.0682041 0.2276139 0.8657426
0.0682072 0.2282351 0.8657015
0.0682104 0.2288574 0.8656603
0.0684762 0.2204004 0.8662438
0.0684794 0.2210206 0.8662028
0.0686392 0.2218303 0.8661612
0.0686424 0.2224516 0.8661201
0.0686456 0.2230728 0.8660790
0.0688055 0.2238855 0.8660373
0.0688087 0.2245077 0.8659961
0.0688119 0.2251290 0.8659550
0.0688151 0.2257513 0.8659138
0.0688182 0.2263735 0.8658726
0.0688214 0.2269948 0.8658315
0.0688246 0.2276170 0.8657903
0.0688278 0.2282383 0.8657492
0.0688309 0.2288606 0.8657081
0.0690952 0.2204035 0.8662914
0.0690984 0.2210238 0.8662504
0.0692589 0.2218335 0.8662089
0.0692621 0.2224547 0.8661678
0.0692653 0.2230760 0.8661267
0.0692685 0.2236973 0.8660855
0.0692716 0.2243185 0.8660444
0.0694323 0.2251322 0.8660027
0.0694355 0.2257544 0.8659615
0.0694387 0.2263767 0.8659203
0.0694418 0.2269980 0.8658792
0.0694450 0.2276202 0.8658380
0.0694482 0.2282415 0.8657969
0.0694514 0.2288637 0.8657558
0.0697143 0.2204067 0.8663390
0.0697174 0.2210270 0.8662980
0.0698788 0.2218366 0.8662565
0.0698819 0.2224579 0.8662154
0.0698851 0.2230792 0.8661743
0.0698883 0.2237004 0.8661332
0.0698915 0.2243217 0.8660921
0.0700528 0.2251354 0.8660504
0.0700560 0.2257576 0.8660092
0.0700592 0.2263799 0.8659680
0.0700623 0.2270011 0.8659269
0.0700655 0.2276234 0.8658857
0.0700687 0.2282447 0.8658446
0.0700719 0.2288669 0.8658035
0.0703333 0.2204099 0.8663866
0.0703365 0.2210301 0.8663456
0.0704985 0.2218398 0.8663042
0.0705017 0.2224611 0.8662631
0.0705048 0.2230823 0.8662220
0.0705080 0.2237036 0.8661808
0.0705112 0.2243249 0.8661397
0.0705239 0.2268089 0.8659754
0.0705271 0.2274302 0.8659343
0.0705302 0.2280515 0.8658931
0.0705334 0.2286727 0.8658520
0.0706732 0.2251385 0.8660981
0.0706764 0.2257608 0.8660569
0.0706796 0.2263830 0.8660157
0.0709523 0.2204130 0.8664342
0.0709555 0.2210333 0.8663932
0.0709587 0.2216536 0.8663521
0.0709618 0.2222738 0.8663111
0.0711246 0.2230855 0.8662696
0.0711277 0.2237068 0.8662285
0.0711309 0.2243280 0.8661874
0.0711341 0.2249493 0.8661463
0.0711372 0.2255696 0.8661052
0.0711404 0.2261908 0.8660641
0.0711436 0.2268121 0.8660230
0.0711468 0.2274334 0.8659819
0.0711499 0.2280546 0.8659408
0.0711531 0.2286759 0.8658997
0.0715713 0.2204162 0.8664818
0.0715745 0.2210365 0.8664408
0.0715777 0.2216567 0.8663997
0.0715809 0.2222770 0.8663587
0.0717444 0.2230887 0.8663173
0.0717476 0.2237099 0.8662761
0.0717507 0.2243312 0.8662350
0.0717539 0.2249525 0.8661939
0.0717571 0.2255727 0.8661529
0.0717602 0.2261940 0.8661118
0.0717634 0.2268153 0.8660707
0.0717666 0.2274365 0.8660296
0.0717698 0.2280578 0.8659884
0.0717729 0.2286791 0.8659473
0.0721904 0.2204194 0.8665294
0.0721935 0.2210396 0.8664883
0.0721967 0.2216599 0.8664473
0.0721999 0.2222802 0.8664063
0.0723641 0.2230919 0.8663649
0.0723673 0.2237131 0.8663238
0.0723704 0.2243344 0.8662827
0.0723736 0.2249556 0.8662416
0.0723768 0.2255759 0.8662005
0.0723800 0.2261972 0.8661594
0.0723831 0.2268184 0.8661183
0.0723863 0.2274397 0.8660772
0.0723895 0.2280610 0.8660361
0.0723927 0.2286822 0.8659950
0.0759490 0.2291231 0.8662403
0.0765680 0.2291263 0.8662879
0.0770203 0.2289311 0.8663358
0.0776386 0.2289342 0.8663833
0.0782569 0.2289374 0.8664308
0.0788752 0.2289405 0.8664784
0.0794935 0.2289437 0.8665259
0.0801118 0.2289469 0.8665735
0.0807302 0.2289500 0.8666210
0.0813485 0.2289532 0.8666685
0.0728094 0.2204225 0.8665770
0.0728126 0.2210428 0.8665359
0.0728411 0.2266262 0.8661665
0.0728443 0.2272465 0.8661254
0.0728474 0.2278668 0.8660844
0.0728506 0.2284870 0.8660433
0.0729775 0.2218525 0.8664948
0.0729806 0.2224738 0.8664537
0.0729838 0.2230950 0.8664126
0.0729870 0.2237163 0.8663714
0.0729902 0.2243376 0.8663303
0.0729933 0.2249588 0.8662892
0.0729965 0.2255791 0.8662482
0.0729997 0.2262004 0.8662071
0.0730156 0.2293057 0.8660016
0.0734284 0.2204257 0.8666246
0.0734316 0.2210460 0.8665835
0.0734601 0.2266294 0.8662141
0.0734633 0.2272497 0.8661730
0.0734665 0.2278699 0.8661320
0.0734696 0.2284902 0.8660909
0.0735973 0.2218557 0.8665424
0.0736005 0.2224769 0.8665013
0.0736036 0.2230982 0.8664602
0.0736068 0.2237195 0.8664191
0.0736100 0.2243407 0.8663780
0.0736132 0.2249620 0.8663369
0.0736163 0.2255823 0.8662958
0.0736195 0.2262035 0.8662547
0.0736354 0.2293088 0.8660492
0.0740474 0.2204289 0.8666722
0.0740506 0.2210491 0.8666311
0.0740728 0.2253920 0.8663437
0.0740760 0.2260123 0.8663027
0.0740791 0.2266326 0.8662617
0.0740823 0.2272528 0.8662206
0.0740855 0.2278731 0.8661796
0.0740887 0.2284934 0.8661385
0.0740918 0.2291136 0.8660975
0.0742170 0.2218588 0.8665901
0.0742202 0.2224801 0.8665490
0.0742234 0.2231014 0.8665079
0.0742265 0.2237226 0.8664667
0.0742297 0.2243439 0.8664256
0.0742329 0.2249652 0.8663845
0.0746666 0.2204320 0.8667198
0.0746856 0.2241537 0.8664735
0.0746888 0.2247749 0.8664324
0.0746919 0.2253952 0.8663913
0.0746951 0.2260155 0.8663503
0.0746983 0.2266357 0.8663093
0.0747014 0.2272560 0.8662682
0.0747046 0.2278763 0.8662272
0.0747078 0.2284965 0.8661861
0.0747109 0.2291168 0.8661451
0.0748336 0.2212408 0.8666788
0.0748367 0.2218620 0.8666377
0.0748399 0.2224833 0.8665966
0.0748431 0.2231045 0.8665555
0.0748463 0.2237258 0.8665144
0.0752856 0.2204352 0.8667674
0.0753046 0.2241568 0.8665211
0.0753078 0.2247781 0.8664800
0.0753110 0.2253984 0.8664389
0.0753141 0.2260186 0.8663979
0.0753173 0.2266389 0.8663568
0.0753205 0.2272592 0.8663158
0.0753236 0.2278794 0.8662748
0.0753268 0.2284997 0.8662337
0.0753300 0.2291200 0.8661927
0.0754534 0.2212439 0.8667265
0.0754565 0.2218652 0.8666854
0.0754597 0.2224865 0.8666443
0.0754629 0.2231077 0.8666032
0.0754661 0.2237290 0.8665620
0.0757710 0.2264466 0.8664047
0.0757741 0.2270659 0.8663637
0.0759046 0.2204384 0.8668150
0.0759173 0.2229195 0.8666508
0.0759205 0.2235397 0.8666097
0.0759236 0.2241600 0.8665687
0.0759268 0.2247813 0.8665276
0.0759300 0.2254015 0.8664865
0.0759331 0.2260218 0.8664455
0.0759427 0.2278826 0.8663223
0.0759458 0.2285029 0.8662813
0.0760731 0.2212471 0.8667741
0.0760763 0.2218684 0.8667330
0.0760794 0.2224896 0.8666919
0.0763893 0.2264498 0.8664522
0.0763925 0.2270691 0.8664112
0.0763956 0.2276893 0.8663702
0.0763988 0.2283086 0.8663292
0.0765363 0.2229226 0.8666984
0.0765395 0.2235429 0.8666573
0.0765427 0.2241632 0.8666163
0.0765458 0.2247844 0.8665752
0.0765490 0.2254047 0.8665341
0.0765522 0.2260250 0.8664931
0.0766865 0.2200087 0.8669039
0.0766896 0.2206300 0.8668628
0.0766928 0.2212503 0.8668218
0.0766960 0.2218715 0.8667807
0.0766992 0.2224928 0.8667396
0.0770013 0.2252134 0.8665818
0.0770045 0.2258327 0.8665408
0.0770076 0.2264530 0.8664998
0.0770108 0.2270722 0.8664588
0.0770140 0.2276925 0.8664177
0.0770171 0.2283118 0.8663768
0.0771553 0.2229258 0.8667460
0.0771585 0.2235461 0.8667049
0.0771617 0.2241663 0.8666639
0.0771649 0.2247876 0.8666228
0.0773063 0.2200119 0.8669516
0.0773095 0.2206332 0.8669105
0.0773126 0.2212534 0.8668694
0.0773158 0.2218747 0.8668283
0.0773190 0.2224960 0.8667872
0.0776196 0.2252166 0.8666293
0.0776228 0.2258359 0.8665883
0.0776260 0.2264561 0.8665473
0.0776291 0.2270754 0.8665063
0.0776323 0.2276957 0.8664653
0.0776355 0.2283149 0.8664243
0.0777744 0.2229290 0.8667936
0.0777775 0.2235492 0.8667525
0.0777807 0.2241695 0.8667115
0.0777839 0.2247908 0.8666704
0.0779260 0.2200151 0.8669992
0.0779292 0.2206363 0.8669581
0.0779324 0.2212566 0.8669171
0.0779355 0.2218779 0.8668760
0.0779387 0.2224991 0.8668349
0.0782347 0.2246005 0.8667178
0.0782379 0.2252198 0.8666769
0.0782410 0.2258390 0.8666359
0.0782442 0.2264593 0.8665948
0.0782474 0.2270786 0.8665538
0.0782505 0.2276988 0.8665128
0.0782537 0.2283181 0.8664718
0.0783934 0.2229321 0.8668411
0.0783966 0.2235524 0.8668001
0.0783997 0.2241727 0.8667591
0.0785457 0.2200183 0.8670469
0.0785489 0.2206395 0.8670058
0.0785521 0.2212598 0.8669647
0.0785553 0.2218810 0.8669236
0.0785584 0.2225023 0.8668825
0.0786968 0.2268853 0.8666014
0.0786999 0.2275046 0.8665604
0.0787031 0.2281238 0.8665195
0.0788530 0.2246036 0.8667654
0.0788562 0.2252229 0.8667244
0.0788594 0.2258422 0.8666834
0.0788625 0.2264625 0.8666424
0.0790124 0.2229353 0.8668887
0.0790156 0.2235556 0.8668477
0.0790188 0.2241758 0.8668066
0.0791655 0.2200214 0.8670945
0.0791686 0.2206427 0.8670534
0.0791718 0.2212630 0.8670124
0.0791750 0.2218842 0.8669713
0.0791781 0.2225055 0.8669301
0.0793144 0.2268885 0.8666489
0.0793176 0.2275077 0.8666079
0.0793207 0.2281270 0.8665669
0.0794714 0.2246068 0.8668129
0.0794745 0.2252261 0.8667719
0.0794777 0.2258454 0.8667310
0.0794809 0.2264656 0.8666899
0.0796314 0.2229385 0.8669363
0.0796346 0.2235587 0.8668953
0.0796378 0.2241790 0.8668542
0.0797853 0.2200246 0.8671422
0.0797884 0.2206459 0.8671011
0.0797916 0.2212661 0.8670600
0.0797948 0.2218874 0.8670189
0.0797980 0.2225087 0.8669778
0.0799320 0.2268916 0.8666964
0.0799352 0.2275109 0.8666554
0.0799384 0.2281302 0.8666144
0.0800897 0.2246100 0.8668604
0.0800928 0.2252293 0.8668195
0.0800960 0.2258485 0.8667785
0.0800992 0.2264688 0.8667374
0.0802506 0.2229416 0.8669839
0.0802537 0.2235619 0.8669429
0.0802569 0.2241822 0.8669018
0.0804050 0.2200278 0.8671898
0.0804082 0.2206490 0.8671487
0.0804113 0.2212693 0.8671077
0.0804145 0.2218906 0.8670666
0.0804177 0.2225118 0.8670254
0.0805496 0.2268948 0.8667439
0.0805527 0.2275141 0.8667029
0.0805559 0.2281333 0.8666619
0.0807080 0.2246131 0.8669080
0.0807112 0.2252324 0.8668670
0.0807143 0.2258517 0.8668260
0.0807175 0.2264720 0.8667850
0.0808664 0.2223245 0.8670726
0.0808696 0.2229448 0.8670315
0.0808728 0.2235651 0.8669905
0.0808759 0.2241853 0.8669494
0.0810311 0.2212725 0.8671553
0.0810342 0.2218937 0.8671142
0.0811958 0.2202184 0.8672382
0.0811990 0.2208407 0.8671970
0.0811672 0.2268979 0.8667914
0.0811704 0.2275172 0.8667504
0.0811735 0.2281365 0.8667094
0.0813263 0.2246163 0.8669555
0.0813295 0.2252356 0.8669145
0.0813327 0.2258549 0.8668736
0.0813358 0.2264751 0.8668325
0.0814854 0.2223277 0.8671202
0.0814886 0.2229480 0.8670791
0.0814918 0.2235682 0.8670381
0.0814950 0.2241885 0.8669970
0.0816509 0.2212756 0.8672030
0.0816541 0.2218969 0.8671619
0.0846154 0.2291675 0.8669066
0.0852345 0.2291706 0.8669542
0.0858535 0.2291738 0.8670018
0.0864726 0.2291770 0.8670494
0.0870916 0.2291802 0.8670969
0.0878896 0.2293818 0.8671451
0.0885094 0.2293850 0.8671928
0.0891291 0.2293881 0.8672404
0.0897489 0.2293913 0.8672881
0.0903686 0.2293945 0.8673357
0.0818163 0.2202216 0.8672859
0.0818195 0.2208439 0.8672447
0.0817848 0.2269011 0.8668388
0.0817880 0.2275204 0.8667979
0.0817912 0.2281397 0.8667569
0.0819447 0.2246195 0.8670031
0.0819478 0.2252387 0.8669621
0.0819510 0.2258580 0.8669211
0.0819542 0.2264783 0.8668801
0.0819668 0.2289564 0.8667161
0.0821045 0.2223309 0.8671678
0.0821076 0.2229511 0.8671267
0.0821108 0.2235714 0.8670857
0.0821140 0.2241917 0.8670446
0.0822706 0.2212788 0.8672506
0.0822738 0.2219001 0.8672095
0.0824367 0.2202248 0.8673336
0.0824399 0.2208470 0.8672924
0.0825630 0.2246226 0.8670506
0.0825662 0.2252419 0.8670096
0.0825693 0.2258612 0.8669686
0.0825725 0.2264814 0.8669276
0.0825757 0.2271007 0.8668866
0.0825788 0.2277210 0.8668456
0.0825820 0.2283403 0.8668046
0.0825852 0.2289595 0.8667636
0.0827235 0.2223340 0.8672153
0.0827267 0.2229543 0.8671743
0.0827298 0.2235746 0.8671333
0.0827330 0.2241948 0.8670922
0.0828871 0.2206617 0.8673393
0.0828903 0.2212820 0.8672983
0.0828935 0.2219033 0.8672571
0.0830572 0.2202280 0.8673813
0.0831813 0.2246258 0.8670981
0.0831845 0.2252451 0.8670572
0.0831877 0.2258643 0.8670162
0.0831908 0.2264846 0.8669751
0.0831940 0.2271039 0.8669342
0.0831972 0.2277242 0.8668931
0.0832003 0.2283434 0.8668521
0.0832035 0.2289627 0.8668112
0.0833425 0.2223372 0.8672629
0.0833457 0.2229575 0.8672219
0.0833489 0.2235777 0.8671808
0.0833520 0.2241980 0.8671398
0.0835070 0.2206649 0.8673870
0.0835101 0.2212852 0.8673459
0.0835133 0.2219064 0.8673048
0.0836776 0.2202311 0.8674290
0.0837996 0.2246290 0.8671457
0.0838027 0.2252482 0.8671047
0.0838059 0.2258675 0.8670637
0.0838091 0.2264878 0.8670227
0.0838122 0.2271071 0.8669817
0.0838154 0.2277273 0.8669407
0.0838186 0.2283466 0.8668997
0.0838217 0.2289659 0.8668587
0.0839615 0.2223404 0.8673105
0.0839647 0.2229606 0.8672695
0.0839679 0.2235809 0.8672284
0.0839711 0.2242012 0.8671874
0.0841267 0.2206681 0.8674346
0.0841299 0.2212883 0.8673936
0.0841330 0.2219096 0.8673524
0.0842982 0.2202343 0.8674767
0.0844179 0.2246321 0.8671932
0.0844210 0.2252514 0.8671522
0.0844242 0.2258707 0.8671113
0.0844274 0.2264909 0.8670702
0.0844305 0.2271102 0.8670292
0.0844337 0.2277305 0.8669882
0.0844369 0.2283498 0.8669472
0.0845806 0.2223435 0.8673581
0.0845837 0.2229638 0.8673171
0.0845869 0.2235841 0.8672760
0.0845901 0.2242043 0.8672350
0.0847464 0.2206712 0.8674823
0.0847496 0.2212915 0.8674412
0.0847528 0.2219128 0.8674001
0.0849186 0.2202375 0.8675244
0.0851996 0.2223467 0.8674057
0.0852028 0.2229670 0.8673647
0.0852059 0.2235872 0.8673236
0.0852091 0.2242075 0.8672826
0.0852123 0.2248288 0.8672415
0.0852155 0.2254490 0.8672004
0.0852186 0.2260693 0.8671594
0.0852218 0.2266896 0.8671183
0.0852250 0.2273098 0.8670773
0.0852281 0.2279301 0.8670362
0.0852313 0.2285504 0.8669952
0.0853662 0.2206744 0.8675299
0.0853694 0.2212947 0.8674889
0.0853726 0.2219159 0.8674477
0.0855391 0.2202407 0.8675721
0.0858186 0.2223499 0.8674533
0.0858218 0.2229701 0.8674123
0.0858250 0.2235904 0.8673712
0.0858281 0.2242107 0.8673302
0.0858313 0.2248319 0.8672891
0.0858345 0.2254522 0.8672480
0.0858376 0.2260725 0.8672070
0.0858408 0.2266927 0.8671659
0.0858440 0.2273130 0.8671249
0.0858472 0.2279333 0.8670838
0.0858503 0.2285536 0.8670428
0.0859860 0.2206776 0.8675776
0.0859891 0.2212978 0.8675365
0.0859923 0.2219191 0.8674954
0.0861595 0.2202438 0.8676198
0.0864377 0.2223530 0.8675009
0.0864409 0.2229733 0.8674599
0.0864441 0.2235936 0.8674188
0.0864473 0.2242138 0.8673778
0.0864504 0.2248351 0.8673367
0.0864536 0.2254554 0.8672956
0.0864568 0.2260756 0.8672546
0.0864599 0.2266959 0.8672135
0.0864631 0.2273162 0.8671725
0.0864663 0.2279365 0.8671314
0.0864694 0.2285567 0.8670904
0.0866057 0.2206808 0.8676252
0.0866088 0.2213010 0.8675842
0.0866120 0.2219223 0.8675430
0.0867800 0.2202470 0.8676675
0.0870568 0.2223562 0.8675485
0.0870599 0.2229765 0.8675075
0.0870631 0.2235967 0.8674664
0.0870663 0.2242170 0.8674254
0.0870695 0.2248383 0.8673843
0.0870726 0.2254585 0.8673432
0.0870758 0.2260788 0.8673022
0.0870790 0.2266991 0.8672611
0.0870821 0.2273194 0.8672201
0.0870853 0.2279396 0.8671790
0.0870885 0.2285599 0.8671380
0.0872254 0.2206839 0.8676728
0.0872286 0.2213042 0.8676318
0.0872317 0.2219255 0.8675907
0.0874004 0.2202502 0.8677152
0.0876758 0.2223594 0.8675961
0.0876790 0.2229796 0.8675550
0.0876821 0.2235999 0.8675140
0.0876853 0.2242202 0.8674730
0.0876885 0.2248414 0.8674318
0.0876916 0.2254617 0.8673908
0.0876948 0.2260820 0.8673498
0.0876980 0.2267023 0.8673087
0.0877012 0.2273225 0.8672677
0.0877043 0.2279428 0.8672266
0.0877075 0.2285631 0.8671856
0.0878452 0.2206871 0.8677205
0.0878484 0.2213074 0.8676795
0.0878516 0.2219286 0.8676383
0.0880210 0.2202534 0.8677629
0.0882948 0.2223625 0.8676437
0.0882980 0.2229828 0.8676026
0.0883012 0.2236031 0.8675616
0.0883043 0.2242234 0.8675206
0.0883075 0.2248446 0.8674794
0.0883107 0.2254649 0.8674384
0.0883138 0.2260852 0.8673974
0.0883170 0.2267054 0.8673563
0.0883202 0.2273257 0.8673153
0.0883234 0.2279460 0.8672742
0.0883265 0.2285662 0.8672332
0.0884649 0.2206903 0.8677681
0.0884681 0.2213105 0.8677271
0.0884713 0.2219318 0.8676860
0.0886414 0.2202565 0.8678106
0.0889170 0.2229860 0.8676502
0.0889202 0.2236063 0.8676092
0.0889234 0.2242265 0.8675681
0.0889265 0.2248478 0.8675270
0.0889297 0.2254681 0.8674860
0.0889329 0.2260883 0.8674449
0.0889360 0.2267086 0.8674039
0.0889392 0.2273289 0.8673629
0.0889424 0.2279491 0.8673218
0.0889455 0.2285694 0.8672808
0.0890847 0.2206934 0.8678158
0.0890878 0.2213137 0.8677747
0.0890910 0.2219350 0.8677336
0.0890942 0.2225562 0.8676925
0.0892619 0.2202597 0.8678583
0.0895360 0.2229892 0.8676978
0.0895392 0.2236094 0.8676568
0.0895424 0.2242297 0.8676157
0.0895456 0.2248510 0.8675746
0.0895487 0.2254712 0.8675336
0.0895519 0.2260915 0.8674925
0.0895551 0.2267118 0.8674515
0.0895582 0.2273320 0.8674104
0.0897045 0.2206966 0.8678634
0.0897076 0.2213169 0.8678224
0.0897108 0.2219381 0.8677813
0.0897140 0.2225594 0.8677402
0.0897426 0.2281498 0.8673702
0.0897457 0.2287710 0.8673291
0.0898823 0.2202629 0.8679060
0.0901551 0.2229923 0.8677454
0.0901582 0.2236126 0.8677044
0.0901614 0.2242329 0.8676633
0.0901646 0.2248541 0.8676222
0.0901677 0.2254744 0.8675812
0.0901709 0.2260947 0.8675401
0.0901741 0.2267149 0.8674991
0.0901773 0.2273352 0.8674580
0.0903242 0.2206998 0.8679111
0.0903274 0.2213201 0.8678700
0.0903305 0.2219413 0.8678289
0.0903337 0.2225626 0.8677878
0.0903623 0.2281530 0.8674179
0.0903655 0.2287742 0.8673768
0.0905028 0.2202661 0.8679538
0.0907741 0.2229955 0.8677930
0.0907773 0.2236158 0.8677520
0.0907804 0.2242360 0.8677109
0.0907836 0.2248573 0.8676698
0.0907868 0.2254776 0.8676288
0.0907899 0.2260978 0.8675877
0.0907931 0.2267181 0.8675467
0.0928444 0.2287869 0.8675674
0.0936496 0.2289876 0.8676162
0.0942701 0.2289908 0.8676639
0.0948906 0.2289939 0.8677116
0.0955110 0.2289971 0.8677593
0.0963198 0.2291978 0.8678084
0.0969410 0.2292010 0.8678562
0.0975622 0.2292042 0.8679039
0.0981833 0.2292074 0.8679517
0.0988045 0.2292105 0.8679994
0.0909439 0.2207030 0.8679587
0.0909471 0.2213232 0.8679177
0.0909503 0.2219445 0.8678766
0.0909534 0.2225657 0.8678355
0.0909788 0.2275349 0.8675067
0.0909820 0.2281561 0.8674655
0.0909852 0.2287774 0.8674244
0.0911232 0.2202692 0.8680015
0.0913931 0.2229987 0.8678406
0.0913963 0.2236189 0.8677996
0.0913995 0.2242392 0.8677585
0.0914026 0.2248605 0.8677174
0.0914058 0.2254807 0.8676764
0.0914090 0.2261010 0.8676353
0.0915637 0.2207061 0.8680064
0.0915669 0.2213264 0.8679653
0.0915701 0.2219477 0.8679242
0.0915733 0.2225689 0.8678831
0.0915955 0.2269168 0.8675954
0.0915986 0.2275380 0.8675543
0.0916018 0.2281593 0.8675132
0.0916050 0.2287806 0.8674721
0.0917438 0.2202724 0.8680492
0.0920122 0.2230018 0.8678882
0.0920154 0.2236221 0.8678472
0.0920186 0.2242424 0.8678061
0.0920218 0.2248636 0.8677650
0.0920249 0.2254839 0.8677240
0.0920281 0.2261042 0.8676829
0.0921835 0.2207093 0.8680540
0.0921866 0.2213296 0.8680130
0.0921898 0.2219508 0.8679719
0.0921930 0.2225721 0.8679308
0.0922152 0.2269199 0.8676431
0.0922184 0.2275412 0.8676020
0.0922215 0.2281625 0.8675608
0.0922247 0.2287837 0.8675197
0.0923642 0.2202756 0.8680969
0.0926376 0.2242455 0.8678537
0.0926408 0.2248668 0.8678126
0.0928032 0.2207125 0.8681017
0.0928063 0.2213327 0.8680606
0.0928095 0.2219540 0.8680195
0.0928127 0.2225753 0.8679784
0.0928159 0.2231965 0.8679373
0.0928190 0.2238178 0.8678962
0.0928286 0.2256806 0.8677729
0.0928317 0.2263018 0.8677318
0.0928349 0.2269231 0.8676907
0.0928381 0.2275444 0.8676496
0.0928413 0.2281656 0.8676085
0.0929847 0.2202788 0.8681446
0.0934230 0.2207156 0.8681493
0.0934262 0.2213359 0.8681083
0.0934293 0.2219572 0.8680672
0.0934325 0.2225784 0.8680261
0.0934357 0.2231997 0.8679850
0.0934389 0.2238210 0.8679438
0.0934420 0.2244422 0.8679027
0.0934452 0.2250635 0.8678616
0.0934484 0.2256838 0.8678206
0.0934516 0.2263050 0.8677795
0.0934547 0.2269263 0.8677384
0.0936051 0.2202819 0.8681923
0.0936432 0.2277441 0.8676985
0.0936464 0.2283653 0.8676574
0.0940427 0.2207188 0.8681970
0.0940459 0.2213391 0.8681559
0.0940491 0.2219603 0.8681148
0.0940522 0.2225816 0.8680737
0.0940554 0.2232029 0.8680326
0.0940586 0.2238241 0.8679915
0.0940618 0.2244454 0.8679504
0.0940649 0.2250667 0.8679093
0.0940681 0.2256869 0.8678682
0.0940713 0.2263082 0.8678271
0.0940745 0.2269295 0.8677860
0.0942256 0.2202851 0.8682400
0.0942638 0.2277472 0.8677462
0.0942669 0.2283685 0.8677051
0.0946624 0.2207220 0.8682446
0.0946656 0.2213423 0.8682036
0.0946688 0.2219635 0.8681625
0.0946720 0.2225848 0.8681214
0.0946751 0.2232060 0.8680803
0.0946783 0.2238273 0.8680391
0.0946815 0.2244486 0.8679980
0.0946847 0.2250698 0.8679569
0.0946878 0.2256901 0.8679159
0.0946910 0.2263114 0.8678748
0.0948461 0.2202883 0.8682877
0.0948811 0.2271282 0.8678351
0.0948843 0.2277504 0.8677939
0.0948874 0.2283717 0.8677528
0.0952823 0.2207252 0.8682923
0.0952854 0.2213454 0.8682512
0.0952886 0.2219667 0.8682101
0.0952918 0.2225880 0.8681690
0.0952950 0.2232092 0.8681279
0.0952981 0.2238305 0.8680868
0.0953013 0.2244517 0.8680457
0.0953045 0.2250730 0.8680046
0.0953076 0.2256933 0.8679635
0.0953108 0.2263145 0.8679224
0.0954666 0.2202915 0.8683354
0.0955015 0.2271313 0.8678828
0.0955047 0.2277536 0.8678416
0.0955079 0.2283749 0.8678005
0.0959020 0.2207283 0.8683399
0.0959051 0.2213486 0.8682989
0.0959083 0.2219699 0.8682578
0.0959115 0.2225911 0.8682167
0.0959147 0.2232124 0.8681756
0.0959178 0.2238337 0.8681344
0.0959210 0.2244549 0.8680933
0.0959242 0.2250762 0.8680522
0.0959274 0.2256964 0.8680112
0.0959305 0.2263177 0.8679701
0.0960871 0.2202946 0.8683831
0.0961220 0.2271345 0.8679305
0.0961252 0.2277568 0.8678893
0.0963166 0.2285756 0.8678496
0.0965249 0.2213518 0.8683465
0.0965280 0.2219730 0.8683054
0.0965312 0.2225943 0.8682643
0.0965344 0.2232156 0.8682232
0.0965376 0.2238368 0.8681821
0.0965407 0.2244581 0.8681410
0.0967075 0.2202978 0.8684308
0.0967107 0.2209201 0.8683896
0.0967329 0.2252719 0.8681016
0.0967361 0.2258942 0.8680605
0.0967393 0.2265164 0.8680193
0.0967424 0.2271377 0.8679782
0.0967456 0.2277599 0.8679370
0.0967488 0.2283812 0.8678959
0.0971447 0.2213549 0.8683942
0.0971479 0.2219762 0.8683531
0.0971510 0.2225975 0.8683120
0.0971542 0.2232187 0.8682709
0.0971574 0.2238400 0.8682297
0.0971606 0.2244613 0.8681886
0.0973280 0.2203010 0.8684785
0.0973312 0.2209232 0.8684373
0.0973534 0.2252751 0.8681494
0.0973566 0.2258973 0.8681082
0.0973598 0.2265196 0.8680670
0.0973630 0.2271409 0.8680259
0.0973661 0.2277631 0.8679847
0.0973693 0.2283844 0.8679436
0.0977644 0.2213581 0.8684418
0.0977676 0.2219794 0.8684007
0.0977708 0.2226006 0.8683596
0.0977739 0.2232219 0.8683185
0.0979484 0.2203042 0.8685262
0.0979516 0.2209264 0.8684850
0.0979675 0.2240347 0.8682793
0.0979707 0.2246570 0.8682382
0.0979738 0.2252783 0.8681971
0.0979770 0.2259005 0.8681559
0.0979802 0.2265228 0.8681147
0.0981738 0.2273396 0.8680753
0.0981769 0.2279628 0.8680340
0.0981801 0.2285851 0.8679929
0.0983841 0.2213613 0.8684895
0.0983873 0.2219825 0.8684484
0.0983905 0.2226038 0.8684073
0.0983937 0.2232251 0.8683661
0.0985689 0.2203073 0.8685739
0.0985721 0.2209296 0.8685327
0.0985880 0.2240379 0.8683270
0.0985912 0.2246602 0.8682859
