0.0092267 0.2227699 0.8710950
0.0092138 0.2233916 0.8710596
0.0089342 0.2217246 0.8712688
0.0086418 0.2206764 0.8714428
0.0086289 0.2212991 0.8714073
0.0083623 0.2190014 0.8716524
0.0083494 0.2196252 0.8716169
0.0083365 0.2202489 0.8715814
0.0080571 0.2185719 0.8717911
0.0077649 0.2175147 0.8719656
0.0077519 0.2181404 0.8719300
0.0074597 0.2170812 0.8721046
0.0097904 0.2221353 0.8709308
0.0097775 0.2227570 0.8708954
0.0095115 0.2204673 0.8711398
0.0094986 0.2210900 0.8711044
0.0094857 0.2217118 0.8710690
0.0092068 0.2200408 0.8712782
0.0089151 0.2189885 0.8714521
0.0089022 0.2196122 0.8714166
0.0086364 0.2173096 0.8716618
0.0086234 0.2179343 0.8716262
0.0086105 0.2185590 0.8715906
0.0103412 0.2221224 0.8707313
0.0103284 0.2227442 0.8706959
0.0100629 0.2204544 0.8709400
0.0100500 0.2210772 0.8709046
0.0100371 0.2216989 0.8708692
0.0097589 0.2200279 0.8710781
0.0094678 0.2189756 0.8712519
0.0094549 0.2195993 0.8712164
0.0091897 0.2172967 0.8714613
0.0091768 0.2179214 0.8714257
0.0091639 0.2185461 0.8713901
0.0109049 0.2214879 0.8705671
0.0108921 0.2221096 0.8705317
0.0108792 0.2227313 0.8704963
0.0106144 0.2204416 0.8707402
0.0106015 0.2210643 0.8707048
0.0103110 0.2200150 0.8708781
0.0100335 0.2183390 0.8710871
0.0100206 0.2189627 0.8710516
0.0100076 0.2195864 0.8710161
0.0097431 0.2172837 0.8712608
0.0097302 0.2179084 0.8712252
0.0114558 0.2214750 0.8703675
0.0114429 0.2220967 0.8703321
0.0114300 0.2227184 0.8702967
0.0111658 0.2204287 0.8705404
0.0111529 0.2210514 0.8705050
0.0108889 0.2187557 0.8707490
0.0108760 0.2193794 0.8707135
0.0108631 0.2200021 0.8706781
0.0106120 0.2170787 0.8709579
0.0105991 0.2177024 0.8709224
0.0105862 0.2183261 0.8708869
0.0119937 0.2220839 0.8701325
0.0119808 0.2227056 0.8700971
0.0117173 0.2204158 0.8703406
0.0117044 0.2210385 0.8703052
0.0116915 0.2216602 0.8702698
0.0114410 0.2187428 0.8705490
0.0114281 0.2193665 0.8705135
0.0114152 0.2199892 0.8704780
0.0111648 0.2170658 0.8707576
0.0111519 0.2176895 0.8707221
0.0111389 0.2183132 0.8706866
0.0125445 0.2220710 0.8699330
0.0125316 0.2226927 0.8698976
0.0122687 0.2204029 0.8701408
0.0122558 0.2210256 0.8701054
0.0122429 0.2216474 0.8700700
0.0119931 0.2187299 0.8703490
0.0119802 0.2193536 0.8703135
0.0119673 0.2199763 0.8702780
0.0117175 0.2170529 0.8705573
0.0117046 0.2176766 0.8705218
0.0116917 0.2183003 0.8704863
0.0130953 0.2220581 0.8697334
0.0130824 0.2226798 0.8696980
0.0130696 0.2233016 0.8696626
0.0128202 0.2203900 0.8699410
0.0128073 0.2210128 0.8699056
0.0127944 0.2216345 0.8698702
0.0125451 0.2187170 0.8701490
0.0125322 0.2193407 0.8701134
0.0125193 0.2199634 0.8700780
0.0122702 0.2170399 0.8703571
0.0122573 0.2176637 0.8703216
0.0122444 0.2182874 0.8702861
0.0136462 0.2220453 0.8695338
0.0136333 0.2226670 0.8694984
0.0136204 0.2232887 0.8694630
0.0136076 0.2239104 0.8694276
0.0135947 0.2245321 0.8693923
0.0133716 0.2203772 0.8697412
0.0133587 0.2209999 0.8697058
0.0133459 0.2216216 0.8696704
0.0130973 0.2187041 0.8699489
0.0130844 0.2193278 0.8699134
0.0130715 0.2199505 0.8698780
0.0128230 0.2170270 0.8701568
0.0128101 0.2176507 0.8701213
0.0127972 0.2182745 0.8700858
0.0141970 0.2220324 0.8693343
0.0141841 0.2226541 0.8692989
0.0141712 0.2232758 0.8692635
0.0141584 0.2238976 0.8692281
0.0141455 0.2245193 0.8691927
0.0139231 0.2203643 0.8695414
0.0139102 0.2209870 0.8695060
0.0138974 0.2216087 0.8694706
0.0136494 0.2186912 0.8697489
0.0136365 0.2193149 0.8697134
0.0136236 0.2199376 0.8696779
0.0133757 0.2170141 0.8699565
0.0133628 0.2176378 0.8699210
0.0133499 0.2182615 0.8698855
0.0147220 0.2232630 0.8690639
0.0147092 0.2238847 0.8690285
0.0146963 0.2245064 0.8689931
0.0146834 0.2251281 0.8689577
0.0144488 0.2215958 0.8692708
0.0144359 0.2222186 0.8692353
0.0144230 0.2228403 0.8692000
0.0141757 0.2199247 0.8694779
0.0141628 0.2205474 0.8694424
0.0141499 0.2211702 0.8694070
0.0139285 0.2170012 0.8697563
0.0139155 0.2176249 0.8697208
0.0139026 0.2182486 0.8696853
0.0138897 0.2188723 0.8696498
0.0138768 0.2194961 0.8696143
0.0152343 0.2251153 0.8687581
0.0149874 0.2222057 0.8690355
0.0149745 0.2228274 0.8690001
0.0149616 0.2234501 0.8689647
0.0149487 0.2240718 0.8689293
0.0149358 0.2246945 0.8688938
0.0147148 0.2205346 0.8692424
0.0147019 0.2211573 0.8692070
0.0146890 0.2217810 0.8691715
0.0144812 0.2169883 0.8695560
0.0144683 0.2176120 0.8695205
0.0144554 0.2182357 0.8694850
0.0144425 0.2188594 0.8694495
0.0144295 0.2194831 0.8694140
0.0144166 0.2201069 0.8693785
0.0155002 0.2240589 0.8687295
0.0154873 0.2246817 0.8686940
0.0154745 0.2253034 0.8686586
0.0152411 0.2217681 0.8689714
0.0152282 0.2223908 0.8689360
0.0152153 0.2230135 0.8689005
0.0152024 0.2236372 0.8688650
0.0150339 0.2169754 0.8693557
0.0150210 0.2175991 0.8693202
0.0150081 0.2182228 0.8692847
0.0149952 0.2188465 0.8692492
0.0149823 0.2194702 0.8692137
0.0149694 0.2200940 0.8691782
0.0149564 0.2207177 0.8691427
0.0149435 0.2213414 0.8691072
0.0163230 0.2257103 0.8683237
0.0160517 0.2240461 0.8685297
0.0160388 0.2246688 0.8684942
0.0160259 0.2252905 0.8684589
0.0157933 0.2217552 0.8687714
0.0157804 0.2223779 0.8687359
0.0157675 0.2230006 0.8687005
0.0157545 0.2236243 0.8686650
0.0155866 0.2169625 0.8691555
0.0155737 0.2175862 0.8691200
0.0155608 0.2182099 0.8690845
0.0155478 0.2188336 0.8690490
0.0155349 0.2194573 0.8690135
0.0155220 0.2200810 0.8689780
0.0155091 0.2207048 0.8689425
0.0154962 0.2213285 0.8689070
0.0168739 0.2256974 0.8681241
0.0168610 0.2263191 0.8680887
0.0168482 0.2269408 0.8680533
0.0165774 0.2252776 0.8682590
0.0163066 0.2236114 0.8684650
0.0162937 0.2242341 0.8684295
0.0162808 0.2248569 0.8683941
0.0161393 0.2169496 0.8689552
0.0161264 0.2175733 0.8689197
0.0161135 0.2181970 0.8688842
0.0161006 0.2188207 0.8688487
0.0160877 0.2194444 0.8688132
0.0160747 0.2200681 0.8687777
0.0160618 0.2206918 0.8687422
0.0160489 0.2213156 0.8687067
0.0160360 0.2219393 0.8686712
0.0160231 0.2225630 0.8686357
0.0160102 0.2231867 0.8686002
0.0174118 0.2263062 0.8678891
0.0173989 0.2269280 0.8678537
0.0171159 0.2258875 0.8680238
0.0168200 0.2254667 0.8681586
0.0166533 0.2188078 0.8686485
0.0166404 0.2194315 0.8686130
0.0166275 0.2200552 0.8685775
0.0166146 0.2206789 0.8685419
0.0166017 0.2213026 0.8685064
0.0165887 0.2219264 0.8684709
0.0165758 0.2225501 0.8684354
0.0165629 0.2231738 0.8683999
0.0165500 0.2237975 0.8683644
0.0165371 0.2244212 0.8683289
0.0165241 0.2250449 0.8682934
0.0163835 0.2171286 0.8688549
0.0163706 0.2177534 0.8688193
0.0163576 0.2183781 0.8687837
0.0179626 0.2262934 0.8676896
0.0179497 0.2269151 0.8676542
0.0176674 0.2258746 0.8678240
0.0173721 0.2254538 0.8679585
0.0172061 0.2187949 0.8684482
0.0171931 0.2194186 0.8684127
0.0171802 0.2200423 0.8683772
0.0171673 0.2206660 0.8683417
0.0171544 0.2212897 0.8683062
0.0171415 0.2219134 0.8682707
0.0171286 0.2225372 0.8682352
0.0171156 0.2231609 0.8681997
0.0171027 0.2237846 0.8681642
0.0170898 0.2244083 0.8681286
0.0170769 0.2250320 0.8680931
0.0169369 0.2171157 0.8686544
0.0169240 0.2177404 0.8686188
0.0169111 0.2183651 0.8685832
0.0185006 0.2269022 0.8674546
0.0179243 0.2254409 0.8677585
0.0179113 0.2260646 0.8677230
0.0178984 0.2266873 0.8676875
0.0176813 0.2225242 0.8680349
0.0176684 0.2231480 0.8679994
0.0176555 0.2237717 0.8679639
0.0176425 0.2243954 0.8679284
0.0176296 0.2250191 0.8678929
0.0174903 0.2171028 0.8684539
0.0174774 0.2177275 0.8684183
0.0174644 0.2183522 0.8683827
0.0174515 0.2189759 0.8683472
0.0174386 0.2196006 0.8683117
0.0174256 0.2202253 0.8682761
0.0174127 0.2208500 0.8682405
0.0173998 0.2214738 0.8682050
0.0173868 0.2220985 0.8681695
0.0187445 0.2270933 0.8673535
0.0184634 0.2260517 0.8675230
0.0184505 0.2266744 0.8674875
0.0182082 0.2237588 0.8677636
0.0181953 0.2243825 0.8677281
0.0181824 0.2250062 0.8676926
0.0181694 0.2256299 0.8676571
0.0180437 0.2170899 0.8682534
0.0180307 0.2177146 0.8682178
0.0180178 0.2183393 0.8681822
0.0180049 0.2189630 0.8681467
0.0179919 0.2195877 0.8681112
0.0179790 0.2202124 0.8680756
0.0179661 0.2208371 0.8680401
0.0179531 0.2214608 0.8680045
0.0179402 0.2220855 0.8679690
0.0179273 0.2227102 0.8679334
0.0179143 0.2233340 0.8678979
0.0192960 0.2270804 0.8671538
0.0190155 0.2260388 0.8673229
0.0190026 0.2266615 0.8672875
0.0187609 0.2237459 0.8675634
0.0187480 0.2243696 0.8675278
0.0187351 0.2249933 0.8674923
0.0187222 0.2256170 0.8674568
0.0185970 0.2170769 0.8680529
0.0185841 0.2177017 0.8680173
0.0185711 0.2183264 0.8679818
0.0185582 0.2189501 0.8679463
0.0185453 0.2195748 0.8679107
0.0185323 0.2201995 0.8678751
0.0185194 0.2208242 0.8678396
0.0185065 0.2214479 0.8678041
0.0184936 0.2220726 0.8677685
0.0184806 0.2226973 0.8677329
0.0184677 0.2233210 0.8676974
0.0198475 0.2270675 0.8669539
0.0195676 0.2260259 0.8671229
0.0195547 0.2266486 0.8670874
0.0193137 0.2237329 0.8673631
0.0193008 0.2243567 0.8673276
0.0192878 0.2249804 0.8672921
0.0192749 0.2256041 0.8672566
0.0191504 0.2170640 0.8678524
0.0191374 0.2176887 0.8678168
0.0191245 0.2183134 0.8677813
0.0191116 0.2189371 0.8677458
0.0190986 0.2195619 0.8677102
0.0190857 0.2201866 0.8676746
0.0190469 0.2220597 0.8675680
0.0190340 0.2226844 0.8675324
0.0190211 0.2233081 0.8674969
0.0187673 0.2210072 0.8677376
0.0187544 0.2216319 0.8677020
0.0203989 0.2270546 0.8667542
0.0198664 0.2237200 0.8671628
0.0198535 0.2243437 0.8671273
0.0198406 0.2249675 0.8670918
0.0198277 0.2255912 0.8670563
0.0198147 0.2262149 0.8670208
0.0198018 0.2268386 0.8669853
0.0197037 0.2170511 0.8676519
0.0196908 0.2176758 0.8676163
0.0195873 0.2226715 0.8673320
0.0195744 0.2232952 0.8672964
0.0193732 0.2184934 0.8676792
0.0193602 0.2191181 0.8676436
0.0193473 0.2197438 0.8676080
0.0193343 0.2203685 0.8675725
0.0193214 0.2209942 0.8675368
0.0193084 0.2216189 0.8675013
0.0192955 0.2222446 0.8674657
0.0209504 0.2270417 0.8665543
0.0204192 0.2237071 0.8669626
0.0204062 0.2243308 0.8669271
0.0203933 0.2249545 0.8668915
0.0203804 0.2255783 0.8668560
0.0203675 0.2262020 0.8668205
0.0203546 0.2268257 0.8667850
0.0202571 0.2170382 0.8674514
0.0202442 0.2176629 0.8674159
0.0202312 0.2182876 0.8673803
0.0201407 0.2226586 0.8671315
0.0201278 0.2232823 0.8670960
0.0199142 0.2191052 0.8674429
0.0199012 0.2197309 0.8674073
0.0198883 0.2203556 0.8673717
0.0198753 0.2209813 0.8673361
0.0198624 0.2216060 0.8673006
0.0198494 0.2222317 0.8672649
0.0215018 0.2270289 0.8663546
0.0209590 0.2243179 0.8667268
0.0209461 0.2249416 0.8666913
0.0209331 0.2255653 0.8666558
0.0209202 0.2261891 0.8666203
0.0209073 0.2268128 0.8665848
0.0208105 0.2170252 0.8672509
0.0207976 0.2176500 0.8672153
0.0207847 0.2182747 0.8671798
0.0206941 0.2226456 0.8669309
0.0206812 0.2232693 0.8668954
0.0206683 0.2238940 0.8668599
0.0204682 0.2190922 0.8672422
0.0204552 0.2197179 0.8672066
0.0204423 0.2203426 0.8671710
0.0204293 0.2209683 0.8671354
0.0204164 0.2215931 0.8670999
0.0204034 0.2222188 0.8670642
0.0215117 0.2243050 0.8665265
0.0214988 0.2249287 0.8664910
0.0214859 0.2255524 0.8664555
0.0214730 0.2261762 0.8664200
0.0214600 0.2267999 0.8663845
0.0213639 0.2170123 0.8670504
0.0213510 0.2176370 0.8670148
0.0213380 0.2182617 0.8669793
0.0212475 0.2226327 0.8667305
0.0212346 0.2232564 0.8666949
0.0212216 0.2238811 0.8666594
0.0210222 0.2190793 0.8670415
0.0210093 0.2197050 0.8670059
0.0209963 0.2203297 0.8669703
0.0209834 0.2209554 0.8669347
0.0209704 0.2215801 0.8668991
0.0209575 0.2222058 0.8668635
0.0220645 0.2242921 0.8663263
0.0220515 0.2249158 0.8662908
0.0220386 0.2255395 0.8662552
0.0220257 0.2261632 0.8662197
0.0220128 0.2267870 0.8661842
0.0219173 0.2169994 0.8668499
0.0219043 0.2176241 0.8668144
0.0218914 0.2182488 0.8667788
0.0218785 0.2188725 0.8667433
0.0218009 0.2226198 0.8665300
0.0217879 0.2232435 0.8664945
0.0217750 0.2238682 0.8664589
0.0215632 0.2196921 0.8668051
0.0215503 0.2203168 0.8667696
0.0215374 0.2209425 0.8667340
0.0215244 0.2215672 0.8666984
0.0215115 0.2221929 0.8666628
0.0231562 0.2269902 0.8657551
0.0228802 0.2259486 0.8659227
0.0228673 0.2265713 0.8658873
0.0226301 0.2236555 0.8661615
0.0226172 0.2242792 0.8661260
0.0226043 0.2249029 0.8660905
0.0225914 0.2255266 0.8660550
0.0224706 0.2169865 0.8666494
0.0224577 0.2176112 0.8666139
0.0224447 0.2182359 0.8665783
0.0224318 0.2188596 0.8665428
0.0223672 0.2219821 0.8663650
0.0223542 0.2226069 0.8663295
0.0223413 0.2232306 0.8662940
0.0221172 0.2196791 0.8666044
0.0221043 0.2203038 0.8665689
0.0220913 0.2209295 0.8665332
0.0220784 0.2215542 0.8664977
0.0237076 0.2269773 0.8655553
0.0234323 0.2259357 0.8657227
0.0234194 0.2265584 0.8656872
0.0231829 0.2236426 0.8659612
0.0231699 0.2242663 0.8659257
0.0231570 0.2248900 0.8658902
0.0231441 0.2255137 0.8658547
0.0230240 0.2169736 0.8664489
0.0230110 0.2175983 0.8664134
0.0229981 0.2182230 0.8663778
0.0229852 0.2188467 0.8663423
0.0229464 0.2207208 0.8662356
0.0229334 0.2213445 0.8662001
0.0229205 0.2219692 0.8661645
0.0229076 0.2225939 0.8661290
0.0228947 0.2232176 0.8660935
0.0226713 0.2196662 0.8664037
0.0226584 0.2202909 0.8663681
0.0242591 0.2269645 0.8653555
0.0239844 0.2259228 0.8655226
0.0239715 0.2265455 0.8654872
0.0237355 0.2236297 0.8657610
0.0237226 0.2242534 0.8657255
0.0237097 0.2248771 0.8656900
0.0236968 0.2255008 0.8656545
0.0235773 0.2169606 0.8662484
0.0235644 0.2175853 0.8662129
0.0235515 0.2182100 0.8661773
0.0235385 0.2188338 0.8661418
0.0234997 0.2207079 0.8660351
0.0234868 0.2213316 0.8659996
0.0234739 0.2219563 0.8659641
0.0234609 0.2225810 0.8659285
0.0234480 0.2232047 0.8658930
0.0232253 0.2196532 0.8662030
0.0232123 0.2202779 0.8661674
0.0248105 0.2269516 0.8651557
0.0245364 0.2259099 0.8653226
0.0245235 0.2265326 0.8652872
0.0242882 0.2236168 0.8655607
0.0242753 0.2242405 0.8655252
0.0242624 0.2248642 0.8654897
0.0242495 0.2254879 0.8654542
0.0241307 0.2169477 0.8660480
0.0241178 0.2175724 0.8660124
0.0241048 0.2181971 0.8659768
0.0240919 0.2188208 0.8659413
0.0240790 0.2194455 0.8659058
0.0240660 0.2200702 0.8658702
0.0240531 0.2206950 0.8658346
0.0240402 0.2213187 0.8657991
0.0240272 0.2219434 0.8657636
0.0240143 0.2225681 0.8657280
0.0240014 0.2231918 0.8656925
0.0253620 0.2269387 0.8649559
0.0251015 0.2252733 0.8651581
0.0250886 0.2258970 0.8651226
0.0250757 0.2265197 0.8650871
0.0249831 0.2167430 0.8657510
0.0249702 0.2173667 0.8657155
0.0249572 0.2179904 0.8656800
0.0248668 0.2223564 0.8654315
0.0248539 0.2229801 0.8653960
0.0248410 0.2236039 0.8653605
0.0248281 0.2242276 0.8653250
0.0248152 0.2248513 0.8652895
0.0246453 0.2188079 0.8657408
0.0246324 0.2194326 0.8657052
0.0246195 0.2200573 0.8656697
0.0246065 0.2206820 0.8656341
0.0245936 0.2213057 0.8655986
0.0245807 0.2219304 0.8655631
0.0259135 0.2269258 0.8647561
0.0256536 0.2252604 0.8649580
0.0256407 0.2258841 0.8649225
0.0256278 0.2265068 0.8648871
0.0255358 0.2167301 0.8655508
0.0255229 0.2173538 0.8655153
0.0255100 0.2179775 0.8654798
0.0254196 0.2223435 0.8652312
0.0254066 0.2229672 0.8651957
0.0253937 0.2235909 0.8651602
0.0253808 0.2242147 0.8651247
0.0253679 0.2248384 0.8650892
0.0251987 0.2187950 0.8655403
0.0251858 0.2194197 0.8655048
0.0251728 0.2200444 0.8654692
0.0251599 0.2206691 0.8654336
0.0251470 0.2212928 0.8653981
0.0251340 0.2219175 0.8653626
0.0264907 0.2256685 0.8646272
0.0264778 0.2262912 0.8645917
0.0264650 0.2269129 0.8645563
0.0262315 0.2240020 0.8648289
0.0262186 0.2246248 0.8647935
0.0262057 0.2252475 0.8647580
0.0260886 0.2167172 0.8653505
0.0260756 0.2173409 0.8653150
0.0260627 0.2179646 0.8652795
0.0260498 0.2185883 0.8652440
0.0259852 0.2217069 0.8650665
0.0259723 0.2223306 0.8650310
0.0259594 0.2229543 0.8649954
0.0259465 0.2235780 0.8649599
0.0257391 0.2194068 0.8653043
0.0257262 0.2200315 0.8652687
0.0257132 0.2206562 0.8652331
0.0257003 0.2212799 0.8651976
0.0270550 0.2250329 0.8644628
0.0270422 0.2256556 0.8644274
0.0270293 0.2262783 0.8643919
0.0270164 0.2269001 0.8643565
0.0269255 0.2171363 0.8650190
0.0267964 0.2233664 0.8646643
0.0267835 0.2239892 0.8646289
0.0267706 0.2246119 0.8645934
0.0266155 0.2179517 0.8650792
0.0266025 0.2185754 0.8650437
0.0265896 0.2191991 0.8650082
0.0265767 0.2198229 0.8649727
0.0265638 0.2204466 0.8649372
0.0265509 0.2210703 0.8649017
0.0265380 0.2216940 0.8648662
0.0265250 0.2223177 0.8648307
0.0265121 0.2229414 0.8647952
0.0276066 0.2250200 0.8642630
0.0275937 0.2256427 0.8642276
0.0275808 0.2262655 0.8641921
0.0275679 0.2268872 0.8641567
0.0274776 0.2171234 0.8648190
0.0273486 0.2233535 0.8644643
0.0273357 0.2239763 0.8644289
0.0273228 0.2245990 0.8643934
0.0271682 0.2179388 0.8648790
0.0271553 0.2185625 0.8648435
0.0271424 0.2191862 0.8648080
0.0271295 0.2198099 0.8647724
0.0271165 0.2204337 0.8647369
0.0271036 0.2210574 0.8647014
0.0270907 0.2216811 0.8646659
0.0270778 0.2223048 0.8646304
0.0270649 0.2229285 0.8645949
0.0284154 0.2266707 0.8638623
0.0281580 0.2250072 0.8640632
0.0281451 0.2256299 0.8640278
0.0281322 0.2262526 0.8639923
0.0280297 0.2171105 0.8646189
0.0279265 0.2220942 0.8643352
0.0279136 0.2227169 0.8642998
0.0279007 0.2233406 0.8642643
0.0278878 0.2239634 0.8642288
0.0278749 0.2245861 0.8641934
0.0277209 0.2179259 0.8646787
0.0277080 0.2185496 0.8646432
0.0276951 0.2191733 0.8646077
0.0276822 0.2197970 0.8645722
0.0276693 0.2204207 0.8645367
0.0276564 0.2210445 0.8645012
0.0276434 0.2216682 0.8644657
0.0289919 0.2254144 0.8637336
0.0289791 0.2260361 0.8636982
0.0289662 0.2266578 0.8636628
0.0288770 0.2169050 0.8643239
0.0287481 0.2231281 0.8639696
0.0287352 0.2237498 0.8639343
0.0287223 0.2243726 0.8638988
0.0287095 0.2249943 0.8638634
0.0285689 0.2177203 0.8643835
0.0285560 0.2183430 0.8643480
0.0285430 0.2189668 0.8643125
0.0285301 0.2195895 0.8642771
0.0285172 0.2202122 0.8642416
0.0285043 0.2208349 0.8642062
0.0284914 0.2214586 0.8641707
0.0284785 0.2220813 0.8641352
0.0284656 0.2227040 0.8640998
0.0295428 0.2254015 0.8635340
0.0295300 0.2260232 0.8634986
0.0295171 0.2266449 0.8634632
0.0294284 0.2168921 0.8641241
0.0292995 0.2231152 0.8637699
0.0292867 0.2237370 0.8637345
0.0292738 0.2243597 0.8636990
0.0292609 0.2249814 0.8636636
0.0291210 0.2177074 0.8641834
0.0291081 0.2183302 0.8641480
0.0290952 0.2189539 0.8641125
0.0290823 0.2195766 0.8640770
0.0290694 0.2201993 0.8640416
0.0290565 0.2208220 0.8640061
0.0290436 0.2214457 0.8639706
0.0290307 0.2220684 0.8639352
0.0290178 0.2226911 0.8638997
0.0301065 0.2247679 0.8633697
0.0300936 0.2253886 0.8633344
0.0300807 0.2260104 0.8632990
0.0300679 0.2266321 0.8632636
0.0299799 0.2168792 0.8639243
0.0299670 0.2175019 0.8638889
0.0298897 0.2212352 0.8636763
0.0298768 0.2218579 0.8636409
0.0298510 0.2231024 0.8635700
0.0298382 0.2237241 0.8635347
0.0298253 0.2243468 0.8634992
0.0296602 0.2183173 0.8639479
0.0296473 0.2189410 0.8639124
0.0296344 0.2195637 0.8638770
0.0296215 0.2201864 0.8638415
0.0296086 0.2208091 0.8638061
0.0295699 0.2226783 0.8636997
0.0308118 0.2172954 0.8635948
0.0306830 0.2235116 0.8632410
0.0306702 0.2241333 0.8632056
0.0306573 0.2247550 0.8631702
0.0306444 0.2253758 0.8631348
0.0306315 0.2259975 0.8630995
0.0305057 0.2181107 0.8636537
0.0304928 0.2187335 0.8636182
0.0304799 0.2193552 0.8635828
0.0304670 0.2199779 0.8635474
0.0304541 0.2206006 0.8635119
0.0304412 0.2212223 0.8634765
0.0304283 0.2218450 0.8634411
0.0304154 0.2224668 0.8634057
0.0304025 0.2230895 0.8633702
0.0313627 0.2172826 0.8633952
0.0312339 0.2234987 0.8630414
0.0312210 0.2241205 0.8630060
0.0312082 0.2247422 0.8629706
0.0311953 0.2253629 0.8629353
0.0311824 0.2259846 0.8628999
0.0310571 0.2180979 0.8634539
0.0310442 0.2187206 0.8634184
0.0310313 0.2193423 0.8633830
0.0310184 0.2199650 0.8633476
0.0310055 0.2205877 0.8633121
0.0309926 0.2212095 0.8632767
0.0309797 0.2218322 0.8632413
0.0309669 0.2224539 0.8632059
0.0309540 0.2230766 0.8631704
0.0319135 0.2172697 0.8631957
0.0317847 0.2234859 0.8628418
0.0317718 0.2241076 0.8628064
0.0317590 0.2247293 0.8627710
0.0317461 0.2253500 0.8627357
0.0317332 0.2259718 0.8627003
0.0316086 0.2180850 0.8632541
0.0315957 0.2187077 0.8632186
0.0315828 0.2193294 0.8631832
0.0315699 0.2199521 0.8631478
0.0315570 0.2205749 0.8631123
0.0315441 0.2211966 0.8630769
0.0315312 0.2218193 0.8630415
0.0315184 0.2224410 0.8630061
0.0315055 0.2230637 0.8629706
0.0324643 0.2172568 0.8629961
0.0324514 0.2178785 0.8629607
0.0324385 0.2185003 0.8629253
0.0324256 0.2191220 0.8628899
0.0324127 0.2197437 0.8628546
0.0323484 0.2228513 0.8626776
0.0323355 0.2234730 0.8626423
0.0323226 0.2240947 0.8626069
0.0323098 0.2247165 0.8625715
0.0322969 0.2253372 0.8625361
0.0322840 0.2259589 0.8625007
0.0321084 0.2205620 0.8629125
0.0320955 0.2211837 0.8628771
0.0320826 0.2218064 0.8628417
0.0320698 0.2224281 0.8628063
0.0330151 0.2172440 0.8627965
0.0330023 0.2178657 0.8627611
0.0329894 0.2184874 0.8627257
0.0329765 0.2191091 0.8626904
0.0329636 0.2197308 0.8626550
0.0328993 0.2228384 0.8624781
0.0328864 0.2234601 0.8624427
0.0328735 0.2240819 0.8624073
0.0328606 0.2247036 0.8623719
0.0328478 0.2253243 0.8623365
0.0328349 0.2259460 0.8623011
0.0326599 0.2205491 0.8627127
0.0326470 0.2211708 0.8626773
0.0326341 0.2217935 0.8626419
0.0326213 0.2224152 0.8626065
0.0335531 0.2178528 0.8625616
0.0335402 0.2184745 0.8625262
0.0335273 0.2190963 0.8624908
0.0335144 0.2197180 0.8624554
0.0335015 0.2203397 0.8624200
0.0334887 0.2209604 0.8623847
0.0334758 0.2215821 0.8623493
0.0334629 0.2222038 0.8623139
0.0334501 0.2228256 0.8622785
0.0334372 0.2234473 0.8622431
0.0334243 0.2240690 0.8622077
0.0340781 0.2190834 0.8622912
0.0340652 0.2197051 0.8622558
0.0340523 0.2203268 0.8622204
0.0340395 0.2209475 0.8621851
0.0340266 0.2215693 0.8621497
0.0340137 0.2221910 0.8621143
0.0340009 0.2228127 0.8620789
0.0346290 0.2190705 0.8620916
0.0346161 0.2196922 0.8620562
0.0346032 0.2203140 0.8620209
0.0345904 0.2209347 0.8619855
0.0345775 0.2215564 0.8619501
0.0345646 0.2221781 0.8619147
0.0345517 0.2227998 0.8618793
0.0351798 0.2190577 0.8618921
0.0351669 0.2196794 0.8618567
0.0351540 0.2203011 0.8618213
0.0351412 0.2209218 0.8617860
0.0351283 0.2215435 0.8617506
0.0351154 0.2221653 0.8617152
0.0351025 0.2227870 0.8616798
0.0350897 0.2234087 0.8616444
0.0350768 0.2240304 0.8616090
0.0350639 0.2246521 0.8615736
0.0357177 0.2196665 0.8616571
0.0357048 0.2202882 0.8616217
0.0356920 0.2209090 0.8615864
0.0356791 0.2215307 0.8615510
0.0356662 0.2221524 0.8615156
0.0356533 0.2227741 0.8614802
0.0356405 0.2233958 0.8614448
0.0356276 0.2240175 0.8614094
0.0356147 0.2246393 0.8613740
0.0362686 0.2196536 0.8614575
0.0362557 0.2202754 0.8614221
0.0362428 0.2208961 0.8613868
0.0362300 0.2215178 0.8613514
0.0362171 0.2221395 0.8613160
0.0362042 0.2227612 0.8612806
0.0368194 0.2196408 0.8612580
0.0368065 0.2202625 0.8612226
0.0367936 0.2208832 0.8611872
0.0367808 0.2215049 0.8611518
0.0367679 0.2221267 0.8611165
0.0367550 0.2227484 0.8610811
0.0373573 0.2202496 0.8610230
0.0373444 0.2208704 0.8609877
0.0373316 0.2214921 0.8609523
0.0373187 0.2221138 0.8609169
0.0373058 0.2227355 0.8608815
0.0379081 0.2202368 0.8608235
0.0378952 0.2208575 0.8607881
0.0378824 0.2214792 0.8607527
0.0378695 0.2221009 0.8607173
0.0378566 0.2227226 0.8606819
0.0378437 0.2233444 0.8606466
0.0378309 0.2239661 0.8606112
0.0378180 0.2245878 0.8605758
0.0384719 0.2196022 0.8606593
0.0384590 0.2202239 0.8606239
0.0384461 0.2208446 0.8605885
0.0384332 0.2214663 0.8605531
0.0384204 0.2220881 0.8605177
0.0384075 0.2227098 0.8604823
0.0383946 0.2233315 0.8604470
0.0383817 0.2239532 0.8604116
0.0383689 0.2245749 0.8603762
0.0383560 0.2251957 0.8603408
0.0383431 0.2258174 0.8603054
0.0383303 0.2264391 0.8602701
0.0389840 0.2214535 0.8603536
0.0389712 0.2220752 0.8603182
0.0389583 0.2226969 0.8602828
0.0389068 0.2251828 0.8601413
0.0388939 0.2258045 0.8601059
0.0388810 0.2264262 0.8600705
0.0394576 0.2251699 0.8599417
0.0394447 0.2257917 0.8599063
0.0394318 0.2264134 0.8598709
0.0400471 0.2232929 0.8598482
0.0400342 0.2239146 0.8598128
0.0400213 0.2245363 0.8597775
0.0400085 0.2251571 0.8597421
0.0399956 0.2257788 0.8597067
0.0399827 0.2264005 0.8596713
0.0405979 0.2232800 0.8596487
0.0405850 0.2239018 0.8596133
0.0405721 0.2245235 0.8595779
0.0405593 0.2251442 0.8595426
0.0405464 0.2257659 0.8595072
0.0405335 0.2263876 0.8594718
0.0411358 0.2238889 0.8594137
0.0411229 0.2245106 0.8593783
0.0411101 0.2251313 0.8593430
0.0410843 0.2263748 0.8592722
0.0408158 0.2259563 0.8593969
0.0416867 0.2238760 0.8592141
0.0416738 0.2244977 0.8591787
0.0416610 0.2251185 0.8591434
0.0416352 0.2263619 0.8590726
0.0413673 0.2259435 0.8591971
0.0422118 0.2251056 0.8589438
0.0421989 0.2257273 0.8589085
0.0421860 0.2263490 0.8588731
0.0427626 0.2250927 0.8587443
0.0427497 0.2257145 0.8587089
0.0427368 0.2263362 0.8586735
-0.0115254 0.2287476 0.8782597
-0.0115384 0.2293753 0.8782240
-0.0115515 0.2300040 0.8781882
-0.0115645 0.2306317 0.8781524
-0.0115775 0.2312594 0.8781167
-0.0115905 0.2318881 0.8780809
-0.0116035 0.2325158 0.8780452
-0.0109429 0.2274782 0.8781296
-0.0109559 0.2281069 0.8780938
-0.0109689 0.2287346 0.8780581
-0.0109819 0.2293623 0.8780223
-0.0109949 0.2299910 0.8779865
-0.0110079 0.2306187 0.8779508
-0.0110209 0.2312464 0.8779151
-0.0110339 0.2318751 0.8778793
-0.0110469 0.2325028 0.8778435
-0.0110599 0.2331305 0.8778078
-0.0110730 0.2337592 0.8777720
-0.0110860 0.2343868 0.8777363
-0.0103863 0.2274652 0.8779279
-0.0103994 0.2280939 0.8778921
-0.0104124 0.2287216 0.8778564
-0.0104254 0.2293493 0.8778207
-0.0104384 0.2299780 0.8777849
-0.0104514 0.2306057 0.8777492
-0.0104644 0.2312334 0.8777134
-0.0104774 0.2318621 0.8776776
-0.0104904 0.2324898 0.8776419
-0.0105034 0.2331175 0.8776062
-0.0105164 0.2337462 0.8775704
-0.0105294 0.2343739 0.8775346
-0.0105424 0.2350015 0.8774989
-0.0098298 0.2274522 0.8777263
-0.0098428 0.2280809 0.8776905
-0.0098558 0.2287086 0.8776548
-0.0098688 0.2293363 0.8776190
-0.0098818 0.2299650 0.8775833
-0.0098948 0.2305927 0.8775475
-0.0099078 0.2312204 0.8775118
-0.0099209 0.2318491 0.8774760
-0.0099339 0.2324768 0.8774403
-0.0099469 0.2331045 0.8774045
-0.0099599 0.2337332 0.8773687
-0.0099729 0.2343609 0.8773330
-0.0099859 0.2349885 0.8772973
-0.0092732 0.2274392 0.8775246
-0.0092862 0.2280679 0.8774888
-0.0092992 0.2286956 0.8774531
-0.0093122 0.2293233 0.8774174
-0.0093252 0.2299520 0.8773816
-0.0093902 0.2330915 0.8772029
-0.0094033 0.2337202 0.8771671
-0.0094163 0.2343479 0.8771313
-0.0094293 0.2349755 0.8770956
-0.0094423 0.2356042 0.8770598
-0.0094553 0.2362319 0.8770241
-0.0094683 0.2368596 0.8769883
-0.0090021 0.2303731 0.8772369
-0.0090151 0.2310008 0.8772011
-0.0090281 0.2316285 0.8771654
-0.0090410 0.2322552 0.8771297
-0.0088727 0.2349626 0.8768940
-0.0088858 0.2355912 0.8768582
-0.0088988 0.2362189 0.8768224
-0.0089118 0.2368466 0.8767867
-0.0089248 0.2374753 0.8767509
-0.0083941 0.2278513 0.8771782
-0.0084071 0.2284780 0.8771426
-0.0084201 0.2291057 0.8771068
-0.0084331 0.2297334 0.8770711
-0.0084461 0.2303601 0.8770354
-0.0084591 0.2309878 0.8769997
-0.0084721 0.2316155 0.8769640
-0.0084851 0.2322422 0.8769283
-0.0084981 0.2328699 0.8768926
-0.0085111 0.2334966 0.8768569
-0.0085241 0.2341243 0.8768211
-0.0083162 0.2349496 0.8766923
-0.0083292 0.2355782 0.8766565
-0.0083422 0.2362059 0.8766208
-0.0083552 0.2368336 0.8765851
-0.0083682 0.2374623 0.8765493
-0.0078382 0.2278384 0.8769768
-0.0078512 0.2284651 0.8769412
-0.0078642 0.2290928 0.8769054
-0.0078772 0.2297204 0.8768697
-0.0078902 0.2303471 0.8768340
-0.0079032 0.2309748 0.8767983
-0.0079162 0.2316025 0.8767625
-0.0079292 0.2322292 0.8767269
-0.0079422 0.2328569 0.8766911
-0.0079551 0.2334836 0.8766555
-0.0079681 0.2341113 0.8766197
-0.0073083 0.2290798 0.8767040
-0.0073213 0.2297075 0.8766683
-0.0073343 0.2303342 0.8766326
-0.0073473 0.2309619 0.8765969
-0.0073603 0.2315896 0.8765611
-0.0073733 0.2322163 0.8765255
-0.0073863 0.2328440 0.8764897
-0.0073992 0.2334707 0.8764540
-0.0074122 0.2340984 0.8764183
-0.0074252 0.2347260 0.8763826
-0.0074382 0.2353527 0.8763469
-0.0074512 0.2359804 0.8763112
-0.0074642 0.2366071 0.8762755
-0.0074772 0.2372348 0.8762398
-0.0069480 0.2276218 0.8766669
-0.0069610 0.2282485 0.8766312
-0.0068693 0.2347131 0.8761812
-0.0068823 0.2353398 0.8761455
-0.0068953 0.2359675 0.8761098
-0.0069083 0.2365942 0.8760741
-0.0069213 0.2372219 0.8760383
-0.0063928 0.2276089 0.8764657
-0.0064057 0.2282356 0.8764301
-0.0064187 0.2288623 0.8763944
-0.0064317 0.2294890 0.8763587
-0.0064447 0.2301157 0.8763230
-0.0064577 0.2307424 0.8762874
-0.0064706 0.2313681 0.8762517
-0.0064836 0.2319948 0.8762161
-0.0064966 0.2326215 0.8761804
-0.0065096 0.2332482 0.8761447
-0.0065225 0.2338749 0.8761090
-0.0063134 0.2347001 0.8759797
-0.0063264 0.2353268 0.8759441
-0.0063394 0.2359545 0.8759083
-0.0063524 0.2365812 0.8758727
-0.0063654 0.2372089 0.8758369
-0.0058375 0.2275959 0.8762646
-0.0058505 0.2282226 0.8762289
-0.0058634 0.2288493 0.8761932
-0.0058764 0.2294760 0.8761575
-0.0058894 0.2301027 0.8761218
-0.0059024 0.2307294 0.8760862
-0.0059153 0.2313551 0.8760506
-0.0059283 0.2319818 0.8760149
-0.0059413 0.2326085 0.8759792
-0.0059543 0.2332352 0.8759435
-0.0059673 0.2338619 0.8759078
-0.0052822 0.2275829 0.8760634
-0.0052952 0.2282096 0.8760277
-0.0053082 0.2288363 0.8759920
-0.0053211 0.2294630 0.8759563
-0.0053341 0.2300897 0.8759207
-0.0053471 0.2307164 0.8758850
-0.0053601 0.2313421 0.8758494
-0.0053730 0.2319688 0.8758137
-0.0053860 0.2325955 0.8757780
-0.0053990 0.2332222 0.8757423
-0.0054120 0.2338489 0.8757067
-0.0054250 0.2344756 0.8756710
-0.0054379 0.2351023 0.8756353
-0.0054509 0.2357290 0.8755996
-0.0054639 0.2363557 0.8755640
-0.0054769 0.2369824 0.8755283
-0.0054898 0.2376081 0.8754927
-0.0047269 0.2275700 0.8758622
-0.0047399 0.2281967 0.8758265
-0.0047529 0.2288234 0.8757908
-0.0047659 0.2294501 0.8757552
-0.0047788 0.2300768 0.8757195
-0.0047918 0.2307035 0.8756838
-0.0048956 0.2357161 0.8753984
-0.0049086 0.2363428 0.8753628
-0.0049216 0.2369695 0.8753271
-0.0049346 0.2375952 0.8752915
-0.0044730 0.2311217 0.8755408
-0.0044860 0.2317484 0.8755052
-0.0044989 0.2323741 0.8754695
-0.0045119 0.2329998 0.8754339
-0.0045248 0.2336255 0.8753983
-0.0045378 0.2342512 0.8753627
-0.0045508 0.2348769 0.8753271
-0.0041716 0.2275570 0.8756610
-0.0041846 0.2281837 0.8756253
-0.0041976 0.2288104 0.8755896
-0.0042106 0.2294371 0.8755540
-0.0042236 0.2300638 0.8755183
-0.0042365 0.2306905 0.8754826
-0.0043404 0.2357031 0.8751973
-0.0043533 0.2363298 0.8751616
-0.0043663 0.2369565 0.8751259
-0.0043793 0.2375822 0.8750903
-0.0039183 0.2311088 0.8753399
-0.0039313 0.2317355 0.8753042
-0.0039443 0.2323612 0.8752686
-0.0039572 0.2329869 0.8752330
-0.0039702 0.2336126 0.8751973
-0.0039832 0.2342383 0.8751617
-0.0039961 0.2348640 0.8751261
-0.0036164 0.2275440 0.8754598
-0.0032989 0.2279673 0.8753170
-0.0033119 0.2285930 0.8752814
-0.0033248 0.2292187 0.8752458
-0.0033378 0.2298444 0.8752102
-0.0033507 0.2304701 0.8751745
-0.0033637 0.2310958 0.8751389
-0.0033767 0.2317225 0.8751033
-0.0033896 0.2323482 0.8750676
-0.0034026 0.2329739 0.8750320
-0.0034155 0.2335996 0.8749964
-0.0034285 0.2342253 0.8749608
-0.0034415 0.2348510 0.8749252
-0.0034544 0.2354777 0.8748895
-0.0034674 0.2361034 0.8748539
-0.0034804 0.2367291 0.8748182
-0.0034933 0.2373548 0.8747826
-0.0027443 0.2279543 0.8751161
-0.0027572 0.2285800 0.8750805
-0.0024403 0.2290003 0.8749381
-0.0024533 0.2296260 0.8749024
-0.0024662 0.2302507 0.8748669
-0.0024792 0.2308754 0.8748313
-0.0024921 0.2315011 0.8747957
-0.0025051 0.2321258 0.8747601
-0.0025180 0.2327516 0.8747245
-0.0025310 0.2333763 0.8746890
-0.0025439 0.2340020 0.8746533
-0.0025569 0.2346267 0.8746178
-0.0025698 0.2352524 0.8745822
-0.0025828 0.2358771 0.8745466
-0.0025957 0.2365018 0.8745110
-0.0026086 0.2371275 0.8744754
-0.0026216 0.2377522 0.8744399
-0.0021896 0.2279414 0.8749151
-0.0022026 0.2285671 0.8748795
-0.0018863 0.2289874 0.8747373
-0.0018993 0.2296131 0.8747017
-0.0019122 0.2302378 0.8746662
-0.0019251 0.2308625 0.8746306
-0.0019381 0.2314882 0.8745950
-0.0019510 0.2321129 0.8745594
-0.0019640 0.2327386 0.8745238
-0.0019769 0.2333633 0.8744882
-0.0019899 0.2339890 0.8744526
-0.0020028 0.2346137 0.8744171
-0.0020158 0.2352394 0.8743814
-0.0020287 0.2358641 0.8743459
-0.0020417 0.2364889 0.8743103
-0.0020546 0.2371146 0.8742747
-0.0020676 0.2377393 0.8742391
-0.0013064 0.2277240 0.8746078
-0.0013194 0.2283497 0.8745722
-0.0013323 0.2289744 0.8745366
-0.0013453 0.2296001 0.8745010
-0.0013582 0.2302249 0.8744654
-0.0013711 0.2308496 0.8744299
-0.0014359 0.2339761 0.8742519
-0.0010555 0.2312669 0.8742881
-0.0010684 0.2318916 0.8742526
-0.0010813 0.2325163 0.8742170
-0.0010943 0.2331400 0.8741815
-0.0011201 0.2343894 0.8741104
-0.0011331 0.2350141 0.8740748
-0.0011460 0.2356378 0.8740393
-0.0011589 0.2362626 0.8740037
-0.0011719 0.2368873 0.8739682
-0.0011848 0.2375110 0.8739327
-0.0004245 0.2275077 0.8743009
-0.0004374 0.2281324 0.8742653
-0.0004504 0.2287561 0.8742298
-0.0004633 0.2293808 0.8741943
-0.0004762 0.2300055 0.8741587
-0.0004892 0.2306293 0.8741232
-0.0005021 0.2312540 0.8740876
-0.0005150 0.2318787 0.8740521
-0.0005280 0.2325034 0.8740165
-0.0005409 0.2331271 0.8739810
-0.0005538 0.2337518 0.8739454
-0.0005668 0.2343765 0.8739099
-0.0005797 0.2350012 0.8738743
-0.0005926 0.2356249 0.8738388
-0.0006056 0.2362496 0.8738032
-0.0006185 0.2368743 0.8737677
-0.0006314 0.2374980 0.8737322
0.0001289 0.2274948 0.8741004
0.0001159 0.2281195 0.8740648
0.0001030 0.2287432 0.8740293
0.0000901 0.2293679 0.8739938
0.0000771 0.2299926 0.8739582
0.0000642 0.2306163 0.8739227
0.0000513 0.2312410 0.8738871
0.0000383 0.2318657 0.8738516
0.0000254 0.2324905 0.8738160
0.0000125 0.2331142 0.8737805
-0.0000005 0.2337389 0.8737449
-0.0000134 0.2343636 0.8737094
-0.0000263 0.2349883 0.8736738
-0.0000393 0.2356120 0.8736383
-0.0000522 0.2362367 0.8736027
-0.0000651 0.2368614 0.8735672
-0.0000780 0.2374851 0.8735317
0.0006822 0.2274819 0.8738999
0.0006693 0.2281066 0.8738643
0.0009830 0.2285249 0.8737232
0.0009701 0.2291486 0.8736877
0.0009572 0.2297724 0.8736522
0.0009443 0.2303961 0.8736167
0.0009314 0.2310198 0.8735812
0.0009185 0.2316435 0.8735457
0.0009055 0.2322672 0.8735102
0.0008926 0.2328909 0.8734747
0.0008797 0.2335146 0.8734392
0.0008668 0.2341383 0.8734037
0.0008539 0.2347620 0.8733682
0.0008409 0.2353858 0.8733327
0.0008280 0.2360095 0.8732972
0.0008151 0.2366332 0.8732616
0.0008022 0.2372569 0.8732261
0.0015487 0.2278883 0.8735585
0.0015358 0.2285120 0.8735230
0.0015229 0.2291357 0.8734875
0.0015099 0.2297594 0.8734520
0.0014970 0.2303832 0.8734164
0.0014841 0.2310069 0.8733809
0.0014712 0.2316306 0.8733454
0.0014583 0.2322543 0.8733099
0.0014454 0.2328780 0.8732744
0.0014324 0.2335017 0.8732389
0.0014195 0.2341254 0.8732034
0.0014066 0.2347491 0.8731679
0.0013937 0.2353728 0.8731324
0.0013808 0.2359966 0.8730969
0.0013678 0.2366203 0.8730614
0.0013549 0.2372440 0.8730259
0.0021014 0.2278754 0.8733582
0.0020885 0.2284991 0.8733227
0.0020756 0.2291228 0.8732872
0.0020627 0.2297465 0.8732517
0.0020498 0.2303702 0.8732162
0.0020368 0.2309940 0.8731807
0.0020239 0.2316177 0.8731452
0.0020110 0.2322414 0.8731097
0.0019981 0.2328651 0.8730742
0.0019852 0.2334888 0.8730387
0.0019722 0.2341125 0.8730031
0.0019593 0.2347362 0.8729676
0.0019464 0.2353599 0.8729321
0.0019335 0.2359836 0.8728966
0.0019206 0.2366074 0.8728611
0.0019077 0.2372311 0.8728256
0.0029273 0.2301500 0.8729111
0.0029144 0.2307738 0.8728756
0.0029015 0.2313965 0.8728402
0.0028886 0.2320192 0.8728047
0.0028757 0.2326429 0.8727692
0.0028628 0.2332656 0.8727338
0.0028499 0.2338883 0.8726983
0.0026542 0.2278625 0.8731579
0.0026412 0.2284862 0.8731224
0.0026283 0.2291099 0.8730869
0.0026154 0.2297336 0.8730514
0.0025121 0.2347233 0.8727674
0.0024991 0.2353470 0.8727319
0.0024862 0.2359707 0.8726964
0.0024733 0.2365944 0.8726609
0.0024604 0.2372182 0.8726254
0.0035310 0.2276453 0.8728529
0.0035181 0.2282690 0.8728174
0.0035052 0.2288917 0.8727820
0.0034923 0.2295144 0.8727465
0.0034794 0.2301371 0.8727111
0.0034665 0.2307609 0.8726756
0.0034536 0.2313836 0.8726401
0.0034407 0.2320063 0.8726047
0.0034278 0.2326300 0.8725692
0.0034149 0.2332527 0.8725337
0.0034020 0.2338754 0.8724983
0.0030648 0.2347104 0.8725671
0.0030519 0.2353341 0.8725316
0.0030390 0.2359578 0.8724961
0.0030260 0.2365815 0.8724606
0.0030131 0.2372053 0.8724251
0.0040831 0.2276324 0.8726529
0.0040702 0.2282561 0.8726174
0.0040573 0.2288788 0.8725820
0.0040444 0.2295015 0.8725465
0.0040315 0.2301243 0.8725111
0.0040186 0.2307480 0.8724755
0.0040057 0.2313707 0.8724401
0.0039928 0.2319934 0.8724046
0.0039798 0.2326171 0.8723691
0.0039669 0.2332398 0.8723337
0.0039541 0.2338625 0.8722982
0.0039412 0.2344853 0.8722628
0.0036046 0.2353212 0.8723313
0.0035917 0.2359449 0.8722958
0.0035788 0.2365686 0.8722603
0.0035659 0.2371923 0.8722248
0.0049451 0.2280380 0.8723131
0.0049322 0.2286597 0.8722778
0.0049065 0.2299041 0.8722069
0.0048936 0.2305268 0.8721715
0.0048807 0.2311495 0.8721360
0.0048678 0.2317713 0.8721006
0.0046352 0.2276195 0.8724529
0.0045965 0.2294886 0.8723465
0.0045319 0.2326042 0.8721691
0.0045190 0.2332269 0.8721337
0.0045061 0.2338496 0.8720982
0.0044933 0.2344724 0.8720628
0.0041573 0.2353083 0.8721311
0.0041444 0.2359320 0.8720956
0.0041315 0.2365557 0.8720601
0.0041186 0.2371794 0.8720246
0.0057802 0.2296840 0.8719032
0.0057673 0.2303057 0.8718678
0.0054966 0.2280251 0.8721133
0.0054837 0.2286468 0.8720779
0.0054708 0.2292695 0.8720425
0.0054321 0.2311367 0.8719362
0.0054192 0.2317584 0.8719008
0.0054064 0.2323811 0.8718654
0.0053935 0.2330028 0.8718300
0.0053806 0.2336255 0.8717945
0.0050454 0.2344595 0.8718627
0.0050324 0.2350832 0.8718272
0.0050195 0.2357059 0.8717918
0.0046842 0.2365428 0.8718598
0.0046713 0.2371665 0.8718243
0.0063696 0.2278070 0.8718098
0.0063567 0.2284287 0.8717744
0.0063438 0.2290504 0.8717390
0.0063310 0.2296711 0.8717037
0.0063181 0.2302929 0.8716683
0.0063052 0.2309146 0.8716329
0.0062924 0.2315363 0.8715975
0.0059578 0.2323682 0.8716656
0.0059449 0.2329899 0.8716302
0.0059320 0.2336126 0.8715947
0.0055974 0.2344466 0.8716627
0.0055845 0.2350703 0.8716272
0.0055716 0.2356930 0.8715917
0.0052370 0.2365299 0.8716595
0.0052241 0.2371536 0.8716240
0.0069204 0.2277941 0.8716102
0.0069075 0.2284158 0.8715748
0.0068947 0.2290375 0.8715394
0.0068818 0.2296583 0.8715041
0.0068689 0.2302800 0.8714687
0.0068561 0.2309017 0.8714333
0.0068432 0.2315234 0.8713979
0.0065093 0.2323553 0.8714658
0.0064964 0.2329771 0.8714304
0.0064835 0.2335998 0.8713949
0.0061495 0.2344337 0.8714627
0.0061366 0.2350574 0.8714272
0.0061237 0.2356801 0.8713917
0.0057897 0.2365170 0.8714593
0.0057768 0.2371407 0.8714238
0.0074069 0.2308888 0.8712337
0.0073940 0.2315106 0.8711983
0.0073811 0.2321323 0.8711629
0.0073683 0.2327540 0.8711276
0.0073554 0.2333747 0.8710922
0.0067016 0.2344208 0.8712626
0.0066887 0.2350445 0.8712271
0.0066758 0.2356672 0.8711917
0.0063424 0.2365041 0.8712590
0.0063295 0.2371278 0.8712235
0.0079191 0.2327411 0.8709280
0.0079062 0.2333619 0.8708926
0.0075735 0.2341957 0.8709599
0.0072408 0.2350316 0.8710271
0.0072279 0.2356543 0.8709916
0.0068952 0.2364912 0.8710588
0.0068823 0.2371149 0.8710232
0.0084699 0.2327283 0.8707284
0.0084570 0.2333490 0.8706931
0.0081250 0.2341828 0.8707601
0.0077929 0.2350187 0.8708271
0.0077800 0.2356414 0.8707916
0.0074479 0.2364783 0.8708585
0.0074350 0.2371020 0.8708230
0.0090207 0.2327154 0.8705288
0.0090079 0.2333361 0.8704935
0.0086765 0.2341700 0.8705603
0.0083450 0.2350058 0.8706270
0.0083321 0.2356285 0.8705916
0.0083192 0.2362512 0.8705561
0.0079877 0.2370891 0.8706227
0.0095715 0.2327025 0.8703293
0.0095587 0.2333233 0.8702939
0.0092279 0.2341571 0.8703605
0.0088971 0.2349929 0.8704270
0.0088842 0.2356156 0.8703915
0.0088713 0.2362383 0.8703561
0.0085405 0.2370762 0.8704225
0.0101224 0.2326897 0.8701297
0.0101095 0.2333104 0.8700944
0.0097794 0.2341442 0.8701607
0.0094492 0.2349800 0.8702270
0.0094363 0.2356027 0.8701915
0.0094234 0.2362254 0.8701561
0.0090932 0.2370632 0.8702222
0.0106732 0.2326768 0.8699301
0.0106603 0.2332975 0.8698948
0.0103308 0.2341313 0.8699609
0.0100013 0.2349671 0.8700269
0.0099884 0.2355898 0.8699915
0.0099755 0.2362126 0.8699560
0.0096459 0.2370503 0.8700219
0.0112240 0.2326639 0.8697306
0.0112112 0.2332847 0.8696952
0.0111983 0.2339064 0.8696598
0.0105534 0.2349542 0.8698269
0.0105405 0.2355769 0.8697915
0.0102116 0.2364137 0.8698572
0.0101987 0.2370374 0.8698217
0.0117749 0.2326511 0.8695310
0.0117620 0.2332718 0.8694956
0.0117491 0.2338935 0.8694602
0.0111055 0.2349413 0.8696269
0.0110926 0.2355640 0.8695914
0.0107643 0.2364008 0.8696569
0.0107514 0.2370245 0.8696214
0.0122999 0.2338807 0.8692607
0.0116576 0.2349284 0.8694268
0.0116447 0.2355512 0.8693914
0.0113171 0.2363879 0.8694567
0.0113041 0.2370116 0.8694211
0.0128507 0.2338678 0.8690611
0.0122097 0.2349155 0.8692268
0.0121968 0.2355383 0.8691914
0.0121839 0.2361610 0.8691559
0.0118569 0.2369987 0.8692209
0.0134016 0.2338549 0.8688615
0.0127618 0.2349027 0.8690268
0.0127489 0.2355254 0.8689913
0.0127360 0.2361481 0.8689559
0.0124096 0.2369858 0.8690206
0.0139524 0.2338421 0.8686620
0.0136267 0.2346768 0.8687267
0.0136138 0.2352985 0.8686913
0.0132881 0.2361352 0.8687558
0.0129624 0.2369729 0.8688203
0.0145032 0.2338292 0.8684624
0.0141781 0.2346639 0.8685269
0.0141652 0.2352856 0.8684915
0.0138402 0.2361223 0.8685558
0.0135151 0.2369600 0.8686201
0.0150541 0.2338163 0.8682628
0.0147296 0.2346510 0.8683271
0.0147168 0.2352727 0.8682917
0.0143923 0.2361094 0.8683558
0.0140678 0.2369471 0.8684198
0.0156049 0.2338035 0.8680633
0.0152811 0.2346381 0.8681272
0.0152683 0.2352598 0.8680918
0.0149444 0.2360965 0.8681557
0.0146206 0.2369342 0.8682196
0.0161557 0.2337906 0.8678637
0.0158325 0.2346252 0.8679275
0.0158197 0.2352470 0.8678921
0.0154965 0.2360836 0.8679557
0.0151732 0.2369212 0.8680193
0.0166937 0.2343995 0.8676287
0.0166808 0.2350212 0.8675933
0.0160485 0.2360707 0.8677557
0.0160356 0.2366944 0.8677202
0.0172445 0.2343866 0.8674292
0.0172316 0.2350083 0.8673938
0.0166007 0.2360578 0.8675557
0.0165877 0.2366815 0.8675201
0.0177953 0.2343737 0.8672296
0.0177824 0.2349954 0.8671942
0.0174612 0.2358310 0.8672572
0.0171399 0.2366686 0.8673201
0.0171270 0.2372913 0.8672847
0.0183204 0.2356043 0.8669592
0.0176920 0.2366557 0.8671201
0.0176791 0.2372785 0.8670846
0.0190385 0.2275111 0.8672196
0.0188712 0.2355914 0.8667597
0.0182440 0.2366428 0.8669201
0.0182311 0.2372656 0.8668846
0.0195893 0.2274982 0.8670201
0.0191026 0.2364151 0.8666224
0.0190897 0.2370368 0.8665870
0.0201401 0.2274854 0.8668205
0.0199599 0.2361874 0.8663251
0.0199471 0.2368081 0.8662898
0.0206910 0.2274725 0.8666209
0.0205108 0.2361746 0.8661255
0.0204979 0.2367953 0.8660902
0.0212418 0.2274596 0.8664214
0.0210359 0.2374041 0.8658553
0.0217926 0.2274468 0.8662218
0.0215867 0.2373913 0.8656557
0.0223435 0.2274339 0.8660222
0.0221375 0.2373784 0.8654561
0.0217502 0.2272198 0.8662519
0.0228943 0.2274210 0.8658227
0.0223022 0.2272069 0.8660519
0.0234451 0.2274082 0.8656231
0.0239960 0.2273953 0.8654235
0.0245468 0.2273824 0.8652239
0.0250976 0.2273696 0.8650244
0.0256485 0.2273567 0.8648248
0.0261992 0.2273438 0.8646252
0.0267500 0.2273310 0.8644257
0.0273009 0.2273181 0.8642261
0.0278517 0.2273052 0.8640265
0.0284025 0.2272924 0.8638269
0.0383174 0.2270608 0.8602347
0.0383045 0.2276825 0.8601993
0.0388682 0.2270480 0.8600351
0.0388553 0.2276697 0.8599997
0.0394190 0.2270351 0.8598355
0.0394061 0.2276568 0.8598001
0.0399699 0.2270222 0.8596359
0.0399570 0.2276439 0.8596006
0.0405206 0.2270094 0.8594364
0.0405078 0.2276311 0.8594010
0.0410714 0.2269965 0.8592368
0.0410586 0.2276182 0.8592014
0.0416223 0.2269836 0.8590372
0.0416095 0.2276053 0.8590018
0.0421731 0.2269708 0.8588377
0.0421602 0.2275925 0.8588023
-0.0089378 0.2381030 0.8767152
-0.0083812 0.2380900 0.8765135
-0.0078377 0.2387047 0.8762762
-0.0078507 0.2393324 0.8762404
-0.0078637 0.2399611 0.8762046
-0.0078767 0.2405888 0.8761689
-0.0078897 0.2412165 0.8761332
-0.0079027 0.2418452 0.8760974
-0.0079157 0.2424729 0.8760617
-0.0079287 0.2431006 0.8760259
-0.0079417 0.2437293 0.8759901
-0.0079547 0.2443570 0.8759544
-0.0079677 0.2449847 0.8759187
-0.0079808 0.2456134 0.8758829
-0.0079938 0.2462411 0.8758471
-0.0080068 0.2468688 0.8758114
-0.0074902 0.2378625 0.8762040
-0.0073201 0.2405758 0.8759673
-0.0073331 0.2412035 0.8759315
-0.0073462 0.2418322 0.8758957
-0.0073592 0.2424599 0.8758600
-0.0073722 0.2430876 0.8758243
-0.0073852 0.2437163 0.8757885
-0.0073982 0.2443440 0.8757527
-0.0074112 0.2449717 0.8757170
-0.0074242 0.2456004 0.8756812
-0.0074372 0.2462281 0.8756455
-0.0074502 0.2468558 0.8756098
-0.0074632 0.2474845 0.8755740
-0.0069343 0.2378496 0.8760026
-0.0069473 0.2384763 0.8759669
-0.0069603 0.2391040 0.8759312
-0.0069732 0.2397307 0.8758955
-0.0067636 0.2405628 0.8757656
-0.0067766 0.2411905 0.8757299
-0.0067896 0.2418192 0.8756941
-0.0068026 0.2424469 0.8756584
-0.0068156 0.2430746 0.8756226
-0.0068286 0.2437033 0.8755868
-0.0068416 0.2443310 0.8755511
-0.0068546 0.2449587 0.8755154
-0.0068677 0.2455874 0.8754796
-0.0068807 0.2462151 0.8754438
-0.0068937 0.2468428 0.8754081
-0.0069067 0.2474715 0.8753723
-0.0063784 0.2378366 0.8758012
-0.0063913 0.2384633 0.8757655
-0.0064043 0.2390910 0.8757298
-0.0064173 0.2397177 0.8756941
-0.0063501 0.2474585 0.8751707
-0.0059134 0.2422145 0.8753498
-0.0059264 0.2428412 0.8753141
-0.0059394 0.2434689 0.8752784
-0.0059524 0.2440966 0.8752427
-0.0059653 0.2447233 0.8752070
-0.0059783 0.2453510 0.8751713
-0.0059913 0.2459787 0.8751355
-0.0060043 0.2466054 0.8750999
-0.0055028 0.2382348 0.8754570
-0.0055158 0.2388615 0.8754213
-0.0055288 0.2394882 0.8753856
-0.0055418 0.2401149 0.8753500
-0.0055547 0.2407416 0.8753143
-0.0055677 0.2413683 0.8752786
-0.0054354 0.2459657 0.8749341
-0.0054484 0.2465924 0.8748984
-0.0054614 0.2472201 0.8748627
-0.0054744 0.2478468 0.8748270
-0.0049475 0.2382219 0.8752558
-0.0049605 0.2388486 0.8752201
-0.0049735 0.2394753 0.8751844
-0.0049865 0.2401020 0.8751488
-0.0049995 0.2407287 0.8751131
-0.0050124 0.2413554 0.8750774
-0.0050254 0.2419821 0.8750417
-0.0050384 0.2426078 0.8750061
-0.0050514 0.2432345 0.8749704
-0.0050643 0.2438612 0.8749348
-0.0050773 0.2444879 0.8748991
-0.0050903 0.2451146 0.8748634
-0.0048795 0.2459527 0.8747327
-0.0048925 0.2465794 0.8746970
-0.0049055 0.2472071 0.8746613
-0.0049185 0.2478338 0.8746256
-0.0043923 0.2382089 0.8750546
-0.0044052 0.2388356 0.8750189
-0.0044182 0.2394623 0.8749833
-0.0044312 0.2400890 0.8749476
-0.0044442 0.2407157 0.8749119
-0.0044572 0.2413424 0.8748762
-0.0044701 0.2419691 0.8748406
-0.0044831 0.2425948 0.8748049
-0.0044961 0.2432215 0.8747693
-0.0045090 0.2438482 0.8747336
-0.0045220 0.2444749 0.8746979
-0.0045350 0.2451016 0.8746622
-0.0039538 0.2438352 0.8745324
-0.0039667 0.2444619 0.8744967
-0.0039797 0.2450886 0.8744610
-0.0039927 0.2457153 0.8744254
-0.0040057 0.2463420 0.8743897
-0.0040187 0.2469687 0.8743540
-0.0040316 0.2475954 0.8743183
-0.0035063 0.2379805 0.8747470
-0.0035192 0.2386062 0.8747114
-0.0035322 0.2392329 0.8746757
-0.0035452 0.2398586 0.8746401
-0.0035581 0.2404844 0.8746045
-0.0035711 0.2411101 0.8745688
-0.0035841 0.2417358 0.8745332
-0.0035970 0.2423615 0.8744976
-0.0036100 0.2429882 0.8744619
-0.0034374 0.2457024 0.8742242
-0.0034504 0.2463291 0.8741885
-0.0034634 0.2469558 0.8741528
-0.0034764 0.2475825 0.8741172
-0.0030035 0.2404714 0.8744035
-0.0030165 0.2410971 0.8743679
-0.0030294 0.2417228 0.8743323
-0.0030424 0.2423485 0.8742967
-0.0030554 0.2429752 0.8742610
-0.0030683 0.2436009 0.8742254
-0.0030813 0.2442266 0.8741897
-0.0030942 0.2448523 0.8741541
-0.0026345 0.2383779 0.8744042
-0.0026475 0.2390026 0.8743687
-0.0026604 0.2396283 0.8743330
-0.0028821 0.2456894 0.8740230
-0.0028951 0.2463161 0.8739873
-0.0029081 0.2469428 0.8739516
-0.0029211 0.2475695 0.8739160
-0.0024488 0.2404584 0.8742026
-0.0024618 0.2410841 0.8741669
-0.0024748 0.2417099 0.8741313
-0.0024877 0.2423356 0.8740957
-0.0025007 0.2429623 0.8740600
-0.0025137 0.2435880 0.8740244
-0.0025266 0.2442137 0.8739888
-0.0025396 0.2448394 0.8739532
-0.0020805 0.2383650 0.8742035
-0.0020935 0.2389897 0.8741679
-0.0021064 0.2396154 0.8741323
-0.0023398 0.2463031 0.8737861
-0.0023528 0.2469298 0.8737505
-0.0023658 0.2475565 0.8737148
-0.0019590 0.2435750 0.8738234
-0.0019720 0.2442007 0.8737878
-0.0019849 0.2448264 0.8737522
-0.0019979 0.2454521 0.8737166
