-0.0207756 0.2977663 0.8689293
-0.0207809 0.2983878 0.8688988
-0.0208507 0.3064687 0.8685024
-0.0208561 0.3070902 0.8684719
-0.0205886 0.2987138 0.8688485
-0.0206476 0.3055429 0.8685134
-0.0203964 0.2990378 0.8687982
-0.0204392 0.3039985 0.8685549
-0.0204446 0.3046190 0.8685244
-0.0202040 0.2993599 0.8687480
-0.0202093 0.2999793 0.8687177
-0.0202147 0.3005988 0.8686873
-0.0202200 0.3012183 0.8686569
-0.0202254 0.3018377 0.8686265
-0.0202307 0.3024572 0.8685961
-0.0202361 0.3030766 0.8685657
-0.0201661 0.2971395 0.8688537
-0.0201715 0.2977609 0.8688232
-0.0201768 0.2983824 0.8687927
-0.0202466 0.3064633 0.8683963
-0.0202520 0.3070848 0.8683658
-0.0199853 0.2987084 0.8687425
-0.0200443 0.3055375 0.8684075
-0.0197937 0.2990325 0.8686924
-0.0198365 0.3039932 0.8684490
-0.0198419 0.3046136 0.8684186
-0.0196021 0.2993545 0.8686423
-0.0196075 0.2999740 0.8686119
-0.0196128 0.3005934 0.8685815
-0.0196182 0.3012129 0.8685512
-0.0196235 0.3018324 0.8685208
-0.0196289 0.3024518 0.8684904
-0.0196342 0.3030713 0.8684600
-0.0195621 0.2971341 0.8687476
-0.0195674 0.2977556 0.8687171
-0.0195728 0.2983770 0.8686866
-0.0196426 0.3064580 0.8682902
-0.0196480 0.3070794 0.8682597
-0.0193819 0.2987031 0.8686365
-0.0194409 0.3055321 0.8683015
-0.0191910 0.2990271 0.8685865
-0.0192339 0.3039878 0.8683431
-0.0192393 0.3046083 0.8683127
-0.0190001 0.2993492 0.8685366
-0.0190055 0.2999686 0.8685062
-0.0190322 0.3030660 0.8683543
-0.0188146 0.3002887 0.8684564
-0.0188199 0.3009082 0.8684260
-0.0188252 0.3015266 0.8683957
-0.0188306 0.3021451 0.8683653
-0.0189580 0.2971288 0.8686415
-0.0190493 0.3076955 0.8681231
-0.0187679 0.2974558 0.8685914
-0.0187732 0.2980763 0.8685610
-0.0188430 0.3061482 0.8681650
-0.0188483 0.3067687 0.8681346
-0.0185831 0.2984013 0.8685111
-0.0186420 0.3052224 0.8681765
-0.0183929 0.2987244 0.8684613
-0.0184304 0.3030606 0.8682485
-0.0184357 0.3036801 0.8682182
-0.0184411 0.3042995 0.8681878
-0.0182027 0.2990464 0.8684115
-0.0182080 0.2996649 0.8683811
-0.0182134 0.3002834 0.8683508
-0.0182187 0.3009028 0.8683204
-0.0182240 0.3015213 0.8682901
-0.0182294 0.3021397 0.8682597
-0.0183540 0.2971234 0.8685354
-0.0184453 0.3076902 0.8680170
-0.0181646 0.2974504 0.8684855
-0.0181700 0.2980709 0.8684551
-0.0182397 0.3061429 0.8680591
-0.0182451 0.3067633 0.8680286
-0.0179805 0.2983960 0.8684052
-0.0180394 0.3052170 0.8680706
-0.0177909 0.2987190 0.8683555
-0.0178284 0.3030553 0.8681428
-0.0178337 0.3036747 0.8681124
-0.0178391 0.3042942 0.8680820
-0.0176014 0.2990411 0.8683059
-0.0176067 0.2996595 0.8682755
-0.0176120 0.3002780 0.8682452
-0.0176174 0.3008975 0.8682148
-0.0176227 0.3015159 0.8681844
-0.0176281 0.3021344 0.8681541
-0.0177393 0.2958751 0.8684903
-0.0177446 0.2964966 0.8684598
-0.0177500 0.2971180 0.8684293
-0.0178413 0.3076848 0.8679109
-0.0175613 0.2974451 0.8683795
-0.0175666 0.2980655 0.8683491
-0.0176364 0.3061375 0.8679531
-0.0176417 0.3067580 0.8679227
-0.0173778 0.2983906 0.8682994
-0.0174367 0.3052117 0.8679648
-0.0171890 0.2987137 0.8682498
-0.0172265 0.3030499 0.8680371
-0.0172318 0.3036694 0.8680067
-0.0172372 0.3042888 0.8679763
-0.0170002 0.2990357 0.8682003
-0.0170055 0.2996542 0.8681699
-0.0170108 0.3002727 0.8681396
-0.0170162 0.3008921 0.8681092
-0.0170215 0.3015106 0.8680788
-0.0170269 0.3021291 0.8680485
-0.0171353 0.2958697 0.8683842
-0.0171406 0.2964912 0.8683537
-0.0171460 0.2971127 0.8683232
-0.0172373 0.3076794 0.8678048
-0.0169579 0.2974397 0.8682735
-0.0169633 0.2980602 0.8682431
-0.0170330 0.3061322 0.8678471
-0.0170384 0.3067526 0.8678167
-0.0167751 0.2983852 0.8681935
-0.0168341 0.3052063 0.8678589
-0.0165871 0.2987083 0.8681441
-0.0166299 0.3036640 0.8679010
-0.0166352 0.3042835 0.8678706
-0.0163990 0.2990304 0.8680947
-0.0164043 0.2996489 0.8680643
-0.0164096 0.3002673 0.8680340
-0.0164150 0.3008868 0.8680036
-0.0164203 0.3015053 0.8679732
-0.0164257 0.3021237 0.8679429
-0.0164310 0.3027422 0.8679126
-0.0165312 0.2958644 0.8682781
-0.0165366 0.2964858 0.8682476
-0.0165420 0.2971073 0.8682171
-0.0166333 0.3076741 0.8676987
-0.0163546 0.2974344 0.8681676
-0.0163600 0.2980548 0.8681371
-0.0164297 0.3061268 0.8677412
-0.0164351 0.3067473 0.8677107
-0.0161726 0.2983799 0.8680877
-0.0162315 0.3052010 0.8677531
-0.0159852 0.2987030 0.8680383
-0.0160280 0.3036587 0.8677952
-0.0160333 0.3042781 0.8677649
-0.0157978 0.2990251 0.8679891
-0.0158031 0.2996435 0.8679587
-0.0158084 0.3002620 0.8679284
-0.0158138 0.3008815 0.8678980
-0.0158191 0.3014999 0.8678676
-0.0158245 0.3021184 0.8678373
-0.0158298 0.3027369 0.8678070
-0.0159219 0.2952375 0.8682025
-0.0159272 0.2958590 0.8681720
-0.0159326 0.2964805 0.8681415
-0.0160292 0.3076687 0.8675927
-0.0160346 0.3082902 0.8675622
-0.0160400 0.3089116 0.8675317
-0.0157459 0.2968085 0.8680920
-0.0157513 0.2974290 0.8680616
-0.0157566 0.2980495 0.8680312
-0.0158264 0.3061214 0.8676352
-0.0158317 0.3067419 0.8676047
-0.0155699 0.2983745 0.8679818
-0.0156288 0.3051956 0.8676472
-0.0153832 0.2986976 0.8679326
-0.0154260 0.3036533 0.8676895
-0.0154313 0.3042728 0.8676591
-0.0151965 0.2990197 0.8678834
-0.0152018 0.2996382 0.8678531
-0.0152071 0.3002566 0.8678228
-0.0152125 0.3008761 0.8677924
-0.0152178 0.3014946 0.8677620
-0.0152232 0.3021130 0.8677317
-0.0152285 0.3027315 0.8677014
-0.0153178 0.2952322 0.8680964
-0.0153232 0.2958536 0.8680659
-0.0153286 0.2964751 0.8680354
-0.0154252 0.3076633 0.8674866
-0.0154306 0.3082848 0.8674561
-0.0154360 0.3089063 0.8674256
-0.0151426 0.2968032 0.8679861
-0.0149565 0.2971293 0.8679368
-0.0149619 0.2977487 0.8679064
-0.0149673 0.2983692 0.8678760
-0.0150262 0.3051903 0.8675414
-0.0150315 0.3058107 0.8675109
-0.0150369 0.3064312 0.8674805
-0.0147813 0.2986923 0.8678269
-0.0148241 0.3036480 0.8675838
-0.0148295 0.3042674 0.8675534
-0.0145952 0.2990144 0.8677778
-0.0146006 0.2996328 0.8677475
-0.0146059 0.3002513 0.8677172
-0.0146113 0.3008708 0.8676868
-0.0146166 0.3014892 0.8676564
-0.0146220 0.3021077 0.8676261
-0.0146273 0.3027262 0.8675958
-0.0147138 0.2952268 0.8679903
-0.0147192 0.2958483 0.8679598
-0.0147246 0.2964697 0.8679293
-0.0148212 0.3076580 0.8673805
-0.0145392 0.2967978 0.8678801
-0.0143540 0.2971239 0.8678310
-0.0143593 0.2977434 0.8678006
-0.0143647 0.2983638 0.8677701
-0.0144236 0.3051849 0.8674355
-0.0144290 0.3058054 0.8674051
-0.0144343 0.3064258 0.8673747
-0.0141793 0.2986869 0.8677212
-0.0141847 0.2993064 0.8676908
-0.0141900 0.2999259 0.8676604
-0.0142061 0.3017842 0.8675692
-0.0142114 0.3024037 0.8675388
-0.0142168 0.3030232 0.8675084
-0.0142221 0.3036426 0.8674780
-0.0142275 0.3042621 0.8674477
-0.0140047 0.3002460 0.8676116
-0.0140101 0.3008654 0.8675812
-0.0141097 0.2952214 0.8678842
-0.0141151 0.2958429 0.8678537
-0.0141204 0.2964644 0.8678232
-0.0142171 0.3076526 0.8672744
-0.0142225 0.3082741 0.8672439
-0.0142278 0.3088955 0.8672134
-0.0139359 0.2967925 0.8677741
-0.0137513 0.2971186 0.8677251
-0.0137567 0.2977380 0.8676947
-0.0138210 0.3051796 0.8673297
-0.0138263 0.3058000 0.8672992
-0.0138317 0.3064205 0.8672688
-0.0135721 0.2980621 0.8676458
-0.0135774 0.2986816 0.8676154
-0.0136042 0.3017789 0.8674635
-0.0136095 0.3023984 0.8674331
-0.0136149 0.3030178 0.8674027
-0.0136203 0.3036373 0.8673723
-0.0136256 0.3042568 0.8673419
-0.0133928 0.2990037 0.8675666
-0.0133982 0.2996222 0.8675363
-0.0134035 0.3002406 0.8675060
-0.0134089 0.3008601 0.8674756
-0.0135057 0.2952161 0.8677781
-0.0135111 0.2958375 0.8677476
-0.0135164 0.2964590 0.8677171
-0.0136131 0.3076472 0.8671683
-0.0136184 0.3082687 0.8671378
-0.0136238 0.3088902 0.8671073
-0.0133326 0.2967871 0.8676681
-0.0134130 0.3061000 0.8672113
-0.0134184 0.3067205 0.8671808
-0.0131487 0.2971132 0.8676193
-0.0131540 0.2977327 0.8675889
-0.0132183 0.3051742 0.8672238
-0.0129701 0.2980568 0.8675401
-0.0129755 0.2986762 0.8675097
-0.0130129 0.3030125 0.8672970
-0.0130183 0.3036319 0.8672666
-0.0130236 0.3042514 0.8672362
-0.0127915 0.2989984 0.8674610
-0.0127969 0.2996168 0.8674307
-0.0128022 0.3002353 0.8674003
-0.0128076 0.3008547 0.8673700
-0.0128129 0.3014732 0.8673396
-0.0128183 0.3020917 0.8673093
-0.0129017 0.2952107 0.8676720
-0.0129070 0.2958322 0.8676415
-0.0129124 0.2964536 0.8676110
-0.0130144 0.3082633 0.8670317
-0.0130198 0.3088848 0.8670012
-0.0127292 0.2967817 0.8675622
-0.0128097 0.3060946 0.8671053
-0.0128150 0.3067151 0.8670749
-0.0128204 0.3073356 0.8670444
-0.0125461 0.2971078 0.8675134
-0.0125515 0.2977273 0.8674830
-0.0126157 0.3051689 0.8671180
-0.0123682 0.2980514 0.8674344
-0.0123736 0.2986709 0.8674040
-0.0124110 0.3030071 0.8671913
-0.0124164 0.3036266 0.8671609
-0.0124217 0.3042461 0.8671305
-0.0121903 0.2989930 0.8673554
-0.0121957 0.2996115 0.8673251
-0.0122010 0.3002299 0.8672947
-0.0122064 0.3008494 0.8672644
-0.0122117 0.3014679 0.8672340
-0.0122171 0.3020863 0.8672037
-0.0122977 0.2952054 0.8675659
-0.0123030 0.2958268 0.8675354
-0.0123084 0.2964483 0.8675049
-0.0124104 0.3082580 0.8669256
-0.0124158 0.3088794 0.8668951
-0.0121260 0.2967764 0.8674562
-0.0122171 0.3073302 0.8669385
-0.0119434 0.2971025 0.8674076
-0.0119488 0.2977220 0.8673772
-0.0120184 0.3057840 0.8669817
-0.0120238 0.3064044 0.8669512
-0.0117662 0.2980461 0.8673286
-0.0117716 0.2986655 0.8672982
-0.0118144 0.3036212 0.8670551
-0.0118198 0.3042407 0.8670248
-0.0118251 0.3048602 0.8669944
-0.0115891 0.2989877 0.8672498
-0.0115945 0.2996061 0.8672195
-0.0115998 0.3002246 0.8671891
-0.0116052 0.3008441 0.8671588
-0.0116105 0.3014625 0.8671284
-0.0116159 0.3020810 0.8670981
-0.0116212 0.3026995 0.8670677
-0.0116936 0.2952000 0.8674598
-0.0116990 0.2958214 0.8674293
-0.0117044 0.2964429 0.8673988
-0.0118064 0.3082526 0.8668195
-0.0118118 0.3088741 0.8667890
-0.0115226 0.2967710 0.8673502
-0.0116138 0.3073248 0.8668325
-0.0113408 0.2970971 0.8673017
-0.0113461 0.2977166 0.8672713
-0.0114158 0.3057786 0.8668758
-0.0114211 0.3063991 0.8668454
-0.0111644 0.2980407 0.8672229
-0.0111697 0.2986602 0.8671925
-0.0111751 0.2992797 0.8671621
-0.0112125 0.3036159 0.8669494
-0.0112179 0.3042354 0.8669190
-0.0112232 0.3048548 0.8668886
-0.0109932 0.2996008 0.8671139
-0.0109985 0.3002193 0.8670835
-0.0110039 0.3008387 0.8670531
-0.0110092 0.3014572 0.8670228
-0.0110145 0.3020757 0.8669925
-0.0110199 0.3026941 0.8669621
-0.0110896 0.2951946 0.8673537
-0.0110950 0.2958161 0.8673232
-0.0111004 0.2964375 0.8672927
-0.0112024 0.3082472 0.8667134
-0.0112077 0.3088687 0.8666829
-0.0109193 0.2967657 0.8672442
-0.0110105 0.3073195 0.8667265
-0.0107382 0.2970918 0.8671959
-0.0107436 0.2977113 0.8671655
-0.0108132 0.3057733 0.8667700
-0.0108186 0.3063937 0.8667396
-0.0105624 0.2980354 0.8671172
-0.0105677 0.2986548 0.8670868
-0.0105731 0.2992743 0.8670564
-0.0106105 0.3036106 0.8668437
-0.0106159 0.3042300 0.8668133
-0.0106212 0.3048495 0.8667829
-0.0209850 0.3220082 0.8677401
-0.0203809 0.3220028 0.8676340
-0.0203862 0.3226243 0.8676035
-0.0203916 0.3232457 0.8675730
-0.0203970 0.3238672 0.8675425
-0.0197768 0.3219974 0.8675279
-0.0197822 0.3226189 0.8674974
-0.0197876 0.3232403 0.8674669
-0.0197930 0.3238618 0.8674364
-0.0191728 0.3219921 0.8674218
-0.0191782 0.3226135 0.8673913
-0.0191836 0.3232350 0.8673608
-0.0295548 0.1928492 0.8757817
-0.0295603 0.1934817 0.8757506
-0.0295658 0.1941141 0.8757196
-0.0295712 0.1947455 0.8756886
-0.0293724 0.1952052 0.8756304
-0.0293778 0.1958366 0.8755994
-0.0293833 0.1964680 0.8755684
-0.0291844 0.1969247 0.8755103
-0.0291899 0.1975551 0.8754794
-0.0291953 0.1981865 0.8754484
-0.0289964 0.1986402 0.8753904
-0.0290019 0.1992696 0.8753596
-0.0288030 0.1997213 0.8753017
-0.0288084 0.2003507 0.8752708
-0.0288138 0.2009801 0.8752399
-0.0286150 0.2014288 0.8751822
-0.0286204 0.2020572 0.8751514
-0.0286259 0.2026857 0.8751206
-0.0295455 0.1927197 0.8757865
-0.0289403 0.1928438 0.8756737
-0.0289457 0.1934762 0.8756427
-0.0289512 0.1941086 0.8756117
-0.0289566 0.1947401 0.8755807
-0.0287586 0.1951997 0.8755226
-0.0287640 0.1958311 0.8754916
-0.0287695 0.1964626 0.8754606
-0.0285713 0.1969192 0.8754026
-0.0285767 0.1975496 0.8753717
-0.0283786 0.1980043 0.8753138
-0.0283841 0.1986347 0.8752829
-0.0283895 0.1992642 0.8752520
-0.0281913 0.1997158 0.8751942
-0.0281967 0.2003453 0.8751634
-0.0282022 0.2009747 0.8751325
-0.0280039 0.2014234 0.8750749
-0.0280093 0.2020518 0.8750441
-0.0278112 0.2024985 0.8749866
-0.0289288 0.1927143 0.8756782
-0.0283258 0.1928383 0.8755658
-0.0283312 0.1934707 0.8755347
-0.0283367 0.1941032 0.8755037
-0.0283421 0.1947346 0.8754727
-0.0281448 0.1951942 0.8754147
-0.0281502 0.1958257 0.8753838
-0.0281557 0.1964571 0.8753528
-0.0279582 0.1969138 0.8752949
-0.0279636 0.1975442 0.8752640
-0.0277662 0.1979989 0.8752062
-0.0277716 0.1986293 0.8751753
-0.0277771 0.1992587 0.8751444
-0.0275796 0.1997104 0.8750868
-0.0275851 0.2003398 0.8750559
-0.0275905 0.2009693 0.8750251
-0.0273929 0.2014179 0.8749676
-0.0273983 0.2020464 0.8749367
-0.0272008 0.2024931 0.8748794
-0.0281101 0.1925390 0.8755429
-0.0277113 0.1928328 0.8754578
-0.0277167 0.1934653 0.8754268
-0.0277222 0.1940977 0.8753958
-0.0277276 0.1947291 0.8753648
-0.0275309 0.1951888 0.8753069
-0.0275364 0.1958202 0.8752759
-0.0275419 0.1964517 0.8752450
-0.0273451 0.1969083 0.8751872
-0.0273506 0.1975388 0.8751563
-0.0271537 0.1979934 0.8750986
-0.0271592 0.1986238 0.8750677
-0.0271646 0.1992533 0.8750368
-0.0269678 0.1997050 0.8749793
-0.0267710 0.2001546 0.8749220
-0.0267765 0.2007831 0.8748911
-0.0265797 0.2012307 0.8748338
-0.0265851 0.2018592 0.8748030
-0.0265905 0.2024876 0.8747722
-0.0274942 0.1925335 0.8754347
-0.0270968 0.1928274 0.8753499
-0.0271022 0.1934598 0.8753189
-0.0271077 0.1940923 0.8752878
-0.0271132 0.1947237 0.8752569
-0.0269171 0.1951833 0.8751991
-0.0269226 0.1958148 0.8751681
-0.0269280 0.1964462 0.8751372
-0.0267320 0.1969029 0.8750795
-0.0267374 0.1975333 0.8750486
-0.0265414 0.1979880 0.8749911
-0.0265468 0.1986184 0.8749602
-0.0265523 0.1992478 0.8749293
-0.0263562 0.1996995 0.8748719
-0.0261600 0.2001492 0.8748146
-0.0261655 0.2007776 0.8747838
-0.0259693 0.2012253 0.8747266
-0.0259748 0.2018538 0.8746958
-0.0259802 0.2024822 0.8746650
-0.0257841 0.2029269 0.8746079
-0.0268783 0.1925281 0.8753266
-0.0264822 0.1928219 0.8752419
-0.0264876 0.1934544 0.8752109
-0.0264931 0.1940868 0.8751799
-0.0264986 0.1947182 0.8751489
-0.0263033 0.1951779 0.8750913
-0.0263088 0.1958093 0.8750603
-0.0263142 0.1964408 0.8750293
-0.0261189 0.1968974 0.8749718
-0.0261243 0.1975279 0.8749409
-0.0261298 0.1981593 0.8749099
-0.0259344 0.1986130 0.8748526
-0.0259398 0.1992424 0.8748217
-0.0257444 0.1996941 0.8747645
-0.0255490 0.2001438 0.8747073
-0.0255545 0.2007722 0.8746765
-0.0253590 0.2012199 0.8746194
-0.0253645 0.2018483 0.8745886
-0.0253699 0.2024768 0.8745578
-0.0251744 0.2029215 0.8745008
-0.0260623 0.1923538 0.8751917
-0.0258677 0.1928165 0.8751340
-0.0258732 0.1934489 0.8751030
-0.0258786 0.1940813 0.8750720
-0.0258841 0.1947128 0.8750410
-0.0256895 0.1951724 0.8749835
-0.0256950 0.1958039 0.8749525
-0.0257004 0.1964353 0.8749215
-0.0255057 0.1968920 0.8748641
-0.0255112 0.1975224 0.8748332
-0.0255166 0.1981538 0.8748022
-0.0253220 0.1986075 0.8747450
-0.0253274 0.1992370 0.8747141
-0.0251327 0.1996887 0.8746570
-0.0249380 0.2001383 0.8746000
-0.0249435 0.2007668 0.8745692
-0.0247487 0.2012145 0.8745122
-0.0245539 0.2016612 0.8744553
-0.0245593 0.2022886 0.8744245
-0.0245648 0.2029161 0.8743938
-0.0254471 0.1923483 0.8750836
-0.0250539 0.1926403 0.8749996
-0.0250593 0.1932717 0.8749686
-0.0250648 0.1939041 0.8749376
-0.0250702 0.1945355 0.8749066
-0.0250757 0.1951670 0.8748757
-0.0250811 0.1957984 0.8748447
-0.0250866 0.1964298 0.8748137
-0.0248926 0.1968865 0.8747564
-0.0248980 0.1975170 0.8747255
-0.0249035 0.1981484 0.8746945
-0.0247095 0.1986021 0.8746374
-0.0247150 0.1992315 0.8746066
-0.0245210 0.1996832 0.8745496
-0.0243269 0.2001329 0.8744927
-0.0243324 0.2007614 0.8744618
-0.0241384 0.2012091 0.8744050
-0.0239444 0.2016558 0.8743483
-0.0239498 0.2022832 0.8743175
-0.0239552 0.2029107 0.8742867
-0.0248319 0.1923429 0.8749756
-0.0244400 0.1926348 0.8748918
-0.0244455 0.1932662 0.8748608
-0.0244510 0.1938987 0.8748298
-0.0244564 0.1945301 0.8747988
-0.0244619 0.1951615 0.8747678
-0.0244673 0.1957930 0.8747369
-0.0244728 0.1964244 0.8747059
-0.0242795 0.1968811 0.8746488
-0.0242850 0.1975115 0.8746178
-0.0242904 0.1981430 0.8745869
-0.0240971 0.1985966 0.8745299
-0.0241025 0.1992261 0.8744990
-0.0239092 0.1996778 0.8744421
-0.0237159 0.2001275 0.8743853
-0.0237214 0.2007559 0.8743545
-0.0235281 0.2012036 0.8742978
-0.0233347 0.2016504 0.8742412
-0.0233402 0.2022778 0.8742104
-0.0233456 0.2029052 0.8741796
-0.0238208 0.1919979 0.8748150
-0.0238262 0.1926293 0.8747840
-0.0238317 0.1932608 0.8747530
-0.0238371 0.1938932 0.8747220
-0.0238426 0.1945246 0.8746910
-0.0238481 0.1951561 0.8746600
-0.0238535 0.1957875 0.8746291
-0.0238590 0.1964189 0.8745981
-0.0236664 0.1968756 0.8745411
-0.0236719 0.1975061 0.8745101
-0.0236773 0.1981375 0.8744792
-0.0234847 0.1985912 0.8744223
-0.0234902 0.1992206 0.8743914
-0.0232976 0.1996723 0.8743347
-0.0231049 0.2001221 0.8742780
-0.0231104 0.2007505 0.8742472
-0.0227197 0.2010175 0.8741649
-0.0227251 0.2016449 0.8741341
-0.0227305 0.2022724 0.8741033
-0.0227359 0.2028998 0.8740725
-0.0232070 0.1919925 0.8747071
-0.0232124 0.1926239 0.8746762
-0.0232179 0.1932553 0.8746452
-0.0232233 0.1938878 0.8746142
-0.0232288 0.1945192 0.8745832
-0.0232342 0.1951506 0.8745522
-0.0232397 0.1957821 0.8745212
-0.0232452 0.1964135 0.8744903
-0.0230533 0.1968702 0.8744334
-0.0230587 0.1975006 0.8744025
-0.0230642 0.1981321 0.8743715
-0.0228723 0.1985858 0.8743147
-0.0228777 0.1992152 0.8742839
-0.0226859 0.1996669 0.8742272
-0.0222966 0.1999369 0.8741450
-0.0223020 0.2005654 0.8741142
-0.0221100 0.2010121 0.8740578
-0.0221154 0.2016395 0.8740270
-0.0221209 0.2022670 0.8739962
-0.0219290 0.2027107 0.8739400
-0.0225931 0.1919870 0.8745993
-0.0225986 0.1926184 0.8745684
-0.0226041 0.1932499 0.8745374
-0.0226095 0.1938823 0.8745064
-0.0226150 0.1945137 0.8744754
-0.0226204 0.1951452 0.8744444
-0.0226259 0.1957766 0.8744134
-0.0226313 0.1964080 0.8743825
-0.0224401 0.1968647 0.8743257
-0.0224456 0.1974952 0.8742948
-0.0224510 0.1981266 0.8742638
-0.0222599 0.1985803 0.8742072
-0.0222653 0.1992098 0.8741763
-0.0220741 0.1996615 0.8741198
-0.0216862 0.1999315 0.8740378
-0.0216917 0.2005599 0.8740070
-0.0215005 0.2010067 0.8739507
-0.0215059 0.2016341 0.8739199
-0.0215113 0.2022615 0.8738892
-0.0213200 0.2027053 0.8738330
-0.0219793 0.1919816 0.8744915
-0.0219848 0.1926130 0.8744605
-0.0219902 0.1932444 0.8744296
-0.0219957 0.1938769 0.8743985
-0.0220012 0.1945083 0.8743676
-0.0220066 0.1951397 0.8743366
-0.0220121 0.1957712 0.8743056
-0.0218215 0.1962279 0.8742490
-0.0218270 0.1968593 0.8742180
-0.0218325 0.1974897 0.8741871
-0.0216420 0.1979444 0.8741305
-0.0214516 0.1983972 0.8740741
-0.0214570 0.1990266 0.8740432
-0.0212664 0.1994773 0.8739869
-0.0210759 0.1999261 0.8739306
-0.0210814 0.2005545 0.8738998
-0.0208908 0.2010012 0.8738436
-0.0208963 0.2016287 0.8738129
-0.0209017 0.2022561 0.8737821
-0.0205151 0.2025162 0.8737009
-0.0205205 0.2031426 0.8736701
-0.0213655 0.1919761 0.8743837
-0.0213873 0.1945028 0.8742597
-0.0211758 0.1924378 0.8743269
-0.0211813 0.1930682 0.8742960
-0.0211867 0.1936987 0.8742651
-0.0211976 0.1949605 0.8742032
-0.0212031 0.1955920 0.8741722
-0.0212085 0.1962224 0.8741413
-0.0212140 0.1968538 0.8741103
-0.0212194 0.1974843 0.8740794
-0.0210296 0.1979390 0.8740229
-0.0208398 0.1983917 0.8739666
-0.0208452 0.1990212 0.8739358
-0.0206554 0.1994719 0.8738795
-0.0204656 0.1999206 0.8738234
-0.0204710 0.2005491 0.8737926
-0.0202812 0.2009958 0.8737366
-0.0200914 0.2014416 0.8736806
-0.0200968 0.2020680 0.8736499
-0.0199069 0.2025108 0.8735940
-0.0199123 0.2031372 0.8735633
-0.0205572 0.1918009 0.8742502
-0.0205627 0.1924324 0.8742192
-0.0205681 0.1930628 0.8741883
-0.0205736 0.1936932 0.8741574
-0.0205790 0.1943247 0.8741264
-0.0205845 0.1949551 0.8740955
-0.0205899 0.1955865 0.8740645
-0.0205954 0.1962170 0.8740336
-0.0204063 0.1966727 0.8739772
-0.0204117 0.1973031 0.8739463
-0.0204172 0.1979336 0.8739154
-0.0202281 0.1983863 0.8738592
-0.0202335 0.1990157 0.8738283
-0.0200444 0.1994665 0.8737722
-0.0198553 0.1999152 0.8737162
-0.0198607 0.2005437 0.8736854
-0.0196716 0.2009904 0.8736295
-0.0194824 0.2014362 0.8735736
-0.0194878 0.2020626 0.8735429
-0.0192987 0.2025054 0.8734872
-0.0193041 0.2031318 0.8734565
-0.0199441 0.1917955 0.8741425
-0.0199495 0.1924269 0.8741115
-0.0199550 0.1930573 0.8740806
-0.0199604 0.1936878 0.8740497
-0.0199659 0.1943192 0.8740187
-0.0199713 0.1949497 0.8739878
-0.0199768 0.1955811 0.8739568
-0.0197884 0.1960378 0.8739005
-0.0197938 0.1966673 0.8738697
-0.0197993 0.1972977 0.8738387
-0.0196110 0.1977514 0.8737826
-0.0194225 0.1982032 0.8737266
-0.0194280 0.1988316 0.8736958
-0.0192395 0.1992814 0.8736398
-0.0190512 0.1997301 0.8735840
-0.0190566 0.2003576 0.8735532
-0.0188681 0.2008043 0.8734974
-0.0186796 0.2012491 0.8734417
-0.0186850 0.2018745 0.8734110
-0.0184966 0.2023173 0.8733555
-0.0185020 0.2029427 0.8733248
-0.0193310 0.1917900 0.8740348
-0.0193528 0.1943138 0.8739110
-0.0191434 0.1922508 0.8739785
-0.0191488 0.1928812 0.8739476
-0.0191543 0.1935106 0.8739167
-0.0191652 0.1947715 0.8738548
-0.0191706 0.1954019 0.8738239
-0.0191760 0.1960324 0.8737930
-0.0189883 0.1964871 0.8737369
-0.0189938 0.1971166 0.8737060
-0.0188061 0.1975693 0.8736501
-0.0186184 0.1980201 0.8735942
-0.0186238 0.1986485 0.8735634
-0.0184361 0.1990973 0.8735077
-0.0182483 0.1995450 0.8734520
-0.0182537 0.2001715 0.8734212
-0.0180660 0.2006172 0.8733656
-0.0180714 0.2012437 0.8733349
-0.0180768 0.2018691 0.8733042
-0.0178890 0.2023119 0.8732487
-0.0178944 0.2029373 0.8732181
-0.0187178 0.1917846 0.8739271
-0.0185309 0.1922453 0.8738709
-0.0185364 0.1928758 0.8738400
-0.0185418 0.1935052 0.8738091
-0.0185473 0.1941356 0.8737782
-0.0183603 0.1945934 0.8737221
-0.0183658 0.1952228 0.8736912
-0.0183712 0.1958522 0.8736604
-0.0181842 0.1963060 0.8736045
-0.0181897 0.1969344 0.8735737
-0.0180026 0.1973872 0.8735178
-0.0180080 0.1980146 0.8734870
-0.0180135 0.1986431 0.8734562
-0.0178265 0.1990918 0.8734006
-0.0176395 0.1995396 0.8733450
-0.0176449 0.2001660 0.8733143
-0.0174578 0.2006118 0.8732588
-0.0174632 0.2012383 0.8732281
-0.0174686 0.2018637 0.8731974
-0.0172815 0.2023065 0.8731420
-0.0172869 0.2029319 0.8731114
-0.0181048 0.1917791 0.8738195
-0.0179185 0.1922399 0.8737633
-0.0179239 0.1928703 0.8737324
-0.0179294 0.1934998 0.8737015
-0.0179348 0.1941302 0.8736706
-0.0177486 0.1945879 0.8736147
-0.0177540 0.1952174 0.8735838
-0.0177594 0.1958468 0.8735529
-0.0175731 0.1963006 0.8734972
-0.0175786 0.1969290 0.8734663
-0.0173923 0.1973818 0.8734106
-0.0172060 0.1978315 0.8733551
-0.0172114 0.1984590 0.8733243
-0.0172168 0.1990864 0.8732935
-0.0168387 0.1993545 0.8732134
-0.0168441 0.1999810 0.8731826
-0.0168496 0.2006064 0.8731520
-0.0166632 0.2010502 0.8730967
-0.0166686 0.2016756 0.8730660
-0.0164822 0.2021174 0.8730108
-0.0164876 0.2027419 0.8729802
-0.0173007 0.1916040 0.8736867
-0.0171151 0.1920637 0.8736308
-0.0171206 0.1926932 0.8735999
-0.0171260 0.1933226 0.8735690
-0.0171314 0.1939521 0.8735381
-0.0169459 0.1944088 0.8734824
-0.0169513 0.1950373 0.8734515
-0.0169567 0.1956667 0.8734207
-0.0167711 0.1961195 0.8733651
-0.0167765 0.1967479 0.8733342
-0.0165910 0.1971997 0.8732787
-0.0164054 0.1976494 0.8732233
-0.0164108 0.1982759 0.8731926
-0.0162251 0.1987237 0.8731372
-0.0162305 0.1993491 0.8731065
-0.0162360 0.1999756 0.8730758
-0.0160503 0.2004203 0.8730206
-0.0158646 0.2008631 0.8729655
-0.0158700 0.2014876 0.8729349
-0.0158754 0.2021120 0.8729043
-0.0158808 0.2027365 0.8728736
-0.0166882 0.1915986 0.8735791
-0.0165034 0.1920583 0.8735233
-0.0165089 0.1926878 0.8734925
-0.0165143 0.1933172 0.8734616
-0.0163294 0.1937750 0.8734059
-0.0161445 0.1942307 0.8733503
-0.0161499 0.1948582 0.8733195
-0.0159651 0.1953119 0.8732640
-0.0159705 0.1959394 0.8732332
-0.0159760 0.1965668 0.8732024
-0.0157910 0.1970176 0.8731471
-0.0156060 0.1974664 0.8730918
-0.0156114 0.1980918 0.8730611
-0.0154266 0.1985396 0.8730059
-0.0154320 0.1991641 0.8729753
-0.0154374 0.1997895 0.8729446
-0.0154428 0.2004150 0.8729139
-0.0152578 0.2008577 0.8728589
-0.0152632 0.2014822 0.8728283
-0.0152685 0.2021066 0.8727977
-0.0152739 0.2027311 0.8727670
-0.0160758 0.1915931 0.8734716
-0.0158917 0.1920529 0.8734159
-0.0158971 0.1926823 0.8733850
-0.0159025 0.1933118 0.8733541
-0.0157184 0.1937695 0.8732986
-0.0155342 0.1942253 0.8732431
-0.0155396 0.1948527 0.8732123
-0.0153555 0.1953065 0.8731569
-0.0153609 0.1959340 0.8731261
-0.0153663 0.1965614 0.8730953
-0.0151821 0.1970122 0.8730401
-0.0149979 0.1974610 0.8729850
-0.0150033 0.1980864 0.8729543
-0.0148191 0.1985342 0.8728992
-0.0148245 0.1991587 0.8728686
-0.0148299 0.1997841 0.8728379
-0.0146455 0.2002279 0.8727830
-0.0146509 0.2008524 0.8727523
-0.0146563 0.2014768 0.8727217
-0.0146617 0.2021013 0.8726911
-0.0146671 0.2027257 0.8726604
-0.0152745 0.1914180 0.8733393
-0.0150911 0.1918778 0.8732838
-0.0150966 0.1925062 0.8732529
-0.0151020 0.1931347 0.8732221
-0.0149184 0.1935914 0.8731667
-0.0149239 0.1942199 0.8731359
-0.0149293 0.1948473 0.8731051
-0.0147458 0.1953011 0.8730498
-0.0145623 0.1957529 0.8729947
-0.0145678 0.1963793 0.8729639
-0.0143843 0.1968291 0.8729089
-0.0143897 0.1974556 0.8728781
-0.0143951 0.1980810 0.8728475
-0.0142116 0.1985288 0.8727925
-0.0140279 0.1989736 0.8727377
-0.0140333 0.1995981 0.8727070
-0.0140387 0.2002225 0.8726764
-0.0140441 0.2008470 0.8726458
-0.0140495 0.2014714 0.8726151
-0.0140549 0.2020959 0.8725845
-0.0138713 0.2025367 0.8725299
-0.0138767 0.2031601 0.8724993
-0.0144746 0.1912429 0.8732073
-0.0142918 0.1917017 0.8731519
-0.0142973 0.1923301 0.8731211
-0.0143027 0.1929576 0.8730903
-0.0141199 0.1934134 0.8730351
-0.0141253 0.1940408 0.8730043
-0.0141308 0.1946682 0.8729735
-0.0139480 0.1951210 0.8729184
-0.0137652 0.1955728 0.8728634
-0.0137706 0.1961983 0.8728327
-0.0137760 0.1968237 0.8728020
-0.0135931 0.1972725 0.8727471
-0.0135985 0.1978980 0.8727164
-0.0134157 0.1983438 0.8726617
-0.0134211 0.1989682 0.8726311
-0.0134265 0.1995927 0.8726004
-0.0134319 0.2002171 0.8725698
-0.0134373 0.2008416 0.8725392
-0.0134427 0.2014660 0.8725085
-0.0134481 0.2020905 0.8724779
-0.0132652 0.2025313 0.8724234
-0.0132705 0.2031548 0.8723928
-0.0138636 0.1912375 0.8731000
-0.0136816 0.1916963 0.8730447
-0.0136871 0.1923247 0.8730139
-0.0136925 0.1929521 0.8729831
-0.0135104 0.1934079 0.8729280
-0.0135158 0.1940354 0.8728972
-0.0135212 0.1946628 0.8728665
-0.0133391 0.1951156 0.8728115
-0.0131570 0.1955674 0.8727566
-0.0131624 0.1961929 0.8727259
-0.0131678 0.1968183 0.8726952
-0.0129856 0.1972671 0.8726404
-0.0129910 0.1978926 0.8726097
-0.0128089 0.1983384 0.8725551
-0.0128143 0.1989628 0.8725245
-0.0128196 0.1995873 0.8724938
-0.0128250 0.2002117 0.8724632
-0.0128304 0.2008362 0.8724326
-0.0128358 0.2014606 0.8724019
-0.0128412 0.2020851 0.8723713
-0.0128466 0.2027095 0.8723407
-0.0132526 0.1912321 0.8729927
-0.0130713 0.1916908 0.8729375
-0.0130767 0.1923193 0.8729067
-0.0128953 0.1927751 0.8728517
-0.0129007 0.1934025 0.8728209
-0.0129062 0.1940300 0.8727901
-0.0129116 0.1946574 0.8727594
-0.0125434 0.1949356 0.8726805
-0.0125488 0.1955620 0.8726497
-0.0125542 0.1961875 0.8726191
-0.0123727 0.1966363 0.8725644
-0.0121913 0.1970841 0.8725098
-0.0121967 0.1977085 0.8724792
-0.0122021 0.1983330 0.8724485
-0.0122075 0.1989574 0.8724179
-0.0122129 0.1995819 0.8723873
-0.0122183 0.2002063 0.8723566
-0.0120368 0.2006492 0.8723023
-0.0120422 0.2012726 0.8722717
-0.0120476 0.2018971 0.8722411
-0.0120530 0.2025205 0.8722105
-0.0120583 0.2031440 0.8721799
-0.0122748 0.1915158 0.8728061
-0.0122803 0.1921422 0.8727754
-0.0120996 0.1925980 0.8727205
-0.0121050 0.1932255 0.8726898
-0.0121104 0.1938519 0.8726590
-0.0121159 0.1944784 0.8726283
-0.0119351 0.1949302 0.8725736
-0.0117544 0.1953810 0.8725190
-0.0117598 0.1960064 0.8724883
-0.0115791 0.1964542 0.8724338
-0.0115845 0.1970787 0.8724032
-0.0115899 0.1977032 0.8723726
-0.0115953 0.1983276 0.8723420
-0.0116007 0.1989521 0.8723113
-0.0116061 0.1995765 0.8722807
-0.0116115 0.2002010 0.8722501
-0.0114306 0.2006438 0.8721958
-0.0114360 0.2012672 0.8721652
-0.0114414 0.2018917 0.8721346
-0.0114468 0.2025151 0.8721040
-0.0114522 0.2031386 0.8720734
-0.0116652 0.1915104 0.8726991
-0.0116706 0.1921368 0.8726683
-0.0114907 0.1925926 0.8726136
-0.0114961 0.1932201 0.8725828
-0.0115015 0.1938465 0.8725521
-0.0115069 0.1944729 0.8725213
-0.0113269 0.1949248 0.8724668
-0.0111469 0.1953756 0.8724123
-0.0111523 0.1960010 0.8723816
-0.0109723 0.1964489 0.8723273
-0.0109777 0.1970733 0.8722966
-0.0109831 0.1976978 0.8722660
-0.0109885 0.1983222 0.8722354
-0.0109939 0.1989467 0.8722047
-0.0109993 0.1995711 0.8721741
-0.0110046 0.2001956 0.8721435
-0.0108245 0.2006384 0.8720893
-0.0108299 0.2012619 0.8720588
-0.0108353 0.2018863 0.8720281
-0.0108406 0.2025098 0.8719975
-0.0286313 0.2033151 0.8750897
-0.0286367 0.2039436 0.8750589
-0.0286422 0.2045720 0.8750280
-0.0286476 0.2052014 0.8749972
-0.0286530 0.2058299 0.8749663
-0.0284875 0.2106080 0.8746955
-0.0282674 0.2085290 0.8747619
-0.0282729 0.2091584 0.8747310
-0.0282783 0.2097878 0.8747002
-0.0280365 0.2051960 0.8748898
-0.0280419 0.2058244 0.8748590
-0.0280474 0.2064529 0.8748282
-0.0280528 0.2070823 0.8747973
-0.0280582 0.2077108 0.8747665
-0.0278166 0.2031259 0.8749558
-0.0278220 0.2037544 0.8749250
-0.0278274 0.2043818 0.8748942
-0.0282975 0.2128804 0.8745471
-0.0283030 0.2135118 0.8745162
-0.0280835 0.2114248 0.8745831
-0.0280890 0.2120562 0.8745521
-0.0278751 0.2106026 0.8745879
-0.0276557 0.2085235 0.8746545
-0.0276612 0.2091530 0.8746236
-0.0276666 0.2097824 0.8745927
-0.0274255 0.2051906 0.8747825
-0.0274309 0.2058190 0.8747517
-0.0274364 0.2064475 0.8747208
-0.0274418 0.2070769 0.8746900
-0.0274472 0.2077053 0.8746591
-0.0272063 0.2031205 0.8748486
-0.0272117 0.2037489 0.8748178
-0.0272171 0.2043764 0.8747870
-0.0281158 0.2164275 0.8743357
-0.0281212 0.2170600 0.8743047
-0.0278970 0.2143325 0.8744032
-0.0279025 0.2149649 0.8743721
-0.0279079 0.2155974 0.8743411
-0.0279243 0.2174947 0.8742480
-0.0279298 0.2181271 0.8742170
-0.0279352 0.2187595 0.8741860
-0.0279407 0.2193920 0.8741550
-0.0279462 0.2200244 0.8741239
-0.0276892 0.2135063 0.8744083
-0.0277492 0.2204551 0.8740675
-0.0274814 0.2126812 0.8744135
-0.0275522 0.2208838 0.8740111
-0.0275577 0.2215143 0.8739802
-0.0272680 0.2112276 0.8744494
-0.0272735 0.2118580 0.8744185
-0.0273606 0.2219410 0.8739239
-0.0273660 0.2225714 0.8738930
-0.0273715 0.2232019 0.8738620
-0.0273769 0.2238323 0.8738311
-0.0273824 0.2244617 0.8738002
-0.0270603 0.2104064 0.8744544
-0.0268417 0.2083283 0.8745210
-0.0268471 0.2089578 0.8744901
-0.0268525 0.2095862 0.8744593
-0.0265959 0.2031151 0.8747414
-0.0266014 0.2037435 0.8747106
-0.0266068 0.2043710 0.8746798
-0.0266122 0.2049994 0.8746490
-0.0266177 0.2056278 0.8746181
-0.0266231 0.2062553 0.8745873
-0.0266285 0.2068837 0.8745565
-0.0266339 0.2075112 0.8745257
-0.0272934 0.2155919 0.8742332
-0.0272989 0.2162243 0.8742022
-0.0273044 0.2168568 0.8741711
-0.0273098 0.2174892 0.8741401
-0.0273153 0.2181216 0.8741091
-0.0273207 0.2187541 0.8740781
-0.0270754 0.2135009 0.8743005
-0.0270808 0.2141323 0.8742696
-0.0270863 0.2147648 0.8742385
-0.0271245 0.2191858 0.8740217
-0.0271299 0.2198172 0.8739907
-0.0271354 0.2204497 0.8739597
-0.0268682 0.2126757 0.8743058
-0.0269391 0.2208784 0.8739034
-0.0269445 0.2215088 0.8738725
-0.0267482 0.2219356 0.8738163
-0.0267537 0.2225660 0.8737854
-0.0267591 0.2231964 0.8737545
-0.0267646 0.2238269 0.8737235
-0.0267700 0.2244563 0.8736927
-0.0264540 0.2110304 0.8743161
-0.0264595 0.2116598 0.8742852
-0.0262469 0.2102092 0.8743211
-0.0260290 0.2081342 0.8743877
-0.0260345 0.2087626 0.8743569
-0.0260399 0.2093901 0.8743261
-0.0257895 0.2035533 0.8745772
-0.0257949 0.2041808 0.8745464
-0.0258003 0.2048082 0.8745156
-0.0258057 0.2054357 0.8744849
-0.0258111 0.2060631 0.8744541
-0.0258166 0.2066906 0.8744233
-0.0258220 0.2073180 0.8743925
-0.0266788 0.2155865 0.8741252
-0.0266843 0.2162189 0.8740942
-0.0266898 0.2168513 0.8740632
-0.0266952 0.2174837 0.8740322
-0.0267007 0.2181162 0.8740011
-0.0267062 0.2187486 0.8739701
-0.0264616 0.2134954 0.8741927
-0.0264670 0.2141269 0.8741617
-0.0264725 0.2147593 0.8741307
-0.0265107 0.2191803 0.8739138
-0.0265161 0.2198118 0.8738829
-0.0265216 0.2204442 0.8738518
-0.0262551 0.2126703 0.8741981
-0.0263260 0.2208729 0.8737957
-0.0263314 0.2215034 0.8737648
-0.0261358 0.2219301 0.8737088
-0.0261412 0.2225606 0.8736778
-0.0261467 0.2231910 0.8736469
-0.0261521 0.2238214 0.8736160
-0.0261576 0.2244509 0.8735851
-0.0258423 0.2110250 0.8742086
-0.0258477 0.2116544 0.8741777
-0.0256359 0.2102038 0.8742138
-0.0254187 0.2081288 0.8742805
-0.0254241 0.2087572 0.8742497
-0.0254296 0.2093846 0.8742189
-0.0251798 0.2035479 0.8744701
-0.0251852 0.2041754 0.8744393
-0.0251907 0.2048028 0.8744086
-0.0251961 0.2054303 0.8743778
-0.0252015 0.2060577 0.8743470
-0.0252069 0.2066851 0.8743162
-0.0252123 0.2073126 0.8742854
-0.0260643 0.2155810 0.8740173
-0.0260698 0.2162134 0.8739863
-0.0260753 0.2168459 0.8739552
-0.0260807 0.2174783 0.8739242
-0.0260862 0.2181107 0.8738932
-0.0260917 0.2187431 0.8738622
-0.0258587 0.2147539 0.8740229
-0.0258968 0.2191749 0.8738060
-0.0259023 0.2198063 0.8737751
-0.0259078 0.2204387 0.8737440
-0.0256474 0.2132963 0.8740594
-0.0256529 0.2139267 0.8740285
-0.0257128 0.2208675 0.8736880
-0.0257183 0.2214979 0.8736571
-0.0254418 0.2124721 0.8740649
-0.0255234 0.2219247 0.8736012
-0.0252306 0.2110195 0.8741012
-0.0252360 0.2116490 0.8740703
-0.0253285 0.2223504 0.8735453
-0.0253339 0.2229799 0.8735145
-0.0253393 0.2236093 0.8734836
-0.0253448 0.2242387 0.8734527
-0.0248138 0.2087518 0.8741425
-0.0248192 0.2093792 0.8741117
-0.0248247 0.2100077 0.8740809
-0.0245702 0.2035425 0.8743630
-0.0245756 0.2041700 0.8743323
-0.0245810 0.2047974 0.8743015
-0.0245864 0.2054248 0.8742707
-0.0245919 0.2060523 0.8742399
-0.0245973 0.2066797 0.8742091
-0.0246027 0.2073072 0.8741784
-0.0246081 0.2079346 0.8741476
-0.0254498 0.2155755 0.8739094
-0.0254553 0.2162080 0.8738783
-0.0254608 0.2168404 0.8738473
-0.0254662 0.2174728 0.8738163
-0.0254717 0.2181053 0.8737853
-0.0254772 0.2187377 0.8737542
-0.0252448 0.2147484 0.8739151
-0.0252830 0.2191694 0.8736982
-0.0252885 0.2198009 0.8736672
-0.0250343 0.2132908 0.8739517
-0.0250397 0.2139213 0.8739208
-0.0250942 0.2202306 0.8736113
-0.0250997 0.2208620 0.8735803
-0.0251051 0.2214925 0.8735494
-0.0249110 0.2219192 0.8734936
-0.0246298 0.2122730 0.8739320
-0.0247168 0.2223450 0.8734379
-0.0247222 0.2229744 0.8734070
-0.0247277 0.2236039 0.8733761
-0.0247331 0.2242333 0.8733453
-0.0244193 0.2108224 0.8739683
-0.0244247 0.2114508 0.8739374
-0.0242143 0.2100022 0.8739737
-0.0239877 0.2066743 0.8741021
-0.0239932 0.2073018 0.8740713
-0.0239986 0.2079292 0.8740405
-0.0240040 0.2085566 0.8740097
-0.0240094 0.2091831 0.8739790
-0.0237611 0.2033534 0.8742301
-0.0237665 0.2039798 0.8741994
-0.0237719 0.2046073 0.8741686
-0.0237773 0.2052337 0.8741379
-0.0237827 0.2058601 0.8741072
-0.0248354 0.2155701 0.8738014
-0.0248408 0.2162025 0.8737704
-0.0248463 0.2168349 0.8737394
-0.0248517 0.2174674 0.8737083
-0.0248572 0.2180998 0.8736773
-0.0248627 0.2187322 0.8736463
-0.0246310 0.2147429 0.8738073
-0.0246692 0.2191640 0.8735904
-0.0246747 0.2197954 0.8735594
-0.0244213 0.2132854 0.8738440
-0.0244267 0.2139158 0.8738131
-0.0244812 0.2202252 0.8735036
-0.0244867 0.2208566 0.8734726
-0.0244921 0.2214870 0.8734417
-0.0242985 0.2219138 0.8733860
-0.0240180 0.2122675 0.8738245
-0.0241050 0.2223396 0.8733304
-0.0241104 0.2229690 0.8732996
-0.0241159 0.2235984 0.8732687
-0.0241213 0.2242279 0.8732378
-0.0238083 0.2108170 0.8738610
-0.0238137 0.2114454 0.8738301
-0.0236040 0.2099968 0.8738665
-0.0233781 0.2066689 0.8739950
-0.0233835 0.2072963 0.8739642
-0.0233889 0.2079238 0.8739334
-0.0233943 0.2085512 0.8739027
-0.0233998 0.2091777 0.8738719
-0.0231522 0.2033480 0.8741232
-0.0231576 0.2039744 0.8740924
-0.0231630 0.2046018 0.8740617
-0.0231685 0.2052283 0.8740309
-0.0231739 0.2058547 0.8740002
-0.0242263 0.2161970 0.8736625
-0.0242318 0.2168295 0.8736314
-0.0242373 0.2174619 0.8736004
-0.0242427 0.2180943 0.8735694
-0.0242482 0.2187268 0.8735384
-0.0240172 0.2147375 0.8736995
-0.0240227 0.2153689 0.8736685
-0.0240554 0.2191585 0.8734826
-0.0240609 0.2197900 0.8734516
-0.0238681 0.2202197 0.8733959
-0.0236099 0.2130852 0.8737113
-0.0236154 0.2137157 0.8736804
-0.0236753 0.2206485 0.8733403
-0.0236807 0.2212779 0.8733094
-0.0234063 0.2122621 0.8737171
-0.0234879 0.2217047 0.8732539
-0.0234933 0.2223341 0.8732230
-0.0234988 0.2229636 0.8731921
-0.0235042 0.2235930 0.8731612
-0.0235096 0.2242224 0.8731304
-0.0229991 0.2106188 0.8737285
-0.0230045 0.2112473 0.8736977
-0.0227847 0.2085458 0.8737956
-0.0227901 0.2091723 0.8737648
-0.0227955 0.2097997 0.8737341
-0.0225433 0.2033425 0.8740162
-0.0225649 0.2058493 0.8738932
-0.0225703 0.2064758 0.8738625
-0.0225757 0.2071022 0.8738318
-0.0225811 0.2077287 0.8738011
-0.0223506 0.2037843 0.8739599
-0.0223560 0.2044107 0.8739292
-0.0223614 0.2050362 0.8738985
-0.0236117 0.2161916 0.8735545
-0.0236172 0.2168240 0.8735235
-0.0236227 0.2174564 0.8734925
-0.0236281 0.2180889 0.8734614
-0.0234089 0.2153635 0.8735607
-0.0234361 0.2185216 0.8734057
-0.0234416 0.2191531 0.8733748
-0.0234470 0.2197845 0.8733438
-0.0232059 0.2145364 0.8735668
-0.0232549 0.2202143 0.8732882
-0.0229975 0.2130798 0.8736037
-0.0230029 0.2137102 0.8735728
-0.0230628 0.2206430 0.8732327
-0.0230682 0.2212725 0.8732018
-0.0228762 0.2216993 0.8731464
-0.0228816 0.2223287 0.8731155
-0.0228871 0.2229581 0.8730847
-0.0225971 0.2120630 0.8735847
-0.0226949 0.2233809 0.8730294
-0.0227003 0.2240104 0.8729986
-0.0227058 0.2246388 0.8729677
-0.0223888 0.2106134 0.8736213
-0.0223942 0.2112419 0.8735905
-0.0221859 0.2097943 0.8736270
-0.0219344 0.2033371 0.8739093
-0.0219723 0.2077233 0.8736941
-0.0219777 0.2083507 0.8736633
-0.0219831 0.2089771 0.8736326
-0.0217424 0.2037789 0.8738531
-0.0217478 0.2044053 0.8738224
-0.0217532 0.2050308 0.8737917
-0.0217586 0.2056572 0.8737610
-0.0217640 0.2062827 0.8737303
-0.0217694 0.2069091 0.8736996
-0.0227950 0.2153580 0.8734529
-0.0228005 0.2159895 0.8734219
-0.0228059 0.2166209 0.8733909
-0.0228114 0.2172523 0.8733599
-0.0228169 0.2178848 0.8733289
-0.0228223 0.2185162 0.8732979
-0.0225927 0.2145309 0.8734591
-0.0226309 0.2189470 0.8732424
-0.0226364 0.2195784 0.8732115
-0.0223851 0.2130744 0.8734962
-0.0223906 0.2137048 0.8734652
-0.0224450 0.2200072 0.8731561
-0.0224505 0.2206376 0.8731251
-0.0224559 0.2212670 0.8730943
-0.0222644 0.2216938 0.8730390
-0.0222699 0.2223233 0.8730081
-0.0222753 0.2229527 0.8729772
-0.0219861 0.2120576 0.8734773
-0.0220839 0.2233755 0.8729221
-0.0220893 0.2240049 0.8728912
-0.0220948 0.2246334 0.8728604
-0.0217785 0.2106080 0.8735141
-0.0217839 0.2112364 0.8734832
-0.0215763 0.2097889 0.8735199
-0.0213254 0.2033317 0.8738023
-0.0213633 0.2077178 0.8735871
-0.0213687 0.2083453 0.8735564
-0.0213741 0.2089717 0.8735256
-0.0211342 0.2037735 0.8737463
-0.0211396 0.2043999 0.8737156
-0.0211450 0.2050254 0.8736849
-0.0211504 0.2056518 0.8736541
-0.0211558 0.2062773 0.8736235
-0.0211612 0.2069037 0.8735927
-0.0221812 0.2153526 0.8733450
-0.0221867 0.2159840 0.8733141
-0.0221921 0.2166154 0.8732831
-0.0221976 0.2172469 0.8732521
-0.0222031 0.2178793 0.8732211
-0.0222085 0.2185107 0.8731901
-0.0219796 0.2145255 0.8733514
-0.0220178 0.2189415 0.8731347
-0.0220232 0.2195729 0.8731038
-0.0218326 0.2200017 0.8730485
-0.0215766 0.2128752 0.8733639
-0.0215821 0.2135047 0.8733330
-0.0216419 0.2204295 0.8729933
-0.0216473 0.2210589 0.8729624
-0.0216528 0.2216884 0.8729315
-0.0213750 0.2120521 0.8733700
-0.0214620 0.2221132 0.8728764
-0.0214674 0.2227416 0.8728456
-0.0212767 0.2231644 0.8727906
-0.0212821 0.2237919 0.8727599
-0.0212875 0.2244203 0.8727290
-0.0209721 0.2104109 0.8733821
-0.0209775 0.2110383 0.8733513
-0.0207599 0.2083399 0.8734494
-0.0207653 0.2089663 0.8734187
-0.0207707 0.2095928 0.8733880
-0.0205421 0.2056464 0.8735473
-0.0205475 0.2062719 0.8735166
-0.0205529 0.2068983 0.8734859
-0.0205583 0.2075238 0.8734552
-0.0203299 0.2035834 0.8736143
-0.0203353 0.2042088 0.8735836
-0.0203407 0.2048343 0.8735529
-0.0215729 0.2159785 0.8732062
-0.0215783 0.2166100 0.8731753
-0.0215838 0.2172414 0.8731443
-0.0215892 0.2178738 0.8731133
-0.0215947 0.2185053 0.8730823
-0.0213720 0.2151505 0.8732128
-0.0214047 0.2189361 0.8730271
-0.0214102 0.2195675 0.8729961
-0.0211711 0.2143244 0.8732192
-0.0212201 0.2199963 0.8729409
-0.0209648 0.2128698 0.8732564
-0.0209703 0.2134993 0.8732255
-0.0210301 0.2204241 0.8728858
-0.0210355 0.2210535 0.8728549
-0.0208455 0.2214783 0.8728000
-0.0208510 0.2221077 0.8727691
-0.0208564 0.2227362 0.8727383
-0.0205687 0.2118540 0.8732380
-0.0206663 0.2231590 0.8726834
-0.0206718 0.2237864 0.8726527
-0.0206772 0.2244149 0.8726218
-0.0203625 0.2104055 0.8732750
-0.0203679 0.2110329 0.8732442
-0.0201617 0.2095874 0.8732810
-0.0199556 0.2081438 0.8733177
-0.0199610 0.2087702 0.8732870
-0.0197224 0.2035780 0.8735076
-0.0197278 0.2042034 0.8734769
-0.0197332 0.2048289 0.8734462
-0.0197386 0.2054543 0.8734155
-0.0197440 0.2060788 0.8733849
-0.0197494 0.2067042 0.8733542
-0.0197548 0.2073297 0.8733235
-0.0209591 0.2159731 0.8730984
-0.0209645 0.2166045 0.8730675
-0.0207589 0.2151450 0.8731051
-0.0207752 0.2170383 0.8730122
-0.0207807 0.2176687 0.8729813
-0.0207861 0.2183002 0.8729503
-0.0207916 0.2189306 0.8729194
-0.0207970 0.2195620 0.8728884
-0.0205587 0.2143189 0.8731116
-0.0204130 0.2197892 0.8728093
-0.0204184 0.2204186 0.8727784
-0.0204239 0.2210481 0.8727475
-0.0201585 0.2126707 0.8731245
-0.0201639 0.2132992 0.8730936
-0.0202345 0.2214729 0.8726927
-0.0199584 0.2118486 0.8731308
-0.0200452 0.2218967 0.8726379
-0.0200506 0.2225251 0.8726071
-0.0197528 0.2104001 0.8731679
-0.0197583 0.2110275 0.8731371
-0.0198612 0.2229469 0.8725524
-0.0198666 0.2235744 0.8725216
-0.0198721 0.2242018 0.8724908
-0.0195528 0.2095820 0.8731740
-0.0193474 0.2081384 0.8732109
-0.0193528 0.2087648 0.8731801
-0.0191149 0.2035726 0.8734009
-0.0191203 0.2041980 0.8733702
-0.0191257 0.2048235 0.8733395
-0.0191311 0.2054489 0.8733088
-0.0191365 0.2060734 0.8732782
-0.0191419 0.2066988 0.8732475
-0.0191473 0.2073243 0.8732168
-0.0203452 0.2159676 0.8729906
-0.0203507 0.2165991 0.8729596
-0.0201458 0.2151396 0.8729974
-0.0201621 0.2170329 0.8729045
-0.0201676 0.2176633 0.8728736
-0.0201730 0.2182947 0.8728426
-0.0201785 0.2189252 0.8728117
-0.0201839 0.2195566 0.8727807
-0.0199463 0.2143135 0.8730040
-0.0198013 0.2197838 0.8727018
-0.0198067 0.2204132 0.8726709
-0.0198122 0.2210426 0.8726401
-0.0195475 0.2126653 0.8730172
-0.0195529 0.2132937 0.8729863
-0.0196235 0.2214675 0.8725854
-0.0193480 0.2118432 0.8730236
-0.0194348 0.2218913 0.8725307
-0.0194403 0.2225197 0.8724999
-0.0191433 0.2103947 0.8730608
-0.0191487 0.2110221 0.8730300
-0.0192517 0.2229415 0.8724453
-0.0192571 0.2235690 0.8724145
-0.0192625 0.2241964 0.8723838
-0.0187391 0.2081330 0.8731040
-0.0187445 0.2087594 0.8730733
-0.0187499 0.2093849 0.8730426
-0.0185398 0.2073189 0.8731101
-0.0183135 0.2033825 0.8732693
-0.0183189 0.2040070 0.8732387
-0.0183243 0.2046314 0.8732081
-0.0183297 0.2052559 0.8731774
-0.0183351 0.2058803 0.8731468
-0.0183405 0.2065048 0.8731162
-0.0195381 0.2157655 0.8728587
-0.0195435 0.2163960 0.8728278
-0.0195490 0.2170274 0.8727968
-0.0195544 0.2176579 0.8727659
-0.0193394 0.2149385 0.8728655
-0.0193666 0.2180897 0.8727110
-0.0193720 0.2187191 0.8726801
-0.0193775 0.2193495 0.8726492
-0.0191406 0.2141124 0.8728723
-0.0191895 0.2197783 0.8725944
-0.0189365 0.2126599 0.8729098
-0.0189419 0.2132883 0.8728790
-0.0190017 0.2202051 0.8725397
-0.0190071 0.2208336 0.8725089
-0.0188191 0.2212584 0.8724543
-0.0185445 0.2116441 0.8728922
-0.0186312 0.2216812 0.8723998
-0.0186366 0.2223087 0.8723690
-0.0186420 0.2229361 0.8723382
-0.0186475 0.2235636 0.8723075
-0.0186529 0.2241910 0.8722767
-0.0186583 0.2248184 0.8722459
-0.0183403 0.2101976 0.8729294
-0.0183458 0.2108240 0.8728987
-0.0181417 0.2093795 0.8729358
-0.0179322 0.2073135 0.8730034
-0.0179376 0.2079379 0.8729728
-0.0179430 0.2085634 0.8729421
-0.0177067 0.2033771 0.8731628
-0.0177120 0.2040016 0.8731321
-0.0177174 0.2046260 0.8731015
-0.0177228 0.2052505 0.8730709
-0.0177282 0.2058749 0.8730402
-0.0177336 0.2064994 0.8730096
-0.0187324 0.2155625 0.8727271
-0.0187378 0.2161929 0.8726962
-0.0187432 0.2168233 0.8726652
-0.0187487 0.2174538 0.8726343
-0.0187541 0.2180842 0.8726034
-0.0185343 0.2147364 0.8727340
-0.0185670 0.2185130 0.8725487
-0.0185724 0.2191435 0.8725178
-0.0183363 0.2139113 0.8727409
-0.0183852 0.2195703 0.8724633
-0.0183907 0.2201997 0.8724324
-0.0183961 0.2208282 0.8724015
-0.0181328 0.2124598 0.8727784
-0.0181382 0.2130882 0.8727476
-0.0182088 0.2212530 0.8723471
-0.0179348 0.2116387 0.8727851
-0.0180216 0.2216758 0.8722927
-0.0180270 0.2223032 0.8722619
-0.0180432 0.2241856 0.8721696
-0.0180487 0.2248130 0.8721388
-0.0177315 0.2101922 0.8728224
-0.0177369 0.2108186 0.8727917
-0.0178397 0.2227241 0.8722077
-0.0178451 0.2233505 0.8721770
-0.0175335 0.2093741 0.8728290
-0.0173139 0.2060572 0.8729580
-0.0173193 0.2066826 0.8729274
-0.0173247 0.2073081 0.8728967
-0.0173301 0.2079325 0.8728660
-0.0173355 0.2085580 0.8728354
-0.0170998 0.2033717 0.8730562
-0.0171052 0.2039962 0.8730255
-0.0171106 0.2046206 0.8729949
-0.0171160 0.2052451 0.8729643
-0.0181199 0.2155570 0.8726195
-0.0181253 0.2161875 0.8725886
-0.0181308 0.2168179 0.8725577
-0.0181362 0.2174483 0.8725267
-0.0181417 0.2180788 0.8724958
-0.0179226 0.2147310 0.8726265
-0.0179552 0.2185076 0.8724413
-0.0179606 0.2191380 0.8724103
-0.0177252 0.2139059 0.8726335
-0.0177741 0.2195648 0.8723559
-0.0177796 0.2201943 0.8723250
-0.0177850 0.2208227 0.8722942
-0.0175225 0.2124544 0.8726712
-0.0175279 0.2130828 0.8726404
-0.0175985 0.2212476 0.8722399
-0.0173252 0.2116333 0.8726780
-0.0174119 0.2216704 0.8721856
-0.0174173 0.2222978 0.8721549
-0.0174336 0.2241802 0.8720625
-0.0174390 0.2248076 0.8720317
-0.0171225 0.2101868 0.8727155
-0.0171279 0.2108132 0.8726847
-0.0172308 0.2227187 0.8721007
-0.0172362 0.2233451 0.8720700
-0.0169252 0.2093687 0.8727221
-0.0167172 0.2073027 0.8727900
-0.0167226 0.2079271 0.8727593
-0.0167280 0.2085526 0.8727287
-0.0164930 0.2033663 0.8729496
-0.0164984 0.2039908 0.8729189
-0.0165038 0.2046152 0.8728883
-0.0165092 0.2052397 0.8728577
-0.0165146 0.2058641 0.8728270
-0.0165200 0.2064886 0.8727964
-0.0173109 0.2147255 0.8725191
-0.0173163 0.2153550 0.8724882
-0.0173218 0.2159844 0.8724573
-0.0173272 0.2166138 0.8724265
-0.0173326 0.2172433 0.8723956
-0.0173381 0.2178727 0.8723647
-0.0173435 0.2185022 0.8723338
-0.0173490 0.2191326 0.8723029
-0.0171631 0.2195594 0.8722486
-0.0169122 0.2124489 0.8725640
-0.0169176 0.2130774 0.8725332
-0.0169230 0.2137048 0.8725024
-0.0169773 0.2199862 0.8721943
-0.0169827 0.2206137 0.8721635
-0.0167157 0.2116279 0.8725709
-0.0167969 0.2210375 0.8721094
-0.0168024 0.2216650 0.8720786
-0.0168078 0.2222924 0.8720478
-0.0165136 0.2101814 0.8726085
-0.0165191 0.2108078 0.8725778
-0.0166219 0.2227133 0.8719938
-0.0166273 0.2233397 0.8719630
-0.0166327 0.2239672 0.8719323
-0.0166381 0.2245936 0.8719015
-0.0163171 0.2093633 0.8726153
-0.0161097 0.2072973 0.8726833
-0.0161151 0.2079217 0.8726526
-0.0161205 0.2085472 0.8726220
-0.0158862 0.2033609 0.8728430
-0.0158916 0.2039854 0.8728124
-0.0158970 0.2046098 0.8727817
-0.0159023 0.2052343 0.8727511
-0.0159077 0.2058587 0.8727205
-0.0159131 0.2064832 0.8726898
-0.0167155 0.2166084 0.8723190
-0.0167209 0.2172378 0.8722881
-0.0167264 0.2178673 0.8722573
-0.0165087 0.2145245 0.8723880
-0.0165141 0.2151529 0.8723572
-0.0165195 0.2157814 0.8723263
-0.0165413 0.2182971 0.8722029
-0.0165467 0.2189256 0.8721721
-0.0165521 0.2195540 0.8721413
-0.0163127 0.2136994 0.8723952
-0.0163670 0.2199808 0.8720871
-0.0163724 0.2206083 0.8720563
-0.0161060 0.2116225 0.8724639
-0.0161114 0.2122499 0.8724331
-0.0161169 0.2128773 0.8724023
-0.0161873 0.2210321 0.8720023
-0.0159047 0.2101759 0.8725016
