0.0040452 0.2161376 0.8770852
0.0040247 0.2167646 0.8770391
0.0033168 0.2158543 0.8774341
0.0029835 0.2147697 0.8776779
0.0029629 0.2153976 0.8776317
0.0026297 0.2143101 0.8778757
0.0022965 0.2132205 0.8781199
0.0022759 0.2138504 0.8780736
0.0019428 0.2127579 0.8783179
0.0016305 0.2110305 0.8786090
0.0016098 0.2116624 0.8785625
0.0015892 0.2122933 0.8785162
0.0013596 0.2080363 0.8789931
0.0013389 0.2086682 0.8789467
0.0013182 0.2093001 0.8789002
0.0012976 0.2099320 0.8788538
0.0012769 0.2105639 0.8788073
0.0045922 0.2154912 0.8768987
0.0038856 0.2145789 0.8772934
0.0038650 0.2152068 0.8772472
0.0035324 0.2141202 0.8774909
0.0028260 0.2131999 0.8778861
0.0028054 0.2138299 0.8778398
0.0024729 0.2127373 0.8780839
0.0021612 0.2110099 0.8783747
0.0021406 0.2116418 0.8783282
0.0021199 0.2122727 0.8782819
0.0018909 0.2080156 0.8787585
0.0018702 0.2086475 0.8787121
0.0018496 0.2092794 0.8786657
0.0018289 0.2099114 0.8786192
0.0018083 0.2105433 0.8785728
0.0047865 0.2143881 0.8769094
0.0047660 0.2150150 0.8768633
0.0040607 0.2140997 0.8772577
0.0037287 0.2130111 0.8775012
0.0037081 0.2136400 0.8774550
0.0030031 0.2127167 0.8778499
0.0026713 0.2116212 0.8780940
0.0026507 0.2122521 0.8780476
0.0024222 0.2079950 0.8785240
0.0024016 0.2086269 0.8784776
0.0023809 0.2092588 0.8784311
0.0023603 0.2098907 0.8783847
0.0023396 0.2105226 0.8783382
0.0023189 0.2111545 0.8782918
0.0053136 0.2143676 0.8766767
0.0052931 0.2149946 0.8766306
0.0045890 0.2140792 0.8770244
0.0042576 0.2129905 0.8772677
0.0042370 0.2136195 0.8772215
0.0035332 0.2126961 0.8776159
0.0032020 0.2116005 0.8778597
0.0031814 0.2122314 0.8778133
0.0028503 0.2111339 0.8780572
0.0025813 0.2081356 0.8784409
0.0025606 0.2087685 0.8783943
0.0025399 0.2094004 0.8783479
0.0025193 0.2100333 0.8783014
0.0024986 0.2106662 0.8782549
0.0062127 0.2141769 0.8762935
0.0061922 0.2148039 0.8762475
0.0054893 0.2138894 0.8766407
0.0047865 0.2129700 0.8770342
0.0047660 0.2135989 0.8769880
0.0040634 0.2126755 0.8773819
0.0037328 0.2115799 0.8776254
0.0037121 0.2122108 0.8775790
0.0034849 0.2079537 0.8780549
0.0034643 0.2085856 0.8780085
0.0033816 0.2111132 0.8778227
0.0030719 0.2093798 0.8781131
0.0030512 0.2100127 0.8780666
0.0030305 0.2106456 0.8780200
0.0067392 0.2141565 0.8760611
0.0067187 0.2147834 0.8760150
0.0060170 0.2138689 0.8764077
0.0053155 0.2129494 0.8768007
0.0052949 0.2135783 0.8767545
0.0049648 0.2124877 0.8769974
0.0042635 0.2115593 0.8773911
0.0042429 0.2121902 0.8773447
0.0040163 0.2079330 0.8778203
0.0039956 0.2085649 0.8777739
0.0039130 0.2110926 0.8775881
0.0036038 0.2093591 0.8778783
0.0035831 0.2099920 0.8778317
0.0035625 0.2106249 0.8777852
0.0072657 0.2141360 0.8758287
0.0072452 0.2147629 0.8757826
0.0065447 0.2138484 0.8761748
0.0058444 0.2129289 0.8765673
0.0058238 0.2135578 0.8765210
0.0054943 0.2124671 0.8767637
0.0047942 0.2115386 0.8771568
0.0047736 0.2121696 0.8771104
0.0044443 0.2110719 0.8773536
0.0041771 0.2080736 0.8777364
0.0041564 0.2087065 0.8776899
0.0041358 0.2093384 0.8776434
0.0041151 0.2099713 0.8775969
0.0040944 0.2106042 0.8775504
0.0077923 0.2141155 0.8755963
0.0077718 0.2147425 0.8755502
0.0074426 0.2136587 0.8757920
0.0063733 0.2129083 0.8763338
0.0063528 0.2135372 0.8762875
0.0060238 0.2124465 0.8765299
0.0053250 0.2115180 0.8769225
0.0053044 0.2121489 0.8768762
0.0049757 0.2110513 0.8771190
0.0047298 0.2074200 0.8775481
0.0047091 0.2080529 0.8775016
0.0046884 0.2086858 0.8774551
0.0046677 0.2093177 0.8774086
0.0046470 0.2099506 0.8773621
0.0046263 0.2105835 0.8773156
0.0079697 0.2136382 0.8755593
0.0072718 0.2127196 0.8759507
0.0072512 0.2133486 0.8759045
0.0065534 0.2124260 0.8762961
0.0058557 0.2114974 0.8766882
0.0058351 0.2121283 0.8766419
0.0055070 0.2110306 0.8768845
0.0052617 0.2073993 0.8773133
0.0052410 0.2080322 0.8772668
0.0052203 0.2086652 0.8772202
0.0051997 0.2092971 0.8771738
0.0051790 0.2099300 0.8771273
0.0051583 0.2105629 0.8770808
0.0084968 0.2136178 0.8753267
0.0078001 0.2126991 0.8757175
0.0077795 0.2133280 0.8756713
0.0074518 0.2122383 0.8759130
0.0067553 0.2113107 0.8763045
0.0067347 0.2119416 0.8762581
0.0060383 0.2110100 0.8766499
0.0057937 0.2073787 0.8770785
0.0057730 0.2080116 0.8770319
0.0057523 0.2086445 0.8769854
0.0057316 0.2092764 0.8769390
0.0057109 0.2099093 0.8768925
0.0056902 0.2105422 0.8768460
0.0093923 0.2134282 0.8749450
0.0083284 0.2126786 0.8754843
0.0083079 0.2133075 0.8754380
0.0079807 0.2122177 0.8756795
0.0072854 0.2112900 0.8760705
0.0072648 0.2119210 0.8760241
0.0065697 0.2109893 0.8764154
0.0063256 0.2073580 0.8768436
0.0063049 0.2079909 0.8767971
0.0062842 0.2086238 0.8767506
0.0062636 0.2092557 0.8767042
0.0062429 0.2098886 0.8766577
0.0062222 0.2105215 0.8766111
0.0099188 0.2134077 0.8747126
0.0092244 0.2124910 0.8751022
0.0092039 0.2131179 0.8750561
0.0085096 0.2121972 0.8754460
0.0078156 0.2112694 0.8758365
0.0077949 0.2119004 0.8757901
0.0074686 0.2108036 0.8760318
0.0071423 0.2097049 0.8762737
0.0071217 0.2103368 0.8762273
0.0068576 0.2073373 0.8766088
0.0068369 0.2079702 0.8765623
0.0068162 0.2086031 0.8765158
0.0067955 0.2092350 0.8764694
0.0104453 0.2133873 0.8744802
0.0101192 0.2123024 0.8747208
0.0100987 0.2129294 0.8746747
0.0094056 0.2120096 0.8750640
0.0087127 0.2110838 0.8754537
0.0086921 0.2117137 0.8754074
0.0079994 0.2107830 0.8757975
0.0077357 0.2077885 0.8761785
0.0077150 0.2084204 0.8761320
0.0076943 0.2090523 0.8760856
0.0076737 0.2096842 0.8760391
0.0076530 0.2103161 0.8759927
0.0106464 0.2122819 0.8744880
0.0106259 0.2129089 0.8744420
0.0099339 0.2119890 0.8748308
0.0092422 0.2110632 0.8752200
0.0092216 0.2116931 0.8751737
0.0085301 0.2107624 0.8755632
0.0082670 0.2077678 0.8759439
0.0082464 0.2083997 0.8758975
0.0082257 0.2090316 0.8758510
0.0082050 0.2096636 0.8758046
0.0081844 0.2102955 0.8757581
0.0111734 0.2122614 0.8742554
0.0111529 0.2128884 0.8742093
0.0104622 0.2119685 0.8745975
0.0101376 0.2108766 0.8748381
0.0101170 0.2115066 0.8747918
0.0097923 0.2104127 0.8750325
0.0091227 0.2088480 0.8754682
0.0091021 0.2094799 0.8754217
0.0090814 0.2101108 0.8753753
0.0087984 0.2077472 0.8757094
0.0087777 0.2083791 0.8756629
0.0120659 0.2120730 0.8738749
0.0120454 0.2126999 0.8738289
0.0113558 0.2117810 0.8742165
0.0106665 0.2108561 0.8746046
0.0106459 0.2114860 0.8745583
0.0103219 0.2103921 0.8747988
0.0099980 0.2092953 0.8750394
0.0099773 0.2099262 0.8749931
0.0096741 0.2081964 0.8752802
0.0096535 0.2088274 0.8752339
0.0093296 0.2077265 0.8754748
0.0125924 0.2120525 0.8736425
0.0125719 0.2126795 0.8735965
0.0118836 0.2117605 0.8739836
0.0111955 0.2108355 0.8743711
0.0111749 0.2114654 0.8743248
0.0108515 0.2103715 0.8745650
0.0105281 0.2092747 0.8748054
0.0105075 0.2099056 0.8747590
0.0102048 0.2081758 0.8750460
0.0101842 0.2088067 0.8749996
0.0098610 0.2077059 0.8752403
0.0131189 0.2120321 0.8734101
0.0130984 0.2126590 0.8733640
0.0124113 0.2117400 0.8737506
0.0120884 0.2106500 0.8739902
0.0120678 0.2112780 0.8739441
0.0117450 0.2101860 0.8741838
0.0114222 0.2090911 0.8744238
0.0114016 0.2097210 0.8743775
0.0110995 0.2079932 0.8746640
0.0110788 0.2086241 0.8746177
0.0107562 0.2075243 0.8748580
0.0136454 0.2120116 0.8731777
0.0136249 0.2126385 0.8731316
0.0133025 0.2115526 0.8733707
0.0129801 0.2104636 0.8736100
0.0129595 0.2110915 0.8735638
0.0122739 0.2101655 0.8739503
0.0119929 0.2078107 0.8742827
0.0119723 0.2084406 0.8742364
0.0119517 0.2090705 0.8741901
0.0119311 0.2097005 0.8741438
0.0116502 0.2073417 0.8744764
0.0141720 0.2119911 0.8729452
0.0141515 0.2126181 0.8728992
0.0138296 0.2115321 0.8731380
0.0135078 0.2104431 0.8733770
0.0134873 0.2110710 0.8733308
0.0128028 0.2101449 0.8737169
0.0125224 0.2077901 0.8740489
0.0125018 0.2084200 0.8740026
0.0124812 0.2090500 0.8739563
0.0124606 0.2096799 0.8739100
0.0121804 0.2073211 0.8742424
0.0143567 0.2115116 0.8729053
0.0140355 0.2104226 0.8731440
0.0140150 0.2110505 0.8730979
0.0136939 0.2099595 0.8733368
0.0133935 0.2082366 0.8736221
0.0133729 0.2088665 0.8735758
0.0133523 0.2094954 0.8735296
0.0130519 0.2077695 0.8738152
0.0152455 0.2113243 0.8725264
0.0149248 0.2102372 0.8727647
0.0149043 0.2108642 0.8727187
0.0145838 0.2097751 0.8729572
0.0142428 0.2093110 0.8731497
0.0139430 0.2075871 0.8734348
0.0139224 0.2082160 0.8733886
0.0139018 0.2088459 0.8733423
0.0157720 0.2113038 0.8722940
0.0154519 0.2102167 0.8725321
0.0154314 0.2108437 0.8724860
0.0151114 0.2097546 0.8727242
0.0147711 0.2092905 0.8729165
0.0144719 0.2075665 0.8732014
0.0144513 0.2081955 0.8731551
0.0144307 0.2088254 0.8731088
0.0162985 0.2112833 0.8720616
0.0159791 0.2101962 0.8722994
0.0159586 0.2108232 0.8722533
0.0156597 0.2091062 0.8725374
0.0156392 0.2097341 0.8724912
0.0153405 0.2080131 0.8727757
0.0153199 0.2086410 0.8727295
0.0150008 0.2075460 0.8729679
0.0168660 0.2100100 0.8719212
0.0168455 0.2106369 0.8718751
0.0165472 0.2089219 0.8721588
0.0165267 0.2095488 0.8721128
0.0162286 0.2078298 0.8723967
0.0162080 0.2084577 0.8723506
0.0158894 0.2073636 0.8725886
0.0173925 0.2099895 0.8716888
0.0173720 0.2106165 0.8716427
0.0170743 0.2089014 0.8719262
0.0170538 0.2095283 0.8718801
0.0167562 0.2078093 0.8721638
0.0167357 0.2084372 0.8721176
0.0164177 0.2073431 0.8723554
0.0179395 0.2093431 0.8715024
0.0176425 0.2076270 0.8717856
0.0176220 0.2082539 0.8717395
0.0176015 0.2088809 0.8716934
0.0185070 0.2080698 0.8713620
0.0184865 0.2086967 0.8713160
0.0190335 0.2080493 0.8711296
0.0190130 0.2086762 0.8710835
0.0195600 0.2080288 0.8708972
-0.0170031 0.2221669 0.8859178
-0.0170238 0.2227998 0.8858713
-0.0170652 0.2240656 0.8857782
-0.0170858 0.2246975 0.8857318
-0.0171065 0.2253304 0.8856853
-0.0171272 0.2259633 0.8856388
-0.0164712 0.2221462 0.8856830
-0.0164919 0.2227791 0.8856365
-0.0165332 0.2240449 0.8855434
-0.0165539 0.2246768 0.8854970
-0.0165746 0.2253097 0.8854505
-0.0165953 0.2259426 0.8854039
-0.0158978 0.2208597 0.8855412
-0.0159185 0.2214926 0.8854947
-0.0159392 0.2221255 0.8854482
-0.0159599 0.2227584 0.8854016
-0.0159806 0.2233913 0.8853551
-0.0160013 0.2240242 0.8853086
-0.0160220 0.2246562 0.8852622
-0.0160427 0.2252891 0.8852156
-0.0160633 0.2259220 0.8851691
-0.0160840 0.2265549 0.8851226
-0.0153452 0.2202071 0.8853528
-0.0153659 0.2208391 0.8853064
-0.0153866 0.2214720 0.8852599
-0.0154073 0.2221049 0.8852133
-0.0154280 0.2227378 0.8851668
-0.0154487 0.2233707 0.8851203
-0.0154694 0.2240036 0.8850738
-0.0154900 0.2246355 0.8850273
-0.0155107 0.2252684 0.8849808
-0.0155314 0.2259013 0.8849343
-0.0155521 0.2265342 0.8848878
-0.0148133 0.2201865 0.8851180
-0.0148340 0.2208184 0.8850715
-0.0148547 0.2214513 0.8850250
-0.0148753 0.2220842 0.8849785
-0.0148960 0.2227171 0.8849320
-0.0149167 0.2233500 0.8848855
-0.0149374 0.2239829 0.8848390
-0.0149581 0.2246148 0.8847925
-0.0149788 0.2252477 0.8847460
-0.0149995 0.2258806 0.8846995
-0.0150202 0.2265135 0.8846530
-0.0142814 0.2201658 0.8848832
-0.0143020 0.2207977 0.8848367
-0.0143227 0.2214306 0.8847902
-0.0143434 0.2220635 0.8847437
-0.0143641 0.2226964 0.8846972
-0.0143848 0.2233293 0.8846507
-0.0144055 0.2239622 0.8846042
-0.0144261 0.2245941 0.8845577
-0.0144468 0.2252270 0.8845112
-0.0144675 0.2258599 0.8844647
-0.0144882 0.2264929 0.8844182
-0.0137080 0.2188793 0.8847414
-0.0137287 0.2195122 0.8846949
-0.0137494 0.2201451 0.8846484
-0.0137701 0.2207770 0.8846019
-0.0137908 0.2214099 0.8845554
-0.0138115 0.2220428 0.8845089
-0.0138322 0.2226757 0.8844624
-0.0138528 0.2233087 0.8844159
-0.0138735 0.2239416 0.8843693
-0.0138942 0.2245735 0.8843229
-0.0139149 0.2252064 0.8842764
-0.0139356 0.2258393 0.8842299
-0.0139563 0.2264722 0.8841834
-0.0131761 0.2188586 0.8845066
-0.0131968 0.2194915 0.8844601
-0.0132175 0.2201244 0.8844135
-0.0132381 0.2207564 0.8843671
-0.0132588 0.2213893 0.8843206
-0.0132795 0.2220222 0.8842741
-0.0133002 0.2226551 0.8842276
-0.0133209 0.2232880 0.8841810
-0.0133416 0.2239209 0.8841345
-0.0134243 0.2264515 0.8839485
-0.0129719 0.2243729 0.8839303
-0.0129926 0.2250049 0.8838838
-0.0130132 0.2256368 0.8838374
-0.0126442 0.2188380 0.8842718
-0.0126648 0.2194709 0.8842252
-0.0126855 0.2201038 0.8841787
-0.0127062 0.2207357 0.8841323
-0.0127269 0.2213686 0.8840858
-0.0127476 0.2220015 0.8840393
-0.0127683 0.2226344 0.8839927
-0.0127890 0.2232673 0.8839462
-0.0128097 0.2239002 0.8838997
-0.0128924 0.2264308 0.8837137
-0.0124406 0.2243523 0.8836957
-0.0124612 0.2249842 0.8836493
-0.0124819 0.2256161 0.8836028
-0.0121122 0.2188173 0.8840369
-0.0121329 0.2194502 0.8839904
-0.0121536 0.2200831 0.8839439
-0.0121743 0.2207150 0.8838975
-0.0121949 0.2213479 0.8838510
-0.0122156 0.2219808 0.8838044
-0.0122363 0.2226137 0.8837579
-0.0122570 0.2232466 0.8837114
-0.0122777 0.2238795 0.8836649
-0.0123605 0.2264102 0.8834789
-0.0119092 0.2243316 0.8834611
-0.0119299 0.2249635 0.8834147
-0.0119505 0.2255955 0.8833683
-0.0115802 0.2187966 0.8838021
-0.0116009 0.2194295 0.8837556
-0.0116216 0.2200624 0.8837091
-0.0116422 0.2206943 0.8836626
-0.0116629 0.2213272 0.8836161
-0.0116836 0.2219601 0.8835696
-0.0117043 0.2225931 0.8835231
-0.0117250 0.2232260 0.8834766
-0.0117457 0.2238589 0.8834300
-0.0113778 0.2243110 0.8832266
-0.0113985 0.2249429 0.8831801
-0.0114192 0.2255748 0.8831337
-0.0114398 0.2262067 0.8830873
-0.0110482 0.2187759 0.8835673
-0.0110689 0.2194088 0.8835208
-0.0110896 0.2200418 0.8834742
-0.0111103 0.2206737 0.8834278
-0.0111310 0.2213066 0.8833813
-0.0111517 0.2219395 0.8833348
-0.0111724 0.2225724 0.8832883
-0.0111931 0.2232053 0.8832417
-0.0112138 0.2238382 0.8831952
-0.0108465 0.2242903 0.8829920
-0.0108671 0.2249222 0.8829456
-0.0108878 0.2255542 0.8828991
-0.0109085 0.2261861 0.8828527
-0.0105163 0.2187553 0.8833325
-0.0105370 0.2193882 0.8832859
-0.0105577 0.2200211 0.8832394
-0.0105784 0.2206530 0.8831930
-0.0105990 0.2212859 0.8831465
-0.0106197 0.2219188 0.8830999
-0.0106404 0.2225517 0.8830534
-0.0106611 0.2231846 0.8830069
-0.0102946 0.2236378 0.8828040
-0.0103152 0.2242697 0.8827575
-0.0103359 0.2249016 0.8827111
-0.0103565 0.2255335 0.8826646
-0.0103772 0.2261654 0.8826182
-0.0099844 0.2187346 0.8830976
-0.0100051 0.2193675 0.8830511
-0.0100258 0.2200004 0.8830046
-0.0100464 0.2206323 0.8829582
-0.0100671 0.2212652 0.8829116
-0.0100878 0.2218981 0.8828651
-0.0097219 0.2223533 0.8826623
-0.0097425 0.2229852 0.8826158
-0.0097632 0.2236171 0.8825694
-0.0097839 0.2242490 0.8825230
-0.0098045 0.2248810 0.8824765
-0.0098252 0.2255129 0.8824301
-0.0098458 0.2261448 0.8823836
-0.0094525 0.2187139 0.8828628
-0.0094731 0.2193468 0.8828163
-0.0094938 0.2199797 0.8827698
-0.0095145 0.2206116 0.8827234
-0.0095352 0.2212445 0.8826768
-0.0095559 0.2218775 0.8826303
-0.0091905 0.2223327 0.8824277
-0.0092112 0.2229646 0.8823813
-0.0092318 0.2235965 0.8823348
-0.0092525 0.2242284 0.8822884
-0.0092732 0.2248603 0.8822419
-0.0092938 0.2254922 0.8821955
-0.0093145 0.2261241 0.8821491
-0.0088998 0.2180603 0.8826745
-0.0089205 0.2186933 0.8826280
-0.0089412 0.2193262 0.8825815
-0.0089619 0.2199591 0.8825350
-0.0089826 0.2205910 0.8824885
-0.0090032 0.2212239 0.8824420
-0.0090239 0.2218568 0.8823955
-0.0086592 0.2223120 0.8821932
-0.0086798 0.2229439 0.8821467
-0.0087005 0.2235758 0.8821003
-0.0087212 0.2242077 0.8820538
-0.0087418 0.2248397 0.8820074
-0.0087625 0.2254716 0.8819610
-0.0087831 0.2261035 0.8819145
-0.0083472 0.2174068 0.8824862
-0.0083679 0.2180397 0.8824397
-0.0083886 0.2186726 0.8823932
-0.0084093 0.2193055 0.8823467
-0.0084299 0.2199384 0.8823002
-0.0084506 0.2205703 0.8822537
-0.0084713 0.2212032 0.8822072
-0.0081072 0.2216594 0.8820051
-0.0081278 0.2222914 0.8819586
-0.0081485 0.2229233 0.8819122
-0.0081692 0.2235552 0.8818657
-0.0081898 0.2241871 0.8818193
-0.0082105 0.2248190 0.8817728
-0.0082311 0.2254509 0.8817264
-0.0082518 0.2260828 0.8816800
-0.0078152 0.2173861 0.8822514
-0.0078359 0.2180190 0.8822049
-0.0078566 0.2186519 0.8821584
-0.0078773 0.2192848 0.8821119
-0.0078980 0.2199177 0.8820653
-0.0079187 0.2205496 0.8820189
-0.0079394 0.2211825 0.8819724
-0.0075758 0.2216388 0.8817705
-0.0075965 0.2222707 0.8817241
-0.0076172 0.2229026 0.8816776
-0.0076378 0.2235345 0.8816312
-0.0076585 0.2241664 0.8815847
-0.0076791 0.2247984 0.8815383
-0.0076998 0.2254303 0.8814918
-0.0077205 0.2260622 0.8814454
-0.0072833 0.2173654 0.8820166
-0.0073040 0.2179983 0.8819701
-0.0069412 0.2184576 0.8817682
-0.0069618 0.2190895 0.8817218
-0.0069825 0.2197214 0.8816754
-0.0070032 0.2203543 0.8816288
-0.0070238 0.2209862 0.8815824
-0.0070445 0.2216181 0.8815360
-0.0070652 0.2222501 0.8814895
-0.0070858 0.2228820 0.8814431
-0.0071065 0.2235139 0.8813966
-0.0067434 0.2239662 0.8811953
-0.0067641 0.2245971 0.8811489
-0.0067847 0.2252290 0.8811025
-0.0068053 0.2258599 0.8810561
-0.0068260 0.2264909 0.8810098
-0.0067513 0.2173447 0.8817818
-0.0063892 0.2178050 0.8815801
-0.0064098 0.2184369 0.8815337
-0.0064305 0.2190689 0.8814872
-0.0064511 0.2197008 0.8814408
-0.0060889 0.2201581 0.8812394
-0.0061095 0.2207890 0.8811930
-0.0061301 0.2214199 0.8811466
-0.0061508 0.2220518 0.8811002
-0.0061714 0.2226827 0.8810538
-0.0061921 0.2233146 0.8810074
-0.0062127 0.2239456 0.8809610
-0.0062333 0.2245765 0.8809146
-0.0062540 0.2252084 0.8808682
-0.0062746 0.2258393 0.8808218
-0.0062952 0.2264702 0.8807755
-0.0062194 0.2173241 0.8815470
-0.0058578 0.2177844 0.8813456
-0.0058785 0.2184163 0.8812991
-0.0058991 0.2190482 0.8812527
-0.0059198 0.2196801 0.8812062
-0.0055581 0.2201374 0.8810051
-0.0055787 0.2207684 0.8809587
-0.0055994 0.2213993 0.8809123
-0.0056200 0.2220312 0.8808659
-0.0056407 0.2226621 0.8808195
-0.0056613 0.2232940 0.8807731
-0.0056819 0.2239249 0.8807267
-0.0057026 0.2245559 0.8806804
-0.0057232 0.2251878 0.8806339
-0.0057439 0.2258187 0.8805875
-0.0057645 0.2264496 0.8805412
-0.0053058 0.2171318 0.8811575
-0.0053265 0.2177637 0.8811110
-0.0053471 0.2183956 0.8810646
-0.0053678 0.2190276 0.8810181
-0.0050067 0.2194849 0.8808172
-0.0050274 0.2201168 0.8807708
-0.0050480 0.2207477 0.8807244
-0.0050686 0.2213787 0.8806781
-0.0050893 0.2220106 0.8806316
-0.0051099 0.2226415 0.8805853
-0.0047487 0.2230939 0.8803847
-0.0047693 0.2237248 0.8803384
-0.0047899 0.2243547 0.8802921
-0.0048105 0.2249856 0.8802457
-0.0048312 0.2256165 0.8801993
-0.0048518 0.2262465 0.8801530
-0.0044141 0.2175705 0.8807221
-0.0044347 0.2182024 0.8806757
-0.0044554 0.2188334 0.8806293
-0.0044760 0.2194643 0.8805830
-0.0041155 0.2199207 0.8803824
-0.0041361 0.2205506 0.8803361
-0.0041567 0.2211815 0.8802897
-0.0041773 0.2218124 0.8802434
-0.0041979 0.2224424 0.8801971
-0.0042185 0.2230733 0.8801507
-0.0038579 0.2235247 0.8799505
-0.0038785 0.2241546 0.8799042
-0.0038990 0.2247835 0.8798580
-0.0039196 0.2254135 0.8798117
-0.0039402 0.2260434 0.8797654
-0.0038833 0.2175499 0.8804879
-0.0035235 0.2180083 0.8802874
-0.0035441 0.2186392 0.8802410
-0.0035647 0.2192691 0.8801948
-0.0035853 0.2199001 0.8801484
-0.0036059 0.2205300 0.8801021
-0.0032460 0.2209844 0.8799019
-0.0032666 0.2216143 0.8798556
-0.0032871 0.2222443 0.8798094
-0.0033077 0.2228742 0.8797631
-0.0033283 0.2235041 0.8797168
-0.0033489 0.2241340 0.8796705
-0.0033695 0.2247630 0.8796242
-0.0033901 0.2253929 0.8795779
-0.0034107 0.2260228 0.8795316
-0.0033526 0.2175293 0.8802536
-0.0029933 0.2179877 0.8800534
-0.0030140 0.2186186 0.8800070
-0.0030346 0.2192485 0.8799607
-0.0026752 0.2197040 0.8797608
-0.0026958 0.2203339 0.8797145
-0.0027164 0.2209638 0.8796682
-0.0027370 0.2215938 0.8796219
-0.0027576 0.2222237 0.8795756
-0.0027782 0.2228536 0.8795293
-0.0024187 0.2233031 0.8793298
-0.0024393 0.2239330 0.8792835
-0.0024598 0.2245619 0.8792373
-0.0024804 0.2251909 0.8791910
-0.0025010 0.2258198 0.8791448
-0.0025215 0.2264487 0.8790986
-0.0024426 0.2173362 0.8798657
-0.0020839 0.2177936 0.8796659
-0.0021045 0.2184236 0.8796196
-0.0021251 0.2190535 0.8795733
-0.0017663 0.2195079 0.8793737
-0.0017869 0.2201369 0.8793275
-0.0018075 0.2207668 0.8792812
-0.0018281 0.2213957 0.8792350
-0.0018486 0.2220247 0.8791887
-0.0018692 0.2226536 0.8791425
-0.0018897 0.2232825 0.8790963
-0.0019103 0.2239124 0.8790500
-0.0019309 0.2245414 0.8790038
-0.0019515 0.2251703 0.8789576
-0.0019720 0.2257992 0.8789113
-0.0019926 0.2264282 0.8788651
-0.0011757 0.2175996 0.8792790
-0.0011963 0.2182295 0.8792327
-0.0012168 0.2188585 0.8791864
-0.0012374 0.2194874 0.8791402
-0.0012580 0.2201163 0.8790940
-0.0008997 0.2205688 0.8788948
-0.0009203 0.2211977 0.8788486
-0.0009408 0.2218257 0.8788024
-0.0009614 0.2224546 0.8787562
-0.0009819 0.2230826 0.8787101
-0.0010025 0.2237115 0.8786638
-0.0010230 0.2243394 0.8786177
-0.0010436 0.2249684 0.8785715
-0.0010641 0.2255963 0.8785253
-0.0010847 0.2262252 0.8784791
-0.0006468 0.2175790 0.8790455
-0.0006673 0.2182090 0.8789992
-0.0006879 0.2188379 0.8789530
-0.0007085 0.2194668 0.8789067
-0.0007290 0.2200958 0.8788605
-0.0003714 0.2205483 0.8786616
-0.0003920 0.2211772 0.8786154
-0.0004125 0.2218052 0.8785692
-0.0004331 0.2224341 0.8785230
-0.0004536 0.2230620 0.8784768
-0.0004742 0.2236910 0.8784306
-0.0004947 0.2243189 0.8783845
-0.0005153 0.2249478 0.8783382
-0.0005358 0.2255758 0.8782921
-0.0005563 0.2262047 0.8782459
0.0002596 0.2173861 0.8786593
0.0002391 0.2180140 0.8786131
0.0002185 0.2186429 0.8785669
0.0005756 0.2190955 0.8783682
0.0005550 0.2197234 0.8783221
0.0005345 0.2203514 0.8782759
0.0003909 0.2247449 0.8779530
0.0003703 0.2253729 0.8779069
0.0003498 0.2260008 0.8778607
0.0003293 0.2266288 0.8778146
0.0008916 0.2208019 0.8780774
0.0008711 0.2214289 0.8780313
0.0008506 0.2220558 0.8779852
0.0008301 0.2226828 0.8779392
0.0008096 0.2233097 0.8778931
0.0007891 0.2239366 0.8778470
0.0017957 0.2206041 0.8776926
0.0017753 0.2212300 0.8776466
0.0017548 0.2218560 0.8776006
0.0017343 0.2224829 0.8775545
0.0017138 0.2231089 0.8775085
0.0016934 0.2237348 0.8774625
0.0016729 0.2243618 0.8774164
0.0015007 0.2182727 0.8780291
0.0014802 0.2188996 0.8779830
0.0014597 0.2195276 0.8779369
0.0014392 0.2201545 0.8778908
0.0012752 0.2251701 0.8775222
0.0012547 0.2257970 0.8774761
0.0012342 0.2264239 0.8774300
0.0011443 0.2178201 0.8782275
0.0023223 0.2205836 0.8774602
0.0023018 0.2212096 0.8774142
0.0022813 0.2218355 0.8773682
0.0022608 0.2224625 0.8773221
0.0022404 0.2230884 0.8772761
0.0022199 0.2237144 0.8772301
0.0021994 0.2243413 0.8771840
0.0020279 0.2182522 0.8777964
0.0020074 0.2188791 0.8777503
0.0019868 0.2195071 0.8777042
0.0019663 0.2201340 0.8776581
0.0018024 0.2251496 0.8772895
0.0017819 0.2257765 0.8772434
0.0017614 0.2264035 0.8771973
0.0016720 0.2177996 0.8779945
0.0029307 0.2180574 0.8774119
0.0029102 0.2186843 0.8773658
0.0028897 0.2193103 0.8773198
0.0027259 0.2243209 0.8769516
0.0027055 0.2249468 0.8769056
0.0026850 0.2255728 0.8768596
0.0026645 0.2261997 0.8768135
0.0025755 0.2176048 0.8776098
0.0034777 0.2174110 0.8772255
0.0040042 0.2173905 0.8769931
-0.0161047 0.2271878 0.8850761
-0.0162909 0.2328819 0.8846576
-0.0163116 0.2335148 0.8846111
-0.0163323 0.2341477 0.8845646
-0.0163530 0.2347806 0.8845181
-0.0163736 0.2354126 0.8844716
-0.0155728 0.2271671 0.8848413
-0.0155935 0.2277990 0.8847948
-0.0156141 0.2284319 0.8847483
-0.0157383 0.2322284 0.8844693
-0.0157590 0.2328613 0.8844228
-0.0157797 0.2334942 0.8843763
-0.0158003 0.2341271 0.8843298
-0.0158210 0.2347600 0.8842832
-0.0158417 0.2353919 0.8842368
-0.0150409 0.2271464 0.8846065
-0.0150615 0.2277783 0.8845600
-0.0150822 0.2284112 0.8845135
-0.0151029 0.2290442 0.8844670
-0.0151443 0.2303100 0.8843740
-0.0151650 0.2309429 0.8843275
-0.0151856 0.2315748 0.8842810
-0.0152063 0.2322077 0.8842345
-0.0152270 0.2328406 0.8841880
-0.0152477 0.2334735 0.8841415
-0.0152684 0.2341064 0.8840949
-0.0152891 0.2347393 0.8840484
-0.0153098 0.2353712 0.8840020
-0.0145089 0.2271258 0.8843717
-0.0145296 0.2277577 0.8843252
-0.0145503 0.2283906 0.8842787
-0.0145710 0.2290235 0.8842322
-0.0146123 0.2302893 0.8841391
-0.0146330 0.2309222 0.8840926
-0.0146537 0.2315541 0.8840462
-0.0146744 0.2321870 0.8839997
-0.0146951 0.2328199 0.8839532
-0.0147158 0.2334528 0.8839066
-0.0147365 0.2340857 0.8838601
-0.0147572 0.2347186 0.8838136
-0.0147778 0.2353505 0.8837672
-0.0139770 0.2271051 0.8841368
-0.0139976 0.2277370 0.8840904
-0.0140183 0.2283699 0.8840439
-0.0140390 0.2290028 0.8839974
-0.0140597 0.2296357 0.8839508
-0.0140804 0.2302686 0.8839043
-0.0141011 0.2309015 0.8838578
-0.0141218 0.2315334 0.8838114
-0.0141424 0.2321663 0.8837649
-0.0141631 0.2327992 0.8837183
-0.0141838 0.2334321 0.8836718
-0.0142045 0.2340651 0.8836253
-0.0142252 0.2346980 0.8835788
-0.0142459 0.2353299 0.8835324
-0.0134450 0.2270844 0.8839020
-0.0134657 0.2277163 0.8838556
-0.0134864 0.2283492 0.8838091
-0.0135071 0.2289821 0.8837625
-0.0135278 0.2296150 0.8837160
-0.0135485 0.2302479 0.8836695
-0.0135692 0.2308808 0.8836230
-0.0135898 0.2315128 0.8835766
-0.0136105 0.2321457 0.8835300
-0.0136312 0.2327786 0.8834835
-0.0136519 0.2334115 0.8834370
-0.0136726 0.2340444 0.8833905
-0.0136933 0.2346773 0.8833440
-0.0137139 0.2353092 0.8832975
-0.0133439 0.2357493 0.8830942
-0.0129131 0.2270637 0.8836672
-0.0129338 0.2276957 0.8836208
-0.0129544 0.2283286 0.8835742
-0.0129751 0.2289615 0.8835277
-0.0129958 0.2295944 0.8834812
-0.0130165 0.2302273 0.8834347
-0.0130372 0.2308602 0.8833882
-0.0130579 0.2314921 0.8833417
-0.0130786 0.2321250 0.8832952
-0.0130993 0.2327579 0.8832487
-0.0131200 0.2333908 0.8832022
-0.0131406 0.2340237 0.8831557
-0.0131613 0.2346566 0.8831092
-0.0131820 0.2352885 0.8830627
-0.0128125 0.2357287 0.8828596
-0.0123812 0.2270431 0.8834324
-0.0124018 0.2276750 0.8833859
-0.0124225 0.2283079 0.8833394
-0.0124432 0.2289408 0.8832929
-0.0124639 0.2295737 0.8832464
-0.0124846 0.2302066 0.8831999
-0.0125053 0.2308395 0.8831534
-0.0125259 0.2314714 0.8831069
-0.0125466 0.2321043 0.8830604
-0.0125673 0.2327372 0.8830139
-0.0125880 0.2333701 0.8829674
-0.0126087 0.2340030 0.8829209
-0.0122398 0.2344442 0.8827179
-0.0122605 0.2350761 0.8826715
-0.0122811 0.2357080 0.8826250
-0.0118491 0.2270224 0.8831975
-0.0118698 0.2276543 0.8831511
-0.0118905 0.2282872 0.8831046
-0.0119112 0.2289201 0.8830581
-0.0119319 0.2295530 0.8830115
-0.0119526 0.2301859 0.8829650
-0.0119732 0.2308188 0.8829185
-0.0119939 0.2314507 0.8828721
-0.0120146 0.2320836 0.8828256
-0.0120353 0.2327165 0.8827790
-0.0120560 0.2333495 0.8827325
-0.0120767 0.2339824 0.8826860
-0.0117085 0.2344236 0.8824834
-0.0117291 0.2350555 0.8824369
-0.0117498 0.2356874 0.8823905
-0.0113172 0.2270017 0.8829627
-0.0113378 0.2276336 0.8829163
-0.0113585 0.2282665 0.8828698
-0.0113792 0.2288994 0.8828232
-0.0113999 0.2295323 0.8827767
-0.0114206 0.2301652 0.8827302
-0.0114413 0.2307982 0.8826837
-0.0114620 0.2314301 0.8826373
-0.0114827 0.2320630 0.8825907
-0.0115034 0.2326959 0.8825442
-0.0115240 0.2333288 0.8824977
-0.0115447 0.2339617 0.8824512
-0.0111771 0.2344029 0.8822488
-0.0111978 0.2350348 0.8822024
-0.0112184 0.2356667 0.8821559
-0.0108266 0.2282459 0.8826349
-0.0108473 0.2288788 0.8825884
-0.0108680 0.2295117 0.8825419
-0.0108887 0.2301446 0.8824954
-0.0109094 0.2307775 0.8824489
-0.0109300 0.2314094 0.8824024
-0.0109507 0.2320423 0.8823559
-0.0109714 0.2326752 0.8823094
-0.0109921 0.2333081 0.8822629
-0.0103979 0.2267983 0.8825717
-0.0104186 0.2274302 0.8825252
-0.0106252 0.2337503 0.8820607
-0.0106458 0.2343823 0.8820143
-0.0106665 0.2350142 0.8819678
-0.0106872 0.2356461 0.8819214
-0.0103154 0.2288581 0.8823536
-0.0103360 0.2294910 0.8823071
-0.0103567 0.2301239 0.8822606
-0.0103774 0.2307568 0.8822141
-0.0103981 0.2313887 0.8821676
-0.0098665 0.2267777 0.8823371
-0.0098872 0.2274096 0.8822907
-0.0099079 0.2280415 0.8822442
-0.0100318 0.2318330 0.8819656
-0.0100525 0.2324649 0.8819191
-0.0100732 0.2330978 0.8818726
-0.0100938 0.2337297 0.8818262
-0.0101145 0.2343616 0.8817797
-0.0101351 0.2349935 0.8817333
-0.0101558 0.2356254 0.8816868
-0.0097834 0.2288374 0.8821188
-0.0098041 0.2294703 0.8820723
-0.0098248 0.2301032 0.8820258
-0.0098455 0.2307361 0.8819793
-0.0098662 0.2313680 0.8819328
-0.0093352 0.2267570 0.8821025
-0.0093558 0.2273889 0.8820561
-0.0093765 0.2280209 0.8820097
-0.0095005 0.2318123 0.8817310
-0.0095211 0.2324442 0.8816846
-0.0095418 0.2330771 0.8816381
-0.0095625 0.2337090 0.8815916
-0.0095831 0.2343410 0.8815452
-0.0096038 0.2349729 0.8814987
-0.0096244 0.2356048 0.8814523
-0.0092515 0.2288167 0.8818840
-0.0092722 0.2294497 0.8818375
-0.0092929 0.2300826 0.8817910
-0.0093136 0.2307155 0.8817444
-0.0093342 0.2313474 0.8816980
-0.0088038 0.2267364 0.8818680
-0.0088245 0.2273683 0.8818216
-0.0088452 0.2280002 0.8817751
-0.0089691 0.2317917 0.8814965
-0.0089898 0.2324236 0.8814500
-0.0090105 0.2330565 0.8814035
-0.0090311 0.2336884 0.8813571
-0.0090518 0.2343203 0.8813106
-0.0090724 0.2349522 0.8812642
-0.0087072 0.2353915 0.8810630
-0.0082725 0.2267157 0.8816334
-0.0082932 0.2273476 0.8815870
-0.0083138 0.2279796 0.8815406
-0.0083345 0.2286115 0.8814941
-0.0083551 0.2292434 0.8814477
-0.0083758 0.2298753 0.8814012
-0.0083965 0.2305072 0.8813548
-0.0084171 0.2311391 0.8813083
-0.0084378 0.2317710 0.8812619
-0.0084584 0.2324029 0.8812155
-0.0084791 0.2330358 0.8811689
-0.0084998 0.2336677 0.8811225
-0.0081351 0.2341081 0.8809215
-0.0081558 0.2347390 0.8808752
-0.0081764 0.2353709 0.8808287
-0.0077411 0.2266951 0.8813989
-0.0077618 0.2273270 0.8813524
-0.0077825 0.2279589 0.8813060
-0.0078031 0.2285908 0.8812596
-0.0078238 0.2292227 0.8812131
-0.0078444 0.2298546 0.8811667
-0.0078651 0.2304865 0.8811202
-0.0078858 0.2311185 0.8810738
-0.0079064 0.2317504 0.8810274
-0.0079271 0.2323823 0.8809809
-0.0079478 0.2330152 0.8809344
-0.0079684 0.2336471 0.8808880
-0.0076044 0.2340875 0.8806872
-0.0076250 0.2347184 0.8806409
-0.0076457 0.2353503 0.8805944
-0.0072718 0.2285702 0.8810250
-0.0072924 0.2292021 0.8809786
-0.0073131 0.2298340 0.8809321
-0.0073338 0.2304659 0.8808857
-0.0073544 0.2310978 0.8808392
-0.0073751 0.2317297 0.8807928
-0.0073957 0.2323616 0.8807464
-0.0074164 0.2329945 0.8806998
-0.0068466 0.2271228 0.8809633
-0.0068673 0.2277537 0.8809169
-0.0070530 0.2334359 0.8804993
-0.0070737 0.2340668 0.8804530
-0.0070943 0.2346978 0.8804066
-0.0067308 0.2351372 0.8802062
-0.0067514 0.2357671 0.8801599
-0.0063159 0.2271021 0.8807290
-0.0063365 0.2277331 0.8806826
-0.0063572 0.2283650 0.8806362
-0.0063778 0.2289959 0.8805898
-0.0063984 0.2296268 0.8805435
-0.0064191 0.2302587 0.8804970
-0.0064397 0.2308896 0.8804507
-0.0064604 0.2315215 0.8804042
-0.0064810 0.2321525 0.8803578
-0.0065016 0.2327834 0.8803115
-0.0065223 0.2334153 0.8802650
-0.0061594 0.2338547 0.8800649
-0.0061801 0.2344856 0.8800186
-0.0062007 0.2351166 0.8799722
-0.0062213 0.2357465 0.8799259
-0.0057852 0.2270815 0.8804947
-0.0058058 0.2277124 0.8804484
-0.0058264 0.2283443 0.8804019
-0.0058471 0.2289753 0.8803556
-0.0058677 0.2296062 0.8803092
-0.0058884 0.2302381 0.8802627
-0.0059090 0.2308690 0.8802164
-0.0059296 0.2315009 0.8801699
-0.0059503 0.2321318 0.8801236
-0.0059709 0.2327628 0.8800772
-0.0059916 0.2333947 0.8800307
-0.0056293 0.2338341 0.8798309
-0.0056499 0.2344650 0.8797845
-0.0056705 0.2350959 0.8797382
-0.0056911 0.2357259 0.8796919
-0.0053163 0.2289546 0.8801213
-0.0053370 0.2295856 0.8800749
-0.0053576 0.2302175 0.8800285
-0.0053782 0.2308484 0.8799821
-0.0053989 0.2314803 0.8799356
-0.0054195 0.2321112 0.8798893
-0.0054402 0.2327421 0.8798429
-0.0054608 0.2333740 0.8797965
-0.0048724 0.2268774 0.8801067
-0.0048930 0.2275083 0.8800603
-0.0049136 0.2281382 0.8800140
-0.0050992 0.2338135 0.8795969
-0.0051198 0.2344444 0.8795505
-0.0051404 0.2350753 0.8795041
-0.0047787 0.2355118 0.8793048
-0.0043835 0.2281176 0.8797800
-0.0044041 0.2287485 0.8797336
-0.0044247 0.2293795 0.8796872
-0.0044453 0.2300094 0.8796409
-0.0044659 0.2306403 0.8795946
-0.0044866 0.2312712 0.8795482
-0.0045072 0.2319011 0.8795019
-0.0045278 0.2325321 0.8794555
-0.0045484 0.2331630 0.8794092
-0.0045690 0.2337929 0.8793629
-0.0045897 0.2344238 0.8793165
-0.0039608 0.2266733 0.8797191
-0.0039814 0.2273032 0.8796728
-0.0042285 0.2348613 0.8791173
-0.0042491 0.2354913 0.8790710
-0.0039770 0.2318805 0.8792679
-0.0039977 0.2325115 0.8792215
-0.0034313 0.2266527 0.8794854
-0.0034519 0.2272827 0.8794391
-0.0034725 0.2279126 0.8793928
-0.0034931 0.2285425 0.8793465
-0.0035137 0.2291724 0.8793002
-0.0035343 0.2298024 0.8792539
-0.0035548 0.2304323 0.8792076
-0.0035754 0.2310622 0.8791613
-0.0036372 0.2329520 0.8790224
-0.0036578 0.2335819 0.8789761
-0.0036784 0.2342108 0.8789299
-0.0036990 0.2348407 0.8788836
-0.0037196 0.2354707 0.8788373
-0.0034469 0.2318599 0.8790339
-0.0034675 0.2324909 0.8789875
-0.0029223 0.2272621 0.8792053
-0.0029429 0.2278920 0.8791590
-0.0029635 0.2285219 0.8791127
-0.0029841 0.2291518 0.8790664
-0.0030047 0.2297818 0.8790201
-0.0030253 0.2304117 0.8789738
-0.0030459 0.2310416 0.8789275
-0.0031077 0.2329314 0.8787886
-0.0031283 0.2335613 0.8787423
-0.0031489 0.2341902 0.8786961
-0.0031695 0.2348202 0.8786498
-0.0031900 0.2354501 0.8786035
-0.0024752 0.2297612 0.8787864
-0.0024958 0.2303911 0.8787401
-0.0025164 0.2310210 0.8786938
-0.0025370 0.2316510 0.8786475
-0.0025576 0.2322809 0.8786012
-0.0025782 0.2329108 0.8785549
-0.0025988 0.2335407 0.8785086
-0.0026193 0.2341697 0.8784624
-0.0020132 0.2270581 0.8788188
-0.0020337 0.2276870 0.8787726
-0.0020543 0.2283159 0.8787264
-0.0020749 0.2289449 0.8786801
-0.0022600 0.2346072 0.8782640
-0.0022806 0.2352362 0.8782178
-0.0023012 0.2358661 0.8781715
-0.0015254 0.2282954 0.8784929
-0.0015459 0.2289243 0.8784467
-0.0015665 0.2295542 0.8784004
-0.0015871 0.2301832 0.8783541
-0.0016077 0.2308121 0.8783079
-0.0016282 0.2314410 0.8782617
-0.0016488 0.2320700 0.8782155
-0.0016694 0.2326999 0.8781692
-0.0016899 0.2333288 0.8781229
-0.0017105 0.2339578 0.8780767
-0.0017311 0.2345867 0.8780305
-0.0017516 0.2352156 0.8779843
-0.0017722 0.2358455 0.8779380
-0.0011052 0.2268532 0.8784329
-0.0011258 0.2274821 0.8783867
-0.0009964 0.2282748 0.8782594
-0.0010170 0.2289038 0.8782132
-0.0010376 0.2295337 0.8781669
-0.0010582 0.2301626 0.8781207
-0.0010787 0.2307916 0.8780744
-0.0010993 0.2314205 0.8780282
-0.0011199 0.2320494 0.8779820
-0.0011405 0.2326793 0.8779357
-0.0011610 0.2333083 0.8778895
-0.0011816 0.2339372 0.8778432
-0.0012021 0.2345661 0.8777970
-0.0012227 0.2351951 0.8777508
-0.0012433 0.2358250 0.8777045
-0.0005769 0.2268326 0.8781997
-0.0005974 0.2274616 0.8781535
-0.0000896 0.2280690 0.8778741
-0.0001102 0.2286979 0.8778279
-0.0001307 0.2293258 0.8777817
-0.0001513 0.2299548 0.8777355
-0.0001718 0.2305827 0.8776894
-0.0001924 0.2312116 0.8776432
-0.0002129 0.2318396 0.8775970
-0.0002335 0.2324685 0.8775508
-0.0002540 0.2330964 0.8775046
-0.0002746 0.2337254 0.8774584
-0.0002951 0.2343533 0.8774123
-0.0003157 0.2349822 0.8773660
-0.0003362 0.2356102 0.8773199
0.0003088 0.2272557 0.8777685
0.0012137 0.2270509 0.8773839
0.0008160 0.2278631 0.8774894
0.0007954 0.2284911 0.8774432
0.0007749 0.2291190 0.8773971
0.0007544 0.2297459 0.8773510
0.0007339 0.2303739 0.8773049
0.0006107 0.2341405 0.8770280
0.0005902 0.2347684 0.8769819
0.0005697 0.2353954 0.8769358
0.0003359 0.2311911 0.8774099
0.0003154 0.2318190 0.8773638
0.0002948 0.2324480 0.8773176
0.0002743 0.2330759 0.8772714
0.0002538 0.2337048 0.8772252
0.0017409 0.2270304 0.8771512
0.0013437 0.2278426 0.8772564
0.0013232 0.2284706 0.8772103
0.0013026 0.2290985 0.8771641
0.0012821 0.2297254 0.8771180
0.0012616 0.2303534 0.8770719
0.0011385 0.2341200 0.8767951
0.0011179 0.2347479 0.8767489
0.0010974 0.2353749 0.8767028
0.0008643 0.2311706 0.8771767
0.0008437 0.2317985 0.8771306
0.0008232 0.2324274 0.8770843
0.0008026 0.2330554 0.8770382
0.0007821 0.2336843 0.8769920
0.0026440 0.2268256 0.8767675
0.0022475 0.2276369 0.8768725
0.0022270 0.2282638 0.8768264
0.0022065 0.2288907 0.8767803
0.0018099 0.2297049 0.8768851
0.0017893 0.2303329 0.8768389
0.0017688 0.2309608 0.8767928
0.0017483 0.2315887 0.8767466
0.0017277 0.2322167 0.8767005
0.0017072 0.2328436 0.8766544
0.0016867 0.2334716 0.8766083
0.0016662 0.2340995 0.8765621
0.0016457 0.2347274 0.8765160
0.0016252 0.2353544 0.8764699
0.0031705 0.2268052 0.8765351
0.0031501 0.2274311 0.8764891
0.0031296 0.2280581 0.8764430
0.0027336 0.2288703 0.8765476
0.0027131 0.2294972 0.8765016
0.0026926 0.2301241 0.8764555
0.0026721 0.2307511 0.8764094
0.0026516 0.2313790 0.8763632
0.0026311 0.2320060 0.8763172
0.0025491 0.2345137 0.8761329
0.0025286 0.2351407 0.8760868
0.0025081 0.2357676 0.8760407
0.0022350 0.2328231 0.8764215
0.0022144 0.2334510 0.8763753
0.0021939 0.2340790 0.8763291
0.0036971 0.2267847 0.8763026
0.0036766 0.2274107 0.8762566
0.0036561 0.2280376 0.8762106
0.0032607 0.2288498 0.8763149
0.0032403 0.2294767 0.8762689
0.0032198 0.2301037 0.8762228
0.0031993 0.2307306 0.8761767
0.0031787 0.2313585 0.8761306
0.0031582 0.2319855 0.8760845
0.0030762 0.2344933 0.8759002
0.0030557 0.2351202 0.8758541
0.0030352 0.2357471 0.8758080
0.0027627 0.2328026 0.8761885
0.0027422 0.2334305 0.8761423
0.0027216 0.2340585 0.8760962
0.0041622 0.2286431 0.8759321
0.0041417 0.2292691 0.8758861
0.0041212 0.2298960 0.8758401
0.0037264 0.2307101 0.8759440
0.0037059 0.2313380 0.8758979
0.0036854 0.2319650 0.8758518
0.0036649 0.2325919 0.8758057
0.0036444 0.2332189 0.8757596
0.0036239 0.2338458 0.8757136
0.0036034 0.2344728 0.8756675
0.0035829 0.2350997 0.8756214
0.0035624 0.2357267 0.8755753
0.0046682 0.2292486 0.8756537
0.0046477 0.2298755 0.8756076
0.0046273 0.2305015 0.8755616
0.0046068 0.2311274 0.8755156
0.0045863 0.2317544 0.8754695
0.0045658 0.2323803 0.8754235
0.0045454 0.2330063 0.8753775
0.0045249 0.2336332 0.8753315
0.0041305 0.2344523 0.8754348
0.0041100 0.2350792 0.8753887
0.0040895 0.2357062 0.8753426
0.0051947 0.2292281 0.8754213
0.0051742 0.2298551 0.8753752
0.0051538 0.2304810 0.8753292
0.0051333 0.2311070 0.8752832
0.0051128 0.2317339 0.8752371
0.0050924 0.2323599 0.8751911
0.0050719 0.2329858 0.8751451
0.0050514 0.2336128 0.8750990
0.0046576 0.2344318 0.8752021
0.0046371 0.2350587 0.8751560
0.0046166 0.2356857 0.8751099
0.0056598 0.2310865 0.8750508
0.0056393 0.2317135 0.8750047
0.0056189 0.2323394 0.8749587
0.0055984 0.2329654 0.8749127
0.0055779 0.2335923 0.8748666
0.0055574 0.2342182 0.8748206
0.0055370 0.2348442 0.8747746
0.0055165 0.2354711 0.8747285
0.0060840 0.2341978 0.8745882
0.0060635 0.2348237 0.8745422
0.0060430 0.2354507 0.8744961
0.0066105 0.2341773 0.8743558
0.0065900 0.2348033 0.8743097
0.0065695 0.2354302 0.8742637
0.0071165 0.2347828 0.8740773
0.0070961 0.2354098 0.8740312
0.0076431 0.2347623 0.8738449
0.0076226 0.2353893 0.8737988
0.0081696 0.2347419 0.8736125
0.0081491 0.2353688 0.8735664
-0.0169263 0.2360661 0.8846599
-0.0169470 0.2366990 0.8846134
-0.0163943 0.2360455 0.8844251
-0.0164150 0.2366784 0.8843786
-0.0158624 0.2360248 0.8841903
-0.0158831 0.2366577 0.8841438
-0.0159038 0.2372906 0.8840973
-0.0153305 0.2360041 0.8839555
-0.0153511 0.2366370 0.8839090
-0.0153718 0.2372699 0.8838624
-0.0153925 0.2379028 0.8838159
-0.0154132 0.2385347 0.8837695
-0.0147985 0.2359834 0.8837207
-0.0148192 0.2366164 0.8836741
-0.0148399 0.2372493 0.8836276
-0.0148606 0.2378822 0.8835811
-0.0148812 0.2385141 0.8835347
-0.0142666 0.2359628 0.8834858
-0.0142873 0.2365957 0.8834393
-0.0143080 0.2372286 0.8833928
-0.0143286 0.2378615 0.8833463
-0.0143493 0.2384934 0.8832999
-0.0143700 0.2391263 0.8832533
-0.0138381 0.2391056 0.8830185
-0.0138588 0.2397385 0.8829720
-0.0138794 0.2403714 0.8829255
-0.0133645 0.2363812 0.8830477
-0.0133852 0.2370132 0.8830013
-0.0134058 0.2376451 0.8829548
-0.0134265 0.2382770 0.8829084
-0.0133061 0.2390850 0.8827837
-0.0133268 0.2397179 0.8827372
-0.0133475 0.2403508 0.8826907
-0.0128332 0.2363606 0.8828132
-0.0128538 0.2369925 0.8827667
-0.0128745 0.2376244 0.8827203
-0.0128951 0.2382563 0.8826738
-0.0128363 0.2409630 0.8824093
-0.0128570 0.2415959 0.8823628
-0.0128776 0.2422278 0.8823164
-0.0123018 0.2363399 0.8825786
-0.0123225 0.2369719 0.8825322
-0.0123431 0.2376038 0.8824857
-0.0123638 0.2382357 0.8824393
-0.0123844 0.2388676 0.8823928
-0.0124051 0.2395005 0.8823463
-0.0124258 0.2401324 0.8822999
-0.0123249 0.2415752 0.8821280
-0.0123456 0.2422071 0.8820815
-0.0123663 0.2428400 0.8820350
-0.0117705 0.2363193 0.8823440
-0.0117911 0.2369512 0.8822976
-0.0118118 0.2375831 0.8822512
-0.0118324 0.2382150 0.8822047
-0.0118531 0.2388469 0.8821583
-0.0118738 0.2394798 0.8821118
-0.0118944 0.2401118 0.8820653
-0.0119151 0.2407437 0.8820189
-0.0117930 0.2415546 0.8818932
-0.0118136 0.2421865 0.8818467
-0.0118343 0.2428194 0.8818002
-0.0112391 0.2362986 0.8821095
-0.0112598 0.2369305 0.8820630
-0.0112804 0.2375625 0.8820166
-0.0113011 0.2381944 0.8819702
-0.0113217 0.2388263 0.8819237
-0.0113424 0.2394592 0.8818772
-0.0113631 0.2400911 0.8818308
-0.0113837 0.2407230 0.8817843
-0.0112610 0.2415339 0.8816583
-0.0112817 0.2421658 0.8816119
-0.0113024 0.2427987 0.8815654
-0.0113231 0.2434316 0.8815189
-0.0113438 0.2440645 0.8814723
-0.0113645 0.2446974 0.8814258
-0.0107078 0.2362780 0.8818750
-0.0107285 0.2369099 0.8818285
-0.0107491 0.2375418 0.8817821
-0.0108112 0.2394385 0.8816427
-0.0108318 0.2400705 0.8815962
-0.0108525 0.2407024 0.8815498
-0.0103819 0.2379781 0.8815803
-0.0104026 0.2386100 0.8815339
-0.0108325 0.2446767 0.8811910
-0.0103418 0.2413136 0.8812688
-0.0103624 0.2419455 0.8812223
-0.0103831 0.2425774 0.8811759
-0.0104038 0.2432094 0.8811295
-0.0104244 0.2438413 0.8810830
-0.0097893 0.2360637 0.8814852
-0.0098099 0.2366956 0.8814388
-0.0098305 0.2373265 0.8813924
-0.0098512 0.2379575 0.8813460
-0.0098718 0.2385894 0.8812996
-0.0098925 0.2392203 0.8812532
-0.0099131 0.2398512 0.8812068
-0.0099337 0.2404831 0.8811604
-0.0103006 0.2446561 0.8809562
-0.0098104 0.2412930 0.8810342
-0.0098311 0.2419249 0.8809878
-0.0098517 0.2425568 0.8809413
-0.0098724 0.2431887 0.8808949
-0.0098931 0.2438206 0.8808485
-0.0092585 0.2360431 0.8812509
-0.0092792 0.2366750 0.8812045
-0.0092998 0.2373059 0.8811581
-0.0093205 0.2379368 0.8811117
-0.0093411 0.2385687 0.8810653
-0.0093617 0.2391997 0.8810189
-0.0093824 0.2398306 0.8809726
-0.0094030 0.2404625 0.8809261
-0.0093411 0.2431681 0.8806604
-0.0093617 0.2438000 0.8806139
-0.0093824 0.2444319 0.8805675
-0.0087278 0.2360225 0.8810166
-0.0087485 0.2366544 0.8809702
-0.0087691 0.2372853 0.8809238
-0.0087897 0.2379162 0.8808775
-0.0088104 0.2385481 0.8808310
-0.0088310 0.2391790 0.8807846
-0.0088516 0.2398100 0.8807383
-0.0088723 0.2404419 0.8806918
-0.0088929 0.2410728 0.8806455
-0.0089136 0.2417047 0.8805990
-0.0089342 0.2423356 0.8805526
-0.0088097 0.2431474 0.8804258
-0.0088304 0.2437793 0.8803794
-0.0088510 0.2444112 0.8803329
-0.0081971 0.2360018 0.8807823
-0.0082177 0.2366337 0.8807359
-0.0083622 0.2410522 0.8804112
-0.0083828 0.2416841 0.8803647
-0.0084035 0.2423150 0.8803184
-0.0078529 0.2370701 0.8805352
-0.0078735 0.2377000 0.8804889
-0.0078942 0.2383310 0.8804425
-0.0079148 0.2389619 0.8803962
-0.0079354 0.2395918 0.8803499
-0.0079560 0.2402227 0.8803035
-0.0082784 0.2431268 0.8801912
-0.0082990 0.2437587 0.8801448
-0.0083197 0.2443906 0.8800984
-0.0083404 0.2450225 0.8800519
-0.0076663 0.2359812 0.8805481
-0.0076870 0.2366131 0.8805016
-0.0078314 0.2410315 0.8801769
-0.0078521 0.2416634 0.8801304
-0.0078727 0.2422944 0.8800841
-0.0073228 0.2370495 0.8803012
-0.0073434 0.2376794 0.8802549
-0.0073640 0.2383104 0.8802085
-0.0073847 0.2389413 0.8801622
-0.0074053 0.2395712 0.8801159
-0.0074259 0.2402021 0.8800695
-0.0077884 0.2443699 0.8798638
-0.0078090 0.2450018 0.8798174
-0.0073420 0.2422737 0.8798498
-0.0073626 0.2429047 0.8798034
-0.0073833 0.2435366 0.8797570
-0.0067720 0.2363980 0.8801135
-0.0067927 0.2370289 0.8800672
-0.0068133 0.2376588 0.8800209
-0.0068339 0.2382898 0.8799745
-0.0068545 0.2389207 0.8799281
-0.0068751 0.2395506 0.8798818
-0.0068957 0.2401815 0.8798355
-0.0069164 0.2408124 0.8797891
-0.0069370 0.2414424 0.8797428
-0.0072570 0.2443493 0.8796293
-0.0072777 0.2449812 0.8795828
-0.0068319 0.2428840 0.8795691
-0.0068525 0.2435159 0.8795227
-0.0062419 0.2363774 0.8798795
-0.0063244 0.2389001 0.8796941
-0.0063450 0.2395300 0.8796478
-0.0063656 0.2401609 0.8796015
-0.0063862 0.2407918 0.8795551
-0.0064068 0.2414218 0.8795088
-0.0064275 0.2420527 0.8794624
-0.0058789 0.2368128 0.8796797
-0.0058995 0.2374428 0.8796334
-0.0059201 0.2380727 0.8795871
-0.0067463 0.2449605 0.8793483
-0.0063011 0.2428634 0.8793348
-0.0063218 0.2434953 0.8792884
-0.0063424 0.2441262 0.8792420
-0.0057118 0.2363568 0.8796455
-0.0057942 0.2388795 0.8794601
-0.0058148 0.2395094 0.8794138
-0.0058355 0.2401403 0.8793674
-0.0058561 0.2407712 0.8793211
-0.0058767 0.2414012 0.8792748
-0.0058973 0.2420321 0.8792284
-0.0053494 0.2367923 0.8794459
-0.0053700 0.2374222 0.8793997
-0.0053906 0.2380521 0.8793534
-0.0062150 0.2449399 0.8791137
-0.0057704 0.2428428 0.8791006
-0.0057911 0.2434747 0.8790541
-0.0058117 0.2441056 0.8790077
-0.0053053 0.2401197 0.8791334
-0.0053260 0.2407506 0.8790870
-0.0053466 0.2413805 0.8790407
-0.0053672 0.2420115 0.8789944
-0.0047992 0.2361418 0.8792585
-0.0048198 0.2367717 0.8792122
-0.0048404 0.2374016 0.8791659
-0.0048610 0.2380315 0.8791196
-0.0048816 0.2386615 0.8790733
-0.0049022 0.2392914 0.8790270
-0.0052809 0.2440850 0.8787735
-0.0053016 0.2447159 0.8787271
-0.0047958 0.2407300 0.8788530
-0.0048164 0.2413599 0.8788067
-0.0048371 0.2419909 0.8787604
-0.0048577 0.2426218 0.8787140
-0.0048783 0.2432517 0.8786677
-0.0042697 0.2361212 0.8790247
-0.0042903 0.2367511 0.8789784
-0.0043109 0.2373810 0.8789321
-0.0043315 0.2380110 0.8788858
-0.0043521 0.2386409 0.8788396
-0.0043727 0.2392708 0.8787933
-0.0043933 0.2399007 0.8787470
-0.0047502 0.2440644 0.8785392
-0.0047708 0.2446953 0.8784928
-0.0042657 0.2407094 0.8786190
-0.0042863 0.2413393 0.8785727
-0.0043069 0.2419703 0.8785263
-0.0043275 0.2426012 0.8784800
-0.0043481 0.2432311 0.8784337
-0.0037402 0.2361006 0.8787910
-0.0038226 0.2386203 0.8786058
-0.0038431 0.2392502 0.8785595
-0.0038637 0.2398801 0.8785132
-0.0033796 0.2365361 0.8785922
-0.0034002 0.2371651 0.8785460
-0.0034207 0.2377940 0.8784998
-0.0046210 0.2448779 0.8784101
-0.0041782 0.2427809 0.8783977
-0.0041988 0.2434128 0.8783513
-0.0042195 0.2440437 0.8783049
-0.0037356 0.2406888 0.8783850
-0.0037561 0.2413187 0.8783387
-0.0037768 0.2419497 0.8782923
-0.0032106 0.2360800 0.8785572
-0.0032930 0.2385997 0.8783720
-0.0033136 0.2392296 0.8783257
-0.0033342 0.2398596 0.8782794
-0.0028507 0.2365156 0.8783587
-0.0028712 0.2371445 0.8783125
-0.0028918 0.2377734 0.8782663
-0.0036887 0.2440231 0.8780706
-0.0037094 0.2446540 0.8780242
-0.0032673 0.2425600 0.8780119
-0.0032879 0.2431899 0.8779656
-0.0028047 0.2398390 0.8780457
-0.0028253 0.2404689 0.8779994
-0.0028459 0.2410988 0.8779531
-0.0028665 0.2417288 0.8779068
-0.0023217 0.2364950 0.8781252
-0.0023423 0.2371240 0.8780790
-0.0023628 0.2377529 0.8780328
-0.0023834 0.2383828 0.8779865
-0.0024040 0.2390117 0.8779403
-0.0031580 0.2440025 0.8778363
-0.0031786 0.2446334 0.8777899
-0.0027371 0.2425394 0.8777779
-0.0027577 0.2431693 0.8777316
-0.0022751 0.2398184 0.8778119
-0.0022957 0.2404483 0.8777656
-0.0023163 0.2410783 0.8777193
-0.0023369 0.2417082 0.8776731
-0.0017928 0.2364745 0.8778918
-0.0018134 0.2371034 0.8778455
-0.0018339 0.2377323 0.8777993
-0.0018545 0.2383623 0.8777530
-0.0018751 0.2389912 0.8777068
-0.0026272 0.2439818 0.8776020
-0.0026479 0.2446128 0.8775557
-0.0021864 0.2418878 0.8775903
-0.0022070 0.2425188 0.8775439
-0.0022276 0.2431487 0.8774976
-0.0017456 0.2397978 0.8775782
-0.0017662 0.2404277 0.8775319
-0.0017868 0.2410577 0.8774856
-0.0012639 0.2364539 0.8776583
-0.0012844 0.2370828 0.8776120
-0.0013050 0.2377118 0.8775658
-0.0013256 0.2383417 0.8775195
-0.0013461 0.2389706 0.8774733
-0.0020965 0.2439612 0.8773677
-0.0021171 0.2445921 0.8773214
-0.0016769 0.2424982 0.8773099
-0.0016975 0.2431281 0.8772636
-0.0012367 0.2404072 0.8772981
-0.0012573 0.2410371 0.8772518
-0.0012779 0.2416670 0.8772055
-0.0007761 0.2376912 0.8773323
-0.0007967 0.2383211 0.8772860
-0.0008172 0.2389501 0.8772398
-0.0008378 0.2395790 0.8771936
-0.0003568 0.2362391 0.8772737
-0.0003773 0.2368670 0.8772275
0.0005492 0.2360233 0.8768896
0.0001510 0.2368465 0.8769943
0.0001305 0.2374754 0.8769481
-0.0002677 0.2383006 0.8770526
-0.0002883 0.2389295 0.8770063
-0.0003088 0.2395584 0.8769601
-0.0003294 0.2401874 0.8769139
-0.0003500 0.2408163 0.8768677
-0.0007483 0.2416464 0.8769718
-0.0011467 0.2424776 0.8770758
