0.0931302 0.1907683 0.8609213
0.0931265 0.1913825 0.8608795
0.0931228 0.1919966 0.8608377
0.0931191 0.1926117 0.8607959
0.0931154 0.1932259 0.8607541
0.0931116 0.1938400 0.8607124
0.0931079 0.1944552 0.8606705
0.0931042 0.1950693 0.8606288
0.0931185 0.1958430 0.8605744
0.0931148 0.1964581 0.8605326
0.0931110 0.1970733 0.8604908
0.0931073 0.1976884 0.8604489
0.0931216 0.1984651 0.8603944
0.0931179 0.1990813 0.8603525
0.0931321 0.1998600 0.8602979
0.0937423 0.1907646 0.8608670
0.0937386 0.1913788 0.8608252
0.0937349 0.1919929 0.8607834
0.0937311 0.1926080 0.8607416
0.0937274 0.1932222 0.8606998
0.0937237 0.1938363 0.8606581
0.0937200 0.1944514 0.8606162
0.0937162 0.1950656 0.8605745
0.0937125 0.1956797 0.8605327
0.0937275 0.1964544 0.8604783
0.0937238 0.1970696 0.8604364
0.0937201 0.1976847 0.8603946
0.0937163 0.1982998 0.8603528
0.0937126 0.1989150 0.8603109
0.0937089 0.1995301 0.8602691
0.0943545 0.1907609 0.8608126
0.0943507 0.1913750 0.8607709
0.0943470 0.1919892 0.8607291
0.0943433 0.1926043 0.8606873
0.0943396 0.1932184 0.8606455
0.0943358 0.1938326 0.8606037
0.0943321 0.1944477 0.8605619
0.0943284 0.1950618 0.8605202
0.0943247 0.1956760 0.8604784
0.0943209 0.1962911 0.8604366
0.0943172 0.1969052 0.8603948
0.0943135 0.1975204 0.8603530
0.0943292 0.1982961 0.8602984
0.0943255 0.1989112 0.8602565
0.0943217 0.1995264 0.8602147
0.0943180 0.2001415 0.8601729
0.0949628 0.1913713 0.8607166
0.0949591 0.1919854 0.8606748
0.0949554 0.1926006 0.8606330
0.0949516 0.1932147 0.8605912
0.0949479 0.1938289 0.8605494
0.0949442 0.1944440 0.8605076
0.0949405 0.1950581 0.8604659
0.0949367 0.1956723 0.8604241
0.0949330 0.1962874 0.8603823
0.0949293 0.1969015 0.8603405
0.0949256 0.1975167 0.8602987
0.0949868 0.1909098 0.8607461
0.0949421 0.1982924 0.8602440
0.0949383 0.1989075 0.8602022
0.0949346 0.1995226 0.8601603
0.0949309 0.2001378 0.8601185
0.0955750 0.1913676 0.8606623
0.0955712 0.1919817 0.8606205
0.0955675 0.1925969 0.8605787
0.0955638 0.1932110 0.8605369
0.0955601 0.1938251 0.8604951
0.0955563 0.1944403 0.8604533
0.0955526 0.1950544 0.8604115
0.0955489 0.1956685 0.8603698
0.0955452 0.1962837 0.8603279
0.0955414 0.1968978 0.8602862
0.0955377 0.1975129 0.8602443
0.0955340 0.1981271 0.8602026
0.0955303 0.1987412 0.8601608
0.0955265 0.1993563 0.8601190
0.0955228 0.1999705 0.8600772
0.0955996 0.1909061 0.8606917
0.0961870 0.1913639 0.8606080
0.0961833 0.1919780 0.8605662
0.0961796 0.1925931 0.8605244
0.0961759 0.1932073 0.8604826
0.0961721 0.1938214 0.8604408
0.0961684 0.1944365 0.8603990
0.0961647 0.1950507 0.8603572
0.0961610 0.1956648 0.8603155
0.0961572 0.1962799 0.8602736
0.0961535 0.1968941 0.8602319
0.0961498 0.1975092 0.8601900
0.0961461 0.1981234 0.8601483
0.0961423 0.1987375 0.8601065
0.0961386 0.1993526 0.8600647
0.0961349 0.1999668 0.8600229
0.0962124 0.1909023 0.8606373
0.0967992 0.1913601 0.8605537
0.0967955 0.1919743 0.8605119
0.0967917 0.1925894 0.8604701
0.0967880 0.1932035 0.8604283
0.0967843 0.1938177 0.8603865
0.0967806 0.1944328 0.8603447
0.0967768 0.1950470 0.8603029
0.0967731 0.1956611 0.8602612
0.0967694 0.1962762 0.8602193
0.0967657 0.1968904 0.8601776
0.0967619 0.1975055 0.8601357
0.0967582 0.1981196 0.8600940
0.0967545 0.1987338 0.8600522
0.0967508 0.1993489 0.8600104
0.0967470 0.1999630 0.8599686
0.0968253 0.1908986 0.8605830
0.0973398 0.1991816 0.8599693
0.0973361 0.1997958 0.8599276
0.0974112 0.1913564 0.8604994
0.0974075 0.1919706 0.8604576
0.0974038 0.1925857 0.8604158
0.0974001 0.1931998 0.8603740
0.0973963 0.1938140 0.8603322
0.0973926 0.1944291 0.8602904
0.0973889 0.1950432 0.8602486
0.0973852 0.1956574 0.8602069
0.0973814 0.1962725 0.8601650
0.0973777 0.1968866 0.8601233
0.0973740 0.1975018 0.8600814
0.0973703 0.1981159 0.8600397
0.0973665 0.1987300 0.8599979
0.0974380 0.1908949 0.8605286
0.0979549 0.1985638 0.8599569
0.0979512 0.1991779 0.8599151
0.0979475 0.1997921 0.8598733
0.0980122 0.1931961 0.8603197
0.0980085 0.1938102 0.8602779
0.0980048 0.1944254 0.8602361
0.0980011 0.1950395 0.8601943
0.0979973 0.1956536 0.8601526
0.0979936 0.1962688 0.8601107
0.0979899 0.1968829 0.8600690
0.0979862 0.1974980 0.8600271
0.0979824 0.1981122 0.8599854
0.0980471 0.1915063 0.8604324
0.0980434 0.1921214 0.8603906
0.0980397 0.1927365 0.8603487
0.0980747 0.1910447 0.8604616
0.0985663 0.1985601 0.8599026
0.0985626 0.1991742 0.8598609
0.0985588 0.1997883 0.8598191
0.0986168 0.1944216 0.8601818
0.0986131 0.1950358 0.8601400
0.0986094 0.1956499 0.8600983
0.0986057 0.1962651 0.8600564
0.0986019 0.1968792 0.8600147
0.0985982 0.1974943 0.8599728
0.0985945 0.1981085 0.8599311
0.0986600 0.1915026 0.8603780
0.0986563 0.1921177 0.8603362
0.0986525 0.1927328 0.8602944
0.0986488 0.1933480 0.8602525
0.0986451 0.1939641 0.8602106
0.0986882 0.1910410 0.8604072
0.0991777 0.1985563 0.8598484
0.0991739 0.1991705 0.8598066
0.0991702 0.1997846 0.8597649
0.0992289 0.1944179 0.8601275
0.0992252 0.1950321 0.8600857
0.0992215 0.1956462 0.8600440
0.0992177 0.1962613 0.8600021
0.0992140 0.1968755 0.8599604
0.0992103 0.1974906 0.8599185
0.0992065 0.1981047 0.8598768
0.0992728 0.1914988 0.8603237
0.0992690 0.1921140 0.8602818
0.0992653 0.1927291 0.8602400
0.0992616 0.1933442 0.8601982
0.0992578 0.1939604 0.8601563
0.0993017 0.1910373 0.8603527
0.0997854 0.1991668 0.8597524
0.0997817 0.1997809 0.8597106
0.0998373 0.1950283 0.8600314
0.0998336 0.1956425 0.8599896
0.0998299 0.1962576 0.8599478
0.0998262 0.1968717 0.8599061
0.0998224 0.1974869 0.8598642
0.0998187 0.1981010 0.8598225
0.0998150 0.1987152 0.8597807
0.0998744 0.1933405 0.8601438
0.0998707 0.1939566 0.8601019
0.0998670 0.1945718 0.8600601
0.0999153 0.1910335 0.8602983
0.0999115 0.1916487 0.8602565
0.0999078 0.1922648 0.8602146
0.0999041 0.1928809 0.8601727
0.1004495 0.1950246 0.8599771
0.1004458 0.1956388 0.8599353
0.1004420 0.1962539 0.8598935
0.1004383 0.1968680 0.8598517
0.1004346 0.1974832 0.8598099
0.1004309 0.1980973 0.8597681
0.1004271 0.1987114 0.8597264
0.1004234 0.1993266 0.8596845
0.1004197 0.1999407 0.8596428
0.1004874 0.1933368 0.8600894
0.1004836 0.1939529 0.8600475
0.1004799 0.1945680 0.8600057
0.1005290 0.1910298 0.8602439
0.1005253 0.1916449 0.8602020
0.1005215 0.1922611 0.8601601
0.1005178 0.1928772 0.8601182
0.1010617 0.1950209 0.8599228
0.1010579 0.1956350 0.8598810
0.1010542 0.1962502 0.8598392
0.1010505 0.1968643 0.8597974
0.1010468 0.1974794 0.8597556
0.1010430 0.1980936 0.8597138
0.1010393 0.1987077 0.8596721
0.1010356 0.1993228 0.8596302
0.1010319 0.1999370 0.8595885
0.1011005 0.1933330 0.8600350
0.1010968 0.1939492 0.8599931
0.1010931 0.1945643 0.8599513
0.1011422 0.1910261 0.8601895
0.1011384 0.1916412 0.8601476
0.1011347 0.1922573 0.8601057
0.1011310 0.1928735 0.8600638
0.1016664 0.1962464 0.8597849
0.1016626 0.1968606 0.8597431
0.1016589 0.1974757 0.8597013
0.1016552 0.1980898 0.8596595
0.1016515 0.1987040 0.8596178
0.1016477 0.1993191 0.8595759
0.1016440 0.1999333 0.8595342
0.1017127 0.1933293 0.8599807
0.1017089 0.1939454 0.8599388
0.1017052 0.1945606 0.8598970
0.1017015 0.1951757 0.8598552
0.1016978 0.1957908 0.8598133
0.1017563 0.1910223 0.8601350
0.1017526 0.1916375 0.8600931
0.1017488 0.1922536 0.8600512
0.1017451 0.1928697 0.8600093
0.1022748 0.1968569 0.8596888
0.1022711 0.1974720 0.8596470
0.1022673 0.1980861 0.8596052
0.1022636 0.1987003 0.8595635
0.1022599 0.1993154 0.8595216
0.1022562 0.1999295 0.8594799
0.1023258 0.1933256 0.8599263
0.1023221 0.1939417 0.8598844
0.1023184 0.1945569 0.8598426
0.1023146 0.1951720 0.8598008
0.1023109 0.1957871 0.8597589
0.1023072 0.1964022 0.8597171
0.1023657 0.1916337 0.8600387
0.1023620 0.1922499 0.8599968
0.1023583 0.1928660 0.8599549
0.1028870 0.1968531 0.8596345
0.1028832 0.1974683 0.8595927
0.1028795 0.1980824 0.8595509
0.1028758 0.1986965 0.8595091
0.1028721 0.1993117 0.8594673
0.1028683 0.1999258 0.8594255
0.1029390 0.1933219 0.8598719
0.1029353 0.1939380 0.8598300
0.1029315 0.1945531 0.8597882
0.1029278 0.1951683 0.8597464
0.1029241 0.1957834 0.8597045
0.1029203 0.1963985 0.8596627
0.1029789 0.1916300 0.8599843
0.1029751 0.1922461 0.8599424
0.1029714 0.1928623 0.8599005
0.1034879 0.1986928 0.8594548
0.1034842 0.1993080 0.8594130
0.1034805 0.1999221 0.8593712
0.1035511 0.1933181 0.8598176
0.1035474 0.1939343 0.8597757
0.1035437 0.1945494 0.8597339
0.1035400 0.1951645 0.8596921
0.1035362 0.1957797 0.8596502
0.1035325 0.1963948 0.8596084
0.1035288 0.1970099 0.8595666
0.1035250 0.1976251 0.8595247
0.1035213 0.1982402 0.8594829
0.1035855 0.1928585 0.8598461
0.1041001 0.1986891 0.8594005
0.1040964 0.1993042 0.8593587
0.1040926 0.1999184 0.8593169
0.1041643 0.1933144 0.8597632
0.1041606 0.1939305 0.8597213
0.1041568 0.1945457 0.8596795
0.1041531 0.1951608 0.8596377
0.1041494 0.1957759 0.8595958
0.1041456 0.1963911 0.8595540
0.1041419 0.1970062 0.8595122
0.1041382 0.1976213 0.8594703
0.1041345 0.1982365 0.8594285
0.1041987 0.1928548 0.8597917
0.1047663 0.1951571 0.8595833
0.1047625 0.1957722 0.8595414
0.1047588 0.1963873 0.8594996
0.1047551 0.1970025 0.8594578
0.1047513 0.1976176 0.8594159
0.1047476 0.1982327 0.8593741
0.1047439 0.1988479 0.8593323
0.1047402 0.1994630 0.8592904
0.1047364 0.2000781 0.8592486
0.1048091 0.1934672 0.8596953
0.1048054 0.1940833 0.8596534
0.1048016 0.1946985 0.8596115
0.1053784 0.1951534 0.8595289
0.1053747 0.1957685 0.8594871
0.1053710 0.1963836 0.8594453
0.1053672 0.1969987 0.8594035
0.1053635 0.1976139 0.8593616
0.1053598 0.1982290 0.8593198
0.1053560 0.1988441 0.8592780
0.1053523 0.1994593 0.8592361
0.1053486 0.2000744 0.8591943
0.1054223 0.1934635 0.8596409
0.1054185 0.1940796 0.8595990
0.1054148 0.1946947 0.8595571
0.1059916 0.1951496 0.8594746
0.1059878 0.1957648 0.8594327
0.1059841 0.1963799 0.8593909
0.1059804 0.1969950 0.8593491
0.1059767 0.1976102 0.8593072
0.1059729 0.1982253 0.8592654
0.1059692 0.1988404 0.8592236
0.1059655 0.1994556 0.8591817
0.1059617 0.2000707 0.8591399
0.1060279 0.1946910 0.8595027
0.1065898 0.1976064 0.8592528
0.1065861 0.1982216 0.8592110
0.1065823 0.1988367 0.8591692
0.1065786 0.1994518 0.8591273
0.1065749 0.2000670 0.8590855
0.1066309 0.1965357 0.8593226
0.1066271 0.1971518 0.8592807
0.1072020 0.1976027 0.8591985
0.1071982 0.1982178 0.8591567
0.1071945 0.1988330 0.8591148
0.1071908 0.1994481 0.8590730
0.1071870 0.2000632 0.8590312
0.1072440 0.1965319 0.8592682
0.1072403 0.1971481 0.8592263
0.0482359 0.2093825 0.8636469
0.0488576 0.2081455 0.8636763
0.0488539 0.2087617 0.8636344
0.0488501 0.2093788 0.8635924
0.0494719 0.2081418 0.8636218
0.0494681 0.2087579 0.8635799
0.0494644 0.2093751 0.8635379
0.0501107 0.2091975 0.8634925
0.0501069 0.2098126 0.8634506
0.0500898 0.2075210 0.8636093
0.0500861 0.2081381 0.8635673
0.0500824 0.2087542 0.8635254
0.0507242 0.2091938 0.8634380
0.0507205 0.2098089 0.8633962
0.0507041 0.2075172 0.8635548
0.0507003 0.2081343 0.8635128
0.0506966 0.2087505 0.8634709
0.0513452 0.2079578 0.8634674
0.0513415 0.2085739 0.8634255
0.0513378 0.2091900 0.8633836
0.0513340 0.2098052 0.8633418
0.0513183 0.2075135 0.8635003
0.0519588 0.2079540 0.8634130
0.0519550 0.2085702 0.8633711
0.0519513 0.2091863 0.8633292
0.0519476 0.2098014 0.8632873
0.0519326 0.2075097 0.8634458
0.0525723 0.2079503 0.8633586
0.0525686 0.2085664 0.8633167
0.0525649 0.2091826 0.8632748
0.0525611 0.2097977 0.8632329
0.0525468 0.2075060 0.8633913
0.0531573 0.2081194 0.8632948
0.0531536 0.2087355 0.8632529
0.0531498 0.2093526 0.8632110
0.0537716 0.2081157 0.8632403
0.0537678 0.2087318 0.8631984
0.0537641 0.2093489 0.8631565
0.0543858 0.2081119 0.8631858
0.0543821 0.2087281 0.8631439
0.0543783 0.2093452 0.8631020
0.0549926 0.2093414 0.8630475
0.0556068 0.2093377 0.8629930
0.0562211 0.2093340 0.8629385
0.0648542 0.2037315 0.8625530
0.0648505 0.2043487 0.8625110
0.0648467 0.2049648 0.8624691
0.0648430 0.2055819 0.8624272
0.0648392 0.2061980 0.8623853
0.0654684 0.2037278 0.8624985
0.0654647 0.2043449 0.8624565
0.0654610 0.2049611 0.8624146
0.0654572 0.2055782 0.8623727
0.0654535 0.2061943 0.8623308
0.0660903 0.2024908 0.8625279
0.0660865 0.2031079 0.8624859
0.0660828 0.2037241 0.8624440
0.0660790 0.2043412 0.8624020
0.0660753 0.2049573 0.8623601
0.0660716 0.2055745 0.8623182
0.0660678 0.2061906 0.8622763
0.0667120 0.2012538 0.8625573
0.0667082 0.2018710 0.8625153
0.0667045 0.2024871 0.8624734
0.0667008 0.2031042 0.8624314
0.0666970 0.2037203 0.8623895
0.0666933 0.2043375 0.8623476
0.0666895 0.2049536 0.8623057
0.0666858 0.2055707 0.8622637
0.0666821 0.2061868 0.8622218
0.0673262 0.2012501 0.8625028
0.0673225 0.2018672 0.8624608
0.0673187 0.2024834 0.8624189
0.0673150 0.2031005 0.8623769
0.0673113 0.2037166 0.8623350
0.0673075 0.2043337 0.8622931
0.0673038 0.2049499 0.8622512
0.0673000 0.2055670 0.8622092
0.0672963 0.2061831 0.8621673
0.0679480 0.2016977 0.8624167
0.0679442 0.2023139 0.8623748
0.0679405 0.2029300 0.8623329
0.0679368 0.2035451 0.8622910
0.0679330 0.2041613 0.8622491
0.0679442 0.2006302 0.8624902
0.0679405 0.2012464 0.8624483
0.0679180 0.2049461 0.8621967
0.0679143 0.2055632 0.8621547
0.0679106 0.2061794 0.8621128
0.0685685 0.2021434 0.8623308
0.0685647 0.2027585 0.8622890
0.0685610 0.2033747 0.8622471
0.0685690 0.2004618 0.8624460
0.0685653 0.2010779 0.8624041
0.0685615 0.2016940 0.8623622
0.0685466 0.2041575 0.8621947
0.0685323 0.2049424 0.8621422
0.0685285 0.2055595 0.8621002
0.0685248 0.2061756 0.8620583
0.0691812 0.2021397 0.8622764
0.0691775 0.2027548 0.8622346
0.0691737 0.2033709 0.8621927
0.0691825 0.2004580 0.8623916
0.0691788 0.2010742 0.8623497
0.0691751 0.2016903 0.8623078
0.0691601 0.2041538 0.8621403
0.0691465 0.2049387 0.8620877
0.0691428 0.2055558 0.8620457
0.0691390 0.2061719 0.8620038
0.0698015 0.2009057 0.8623057
0.0697978 0.2015208 0.8622639
0.0697941 0.2021360 0.8622221
0.0697903 0.2027511 0.8621802
0.0697866 0.2033672 0.8621383
0.0697961 0.2004543 0.8623372
0.0697737 0.2041501 0.8620858
0.0697608 0.2049349 0.8620332
0.0697570 0.2055520 0.8619912
0.0697533 0.2061682 0.8619493
0.0704144 0.2009020 0.8622514
0.0704106 0.2015171 0.8622095
0.0704069 0.2021322 0.8621677
0.0704032 0.2027474 0.8621259
0.0703995 0.2033635 0.8620840
0.0703872 0.2041463 0.8620314
0.0703750 0.2049312 0.8619787
0.0703713 0.2055483 0.8619367
0.0703675 0.2061644 0.8618948
0.0710271 0.2008982 0.8621970
0.0710234 0.2015134 0.8621552
0.0710197 0.2021285 0.8621133
0.0710159 0.2027436 0.8620715
0.0710122 0.2033598 0.8620296
0.0710008 0.2041426 0.8619770
0.0709892 0.2049274 0.8619242
0.0709855 0.2055446 0.8618822
0.0716400 0.2008945 0.8621426
0.0716363 0.2015096 0.8621008
0.0716325 0.2021248 0.8620590
0.0716288 0.2027399 0.8620171
0.0716251 0.2033560 0.8619752
0.0716143 0.2041389 0.8619225
0.0716035 0.2049237 0.8618697
0.0715997 0.2055408 0.8618277
0.0722528 0.2008908 0.8620883
0.0722491 0.2015059 0.8620464
0.0722454 0.2021211 0.8620046
0.0722416 0.2027362 0.8619628
0.0722379 0.2033523 0.8619209
0.0722502 0.2004394 0.8621194
0.0722278 0.2041351 0.8618681
0.0722177 0.2049200 0.8618152
0.0722140 0.2055371 0.8617732
0.0728656 0.2008871 0.8620339
0.0728619 0.2015022 0.8619921
0.0728581 0.2021173 0.8619502
0.0728544 0.2027325 0.8619084
0.0728507 0.2033486 0.8618665
0.0728637 0.2004356 0.8620650
0.0728413 0.2041314 0.8618137
0.0728320 0.2049162 0.8617607
0.0728282 0.2055334 0.8617187
0.0734784 0.2008833 0.8619795
0.0734747 0.2014985 0.8619377
0.0734710 0.2021136 0.8618959
0.0734673 0.2027287 0.8618540
0.0734635 0.2033449 0.8618121
0.0734773 0.2004319 0.8620106
0.0734549 0.2041277 0.8617592
0.0734462 0.2049125 0.8617062
0.0734425 0.2055296 0.8616643
0.0740913 0.2008796 0.8619252
0.0740876 0.2014947 0.8618833
0.0740838 0.2021099 0.8618415
0.0740801 0.2027250 0.8617997
0.0740764 0.2033411 0.8617578
0.0740908 0.2004282 0.8619562
0.0740684 0.2041240 0.8617048
0.0740605 0.2049088 0.8616517
0.0740567 0.2055259 0.8616098
0.0747044 0.2004245 0.8619017
0.0747006 0.2010406 0.8618598
0.0746969 0.2016567 0.8618179
0.0746932 0.2022728 0.8617760
0.0746894 0.2028890 0.8617341
0.0746857 0.2035041 0.8616923
0.0746820 0.2041202 0.8616504
0.0753142 0.2010368 0.8618054
0.0753105 0.2016530 0.8617635
0.0753067 0.2022691 0.8617216
0.0753030 0.2028852 0.8616797
0.0752993 0.2035004 0.8616379
0.0753151 0.2005854 0.8618362
0.0752927 0.2042852 0.8615846
0.0759277 0.2010331 0.8617510
0.0759240 0.2016492 0.8617091
0.0759203 0.2022654 0.8616672
0.0759165 0.2028815 0.8616253
0.0759128 0.2034966 0.8615834
0.0759294 0.2005817 0.8617817
0.0759070 0.2042814 0.8615301
0.0765437 0.2005779 0.8617273
0.0765400 0.2011941 0.8616854
0.0765362 0.2018112 0.8616434
0.0765325 0.2024273 0.8616015
0.0765287 0.2030444 0.8615595
0.0765250 0.2036606 0.8615176
0.0765213 0.2042777 0.8614756
0.0899867 0.2095701 0.8599126
0.0900048 0.2091285 0.8599413
0.0906002 0.2095664 0.8598582
0.0906190 0.2091248 0.8598868
0.0912175 0.2089475 0.8598456
0.0912138 0.2095626 0.8598038
0.0912408 0.2078878 0.8599162
0.0912370 0.2085039 0.8598743
0.0918109 0.2093844 0.8597628
0.0918385 0.2077115 0.8598750
0.0918348 0.2083277 0.8598331
0.0918311 0.2089438 0.8597912
0.0918587 0.2072669 0.8599037
0.0924064 0.2092061 0.8597219
0.0924027 0.2098213 0.8596801
0.0924273 0.2087655 0.8597503
0.0924558 0.2070917 0.8598625
0.0924521 0.2077078 0.8598206
0.0924483 0.2083239 0.8597787
0.0925141 0.2004808 0.8603104
0.0925104 0.2010970 0.8602685
0.0924842 0.2054138 0.8599749
0.0924805 0.2060300 0.8599330
0.0924767 0.2066471 0.8598911
0.0930185 0.2092024 0.8596676
0.0930148 0.2098175 0.8596258
0.0930402 0.2087618 0.8596959
0.0930694 0.2070879 0.8598080
0.0930656 0.2077041 0.8597661
0.0930619 0.2083202 0.8597242
0.0931283 0.2004771 0.8602559
0.0931246 0.2010932 0.8602140
0.0930984 0.2054101 0.8599204
0.0930947 0.2060262 0.8598785
0.0930910 0.2066433 0.8598366
0.0936343 0.2085845 0.8596551
0.0936306 0.2091987 0.8596133
0.0936268 0.2098138 0.8595715
0.0936641 0.2069127 0.8597670
0.0936604 0.2075278 0.8597252
0.0936567 0.2081429 0.8596834
0.0937240 0.2003088 0.8602144
0.0937202 0.2009249 0.8601725
0.0937165 0.2015410 0.8601306
0.0936941 0.2052368 0.8598792
0.0936904 0.2058529 0.8598373
0.0936866 0.2064681 0.8597955
0.0937315 0.2023227 0.8600756
0.0937277 0.2029399 0.8600337
0.0937240 0.2035560 0.8599918
0.0937203 0.2041731 0.8599498
0.0937165 0.2047892 0.8599079
0.0942539 0.2073516 0.8596844
0.0942502 0.2079657 0.8596426
0.0942464 0.2085808 0.8596008
0.0942427 0.2091950 0.8595590
0.0942390 0.2098101 0.8595172
0.0943143 0.2007566 0.8601310
0.0943106 0.2013718 0.8600892
0.0943068 0.2019869 0.8600474
0.0943031 0.2026020 0.8600055
0.0942844 0.2056787 0.8597963
0.0942807 0.2062938 0.8597545
0.0942770 0.2069089 0.8597126
0.0943188 0.2033847 0.8599505
0.0943150 0.2040008 0.8599086
0.0943113 0.2046170 0.8598667
0.0943076 0.2052331 0.8598248
0.0948660 0.2073478 0.8596301
0.0948622 0.2079620 0.8595883
0.0948585 0.2085771 0.8595465
0.0948548 0.2091912 0.8595047
0.0948511 0.2098064 0.8594629
0.0949271 0.2007529 0.8600767
0.0949234 0.2013680 0.8600348
0.0949197 0.2019832 0.8599930
0.0949159 0.2025983 0.8599512
0.0948973 0.2056750 0.8597419
0.0948936 0.2062901 0.8597001
0.0948898 0.2069052 0.8596583
0.0949323 0.2033810 0.8598961
0.0949286 0.2039971 0.8598542
0.0949248 0.2046132 0.8598123
0.0949211 0.2052294 0.8597704
0.0954461 0.2090130 0.8594642
0.0954424 0.2096271 0.8594224
0.0955191 0.2005846 0.8600354
0.0955154 0.2011998 0.8599936
0.0955116 0.2018139 0.8599519
0.0955079 0.2024280 0.8599101
0.0954930 0.2048866 0.8597429
0.0954893 0.2055007 0.8597011
0.0954856 0.2061148 0.8596594
0.0954818 0.2067300 0.8596175
0.0954781 0.2073441 0.8595758
0.0954744 0.2079582 0.8595340
0.0954707 0.2085734 0.8594922
0.0955250 0.2032107 0.8598549
0.0955212 0.2038258 0.8598131
0.0955175 0.2044410 0.8597713
0.0960071 0.2098846 0.8593545
0.0960359 0.2088348 0.8594239
0.0960322 0.2094479 0.8593822
0.0960612 0.2083952 0.8594517
0.0961312 0.2005809 0.8599811
0.0961274 0.2011960 0.8599393
0.0961237 0.2018102 0.8598976
0.0961200 0.2024243 0.8598558
0.0961163 0.2030394 0.8598140
0.0961125 0.2036536 0.8597722
0.0961088 0.2042677 0.8597304
0.0961051 0.2048828 0.8596886
0.0961014 0.2054970 0.8596468
0.0960976 0.2061111 0.8596051
0.0960939 0.2067262 0.8595632
0.0960902 0.2073404 0.8595215
0.0960865 0.2079545 0.8594797
0.0966170 0.2098809 0.8593004
0.0966466 0.2088311 0.8593697
0.0966429 0.2094442 0.8593280
0.0966727 0.2083914 0.8593975
0.0967433 0.2005772 0.8599268
0.0967396 0.2011923 0.8598850
0.0967359 0.2018064 0.8598432
0.0967321 0.2024206 0.8598015
0.0967284 0.2030357 0.8597596
0.0967247 0.2036498 0.8597179
0.0967210 0.2042640 0.8596761
0.0967172 0.2048791 0.8596343
0.0967135 0.2054933 0.8595925
0.0967098 0.2061074 0.8595507
0.0967061 0.2067225 0.8595089
0.0967023 0.2073367 0.8594672
0.0966986 0.2079508 0.8594254
0.0972344 0.2086529 0.8593295
0.0972307 0.2092650 0.8592879
0.0972270 0.2098772 0.8592462
0.0972610 0.2082142 0.8593572
0.0973324 0.2004089 0.8598859
0.0973287 0.2010230 0.8598441
0.0972989 0.2059332 0.8595102
0.0972952 0.2065473 0.8594684
0.0972915 0.2071604 0.8594267
0.0972877 0.2077746 0.8593850
0.0973479 0.2018027 0.8597889
0.0973442 0.2024169 0.8597472
0.0973405 0.2030320 0.8597053
0.0973367 0.2036461 0.8596636
0.0973330 0.2042603 0.8596218
0.0973293 0.2048754 0.8595800
0.0973256 0.2054895 0.8595382
0.0978133 0.2096980 0.8592063
0.0978443 0.2086492 0.8592754
0.0978406 0.2092613 0.8592338
0.0978718 0.2082105 0.8593030
0.0979438 0.2004052 0.8598316
0.0979400 0.2010193 0.8597899
0.0979326 0.2022466 0.8597064
0.0979289 0.2028607 0.8596646
0.0979177 0.2047022 0.8595394
0.0979140 0.2053153 0.8594977
0.0979103 0.2059294 0.8594559
0.0979066 0.2065436 0.8594142
0.0979028 0.2071567 0.8593725
0.0978991 0.2077709 0.8593307
0.0979601 0.2017990 0.8597346
0.0979489 0.2036424 0.8596093
0.0979452 0.2042565 0.8595675
0.0984225 0.2096943 0.8591522
0.0984543 0.2086454 0.8592213
0.0984506 0.2092576 0.8591796
0.0984824 0.2082068 0.8592488
0.0985551 0.2004015 0.8597774
0.0985514 0.2010156 0.8597356
0.0985440 0.2022429 0.8596522
0.0985402 0.2028570 0.8596104
0.0985291 0.2046984 0.8594852
0.0985254 0.2053116 0.8594435
0.0985216 0.2059257 0.8594017
0.0985179 0.2065399 0.8593599
0.0985142 0.2071530 0.8593182
0.0985105 0.2077671 0.8592765
0.0985721 0.2017953 0.8596803
0.0985610 0.2036387 0.8595550
0.0985572 0.2042528 0.8595132
0.0990030 0.2101252 0.8590709
0.0990318 0.2096906 0.8590982
0.0990680 0.2080296 0.8592088
0.0990643 0.2086417 0.8591672
0.0990606 0.2092539 0.8591255
0.0991006 0.2069768 0.8592781
0.0990968 0.2075899 0.8592364
0.0991665 0.2003978 0.8597232
0.0991628 0.2010119 0.8596814
0.0991553 0.2022392 0.8595979
0.0991516 0.2028533 0.8595562
0.0991479 0.2034665 0.8595145
0.0991442 0.2040806 0.8594727
0.0991404 0.2046947 0.8594309
0.0991367 0.2053079 0.8593892
0.0991330 0.2059220 0.8593475
0.0991293 0.2065361 0.8593057
0.0991842 0.2017916 0.8596260
0.0996115 0.2101215 0.8590170
0.0996484 0.2084636 0.8591273
0.0996447 0.2090747 0.8590858
0.0996410 0.2096869 0.8590441
0.0996853 0.2068006 0.8592380
0.0996816 0.2074127 0.8591964
0.0996779 0.2080259 0.8591547
0.0997187 0.2057468 0.8593073
0.0997149 0.2063599 0.8592656
0.0997780 0.2003940 0.8596689
0.0997742 0.2010082 0.8596271
0.0997668 0.2022355 0.8595437
0.0997631 0.2028496 0.8595019
0.0997594 0.2034627 0.8594602
0.0997556 0.2040769 0.8594184
0.0997519 0.2046910 0.8593767
0.0997482 0.2053041 0.8593350
0.0997964 0.2017878 0.8595717
0.1002201 0.2101178 0.8589630
0.1002577 0.2084599 0.8590733
0.1002540 0.2090710 0.8590317
0.1002502 0.2096831 0.8589901
0.1002953 0.2067969 0.8591839
0.1002916 0.2074090 0.8591423
0.1002879 0.2080222 0.8591006
0.1003293 0.2057431 0.8592531
0.1003256 0.2063562 0.8592114
0.1003893 0.2003903 0.8596147
0.1003856 0.2010045 0.8595729
0.1003782 0.2022317 0.8594894
0.1003744 0.2028459 0.8594477
0.1003670 0.2040732 0.8593642
0.1003633 0.2046873 0.8593224
0.1003596 0.2053004 0.8592807
0.1004085 0.2017841 0.8595174
0.1003973 0.2036275 0.8593921
0.1008401 0.2082817 0.8590336
0.1008364 0.2088918 0.8589921
0.1008327 0.2095030 0.8589505
0.1008704 0.2078440 0.8590609
0.1009054 0.2067932 0.8591298
0.1009017 0.2074053 0.8590881
0.1009404 0.2057394 0.8591989
0.1009367 0.2063525 0.8591572
0.1010005 0.2003866 0.8595604
0.1009968 0.2010007 0.8595187
0.1009893 0.2022280 0.8594352
0.1009856 0.2028422 0.8593935
0.1009819 0.2034553 0.8593518
0.1009782 0.2040694 0.8593100
0.1009744 0.2046836 0.8592682
0.1009707 0.2052967 0.8592265
0.1010207 0.2017804 0.8594631
0.1014483 0.2082780 0.8589796
0.1014446 0.2088881 0.8589381
0.1014408 0.2094993 0.8588965
0.1014795 0.2078403 0.8590068
0.1015193 0.2061773 0.8591173
0.1015155 0.2067895 0.8590756
0.1015118 0.2074016 0.8590340
0.1015580 0.2045104 0.8592281
0.1015543 0.2051235 0.8591864
0.1015506 0.2057357 0.8591448
0.1016117 0.2003829 0.8595062
0.1016079 0.2009970 0.8594645
0.1016005 0.2022243 0.8593810
0.1015968 0.2028384 0.8593392
0.1015931 0.2034516 0.8592975
0.1015893 0.2040657 0.8592558
0.1016328 0.2017767 0.8594088
0.1020564 0.2082743 0.8589256
0.1020527 0.2088844 0.8588842
0.1020490 0.2094956 0.8588426
0.1020453 0.2101067 0.8588010
0.1020887 0.2078366 0.8589528
0.1021284 0.2061736 0.8590632
0.1021247 0.2067858 0.8590216
0.1021210 0.2073979 0.8589800
0.1021692 0.2045067 0.8591739
0.1021654 0.2051198 0.8591322
0.1021617 0.2057319 0.8590905
0.1022127 0.2022206 0.8593267
0.1022089 0.2028347 0.8592849
0.1022052 0.2034479 0.8592432
0.1022015 0.2040620 0.8592015
0.1022524 0.2005437 0.8594381
0.1022487 0.2011588 0.8593963
0.1022450 0.2017729 0.8593545
0.1026656 0.2082706 0.8588716
0.1026619 0.2088807 0.8588301
0.1026582 0.2094919 0.8587885
0.1026545 0.2101030 0.8587470
0.1027053 0.2066096 0.8589819
0.1027016 0.2072217 0.8589403
0.1026979 0.2078329 0.8588987
0.1027386 0.2061699 0.8590091
0.1027793 0.2045029 0.8591197
0.1027756 0.2051161 0.8590780
0.1027719 0.2057282 0.8590364
0.1028238 0.2022169 0.8592725
0.1028201 0.2028310 0.8592307
0.1028164 0.2034441 0.8591890
0.1028127 0.2040583 0.8591472
0.1028646 0.2005399 0.8593838
0.1028609 0.2011551 0.8593419
0.1028572 0.2017692 0.8593002
0.1032738 0.2082669 0.8588176
0.1032701 0.2088770 0.8587762
0.1032664 0.2094882 0.8587346
0.1032627 0.2100993 0.8586930
0.1033155 0.2066059 0.8589278
0.1033118 0.2072180 0.8588862
0.1033081 0.2078292 0.8588446
0.1033488 0.2061662 0.8589550
0.1034238 0.2040546 0.8590930
0.1034201 0.2046687 0.8590513
0.1034164 0.2052818 0.8590096
0.1034127 0.2058960 0.8589678
0.1034768 0.2005362 0.8593295
0.1034730 0.2011514 0.8592876
0.1034693 0.2017655 0.8592459
0.1034656 0.2023796 0.8592041
0.1034619 0.2029948 0.8591623
0.1034581 0.2036089 0.8591205
0.1038820 0.2082632 0.8587637
0.1038783 0.2088733 0.8587222
0.1038746 0.2094845 0.8586806
0.1038709 0.2100956 0.8586391
0.1039173 0.2078255 0.8587906
0.1039553 0.2067746 0.8588592
0.1039515 0.2073868 0.8588176
0.1040350 0.2040508 0.8590388
0.1040313 0.2046650 0.8589970
0.1040889 0.2005325 0.8592752
0.1040852 0.2011476 0.8592333
0.1040815 0.2017618 0.8591916
0.1040778 0.2023759 0.8591498
0.1040740 0.2029910 0.8591080
0.1040703 0.2036052 0.8590662
0.1044912 0.2082595 0.8587096
0.1044875 0.2088696 0.8586682
0.1044838 0.2094808 0.8586266
0.1044801 0.2100919 0.8585850
0.1045264 0.2078218 0.8587365
0.1045654 0.2067709 0.8588051
0.1045617 0.2073831 0.8587634
0.1047011 0.2005288 0.8592209
0.1046974 0.2011439 0.8591790
0.1046936 0.2017580 0.8591373
0.1046899 0.2023722 0.8590955
0.1046862 0.2029873 0.8590537
0.1046825 0.2036015 0.8590119
0.1046787 0.2042156 0.8589701
0.1050994 0.2082558 0.8586557
0.1050957 0.2088659 0.8586142
0.1050920 0.2094771 0.8585726
0.1050883 0.2100882 0.8585311
0.1053123 0.2005251 0.8591666
0.1053085 0.2011402 0.8591248
0.1053048 0.2017543 0.8590830
0.1053011 0.2023685 0.8590413
0.1052974 0.2029836 0.8589994
0.1052936 0.2035977 0.8589577
0.1052899 0.2042119 0.8589159
0.1059580 0.2006858 0.8590981
0.1059543 0.2013009 0.8590562
0.1059505 0.2019161 0.8590144
0.1059468 0.2025312 0.8589726
0.1059431 0.2031473 0.8589307
0.1065712 0.2006821 0.8590437
0.1071833 0.2006784 0.8589893
0.0482322 0.2099987 0.8636050
0.0482284 0.2106158 0.8635630
0.0482247 0.2112319 0.8635211
0.0482209 0.2118490 0.8634792
0.0488464 0.2099949 0.8635505
0.0488427 0.2106120 0.8635085
0.0488389 0.2112282 0.8634666
0.0488352 0.2118453 0.8634247
0.0488315 0.2124614 0.8633828
0.0494606 0.2099912 0.8634960
0.0494569 0.2106083 0.8634540
0.0494532 0.2112244 0.8634121
0.0494494 0.2118416 0.8633702
0.0494457 0.2124577 0.8633283
0.0494420 0.2130748 0.8632863
0.0494382 0.2136919 0.8632443
0.0501032 0.2104288 0.8634087
0.0500957 0.2116610 0.8633249
0.0500920 0.2122771 0.8632830
0.0500674 0.2112207 0.8633576
0.0500562 0.2130711 0.8632318
0.0500525 0.2136882 0.8631898
0.0507167 0.2104250 0.8633543
0.0507130 0.2110411 0.8633124
0.0507093 0.2116573 0.8632705
0.0507055 0.2122734 0.8632286
0.0506704 0.2130673 0.8631773
0.0506667 0.2136845 0.8631353
0.0513303 0.2104213 0.8632999
0.0513266 0.2110374 0.8632580
0.0513228 0.2116535 0.8632161
0.0513191 0.2122697 0.8631742
0.0512847 0.2130636 0.8631228
0.0512809 0.2136807 0.8630809
0.0519438 0.2104176 0.8632454
0.0519401 0.2110337 0.8632035
0.0519364 0.2116498 0.8631616
0.0519027 0.2124427 0.8631103
0.0518989 0.2130599 0.8630683
0.0518952 0.2136770 0.8630264
0.0525574 0.2104138 0.8631910
0.0525537 0.2110300 0.8631491
0.0525499 0.2116461 0.8631072
0.0525169 0.2124390 0.8630558
0.0525132 0.2130561 0.8630138
0.0525094 0.2136733 0.8629719
0.0531461 0.2099688 0.8631691
0.0531424 0.2105859 0.8631271
0.0531386 0.2112020 0.8630852
0.0531349 0.2118191 0.8630432
0.0531312 0.2124353 0.8630013
0.0537603 0.2099650 0.8631146
0.0537566 0.2105822 0.8630726
0.0537529 0.2111983 0.8630307
0.0537491 0.2118154 0.8629887
0.0537454 0.2124315 0.8629468
0.0543746 0.2099613 0.8630601
0.0543708 0.2105784 0.8630181
0.0543671 0.2111946 0.8629762
0.0543634 0.2118117 0.8629342
0.0543596 0.2124278 0.8628923
0.0549888 0.2099576 0.8630056
0.0556031 0.2099538 0.8629511
0.0562173 0.2099501 0.8628966
0.0856827 0.2128544 0.8600711
0.0856789 0.2134715 0.8600292
0.0856752 0.2140877 0.8599873
0.0856715 0.2147048 0.8599453
0.0856677 0.2153209 0.8599034
0.0856640 0.2159380 0.8598614
0.0856602 0.2165542 0.8598195
0.0856565 0.2171713 0.8597776
0.0856528 0.2177874 0.8597357
0.0863044 0.2116174 0.8601005
0.0863007 0.2122336 0.8600586
0.0862969 0.2128507 0.8600167
0.0862932 0.2134678 0.8599747
0.0862894 0.2140839 0.8599328
0.0862857 0.2147011 0.8598908
0.0862820 0.2153172 0.8598489
0.0862782 0.2159343 0.8598069
0.0862745 0.2165504 0.8597650
0.0862708 0.2171676 0.8597231
0.0862670 0.2177837 0.8596812
0.0869186 0.2116137 0.8600460
0.0869149 0.2122298 0.8600041
0.0869112 0.2128470 0.8599622
0.0869074 0.2134641 0.8599202
0.0869037 0.2140802 0.8598783
0.0868999 0.2146973 0.8598363
0.0868962 0.2153135 0.8597944
0.0868925 0.2159306 0.8597525
0.0868887 0.2165467 0.8597106
0.0868850 0.2171638 0.8596686
0.0868813 0.2177800 0.8596267
0.0875214 0.2114334 0.8600047
0.0875176 0.2120495 0.8599628
0.0875139 0.2126647 0.8599209
0.0875102 0.2132808 0.8598790
0.0875064 0.2138969 0.8598371
0.0875027 0.2145131 0.8597952
0.0874990 0.2151282 0.8597534
0.0874953 0.2157443 0.8597115
0.0875366 0.2109928 0.8600335
0.0875030 0.2165430 0.8596561
0.0874992 0.2171601 0.8596141
0.0874955 0.2177762 0.8595722
0.0881153 0.2124834 0.8598798
0.0881116 0.2130985 0.8598379
0.0881041 0.2143288 0.8597543
0.0881004 0.2149439 0.8597124
0.0881349 0.2114297 0.8599502
0.0881312 0.2120458 0.8599083
0.0881200 0.2138932 0.8597827
0.0881088 0.2157406 0.8596571
0.0881051 0.2163567 0.8596152
0.0881013 0.2169728 0.8595733
0.0881583 0.2097559 0.8600629
0.0881546 0.2103730 0.8600209
0.0881509 0.2109891 0.8599790
0.0881097 0.2177725 0.8595177
0.0887280 0.2124797 0.8598254
0.0887243 0.2130948 0.8597836
0.0887169 0.2143251 0.8596999
0.0887131 0.2149402 0.8596581
0.0887485 0.2114260 0.8598958
0.0887447 0.2120421 0.8598539
0.0887335 0.2138895 0.8597283
0.0887223 0.2157369 0.8596026
0.0887186 0.2163530 0.8595607
0.0887149 0.2169691 0.8595188
0.0887726 0.2097521 0.8600084
0.0887688 0.2103692 0.8599664
0.0887651 0.2109854 0.8599245
0.0887240 0.2177688 0.8594632
0.0893484 0.2112447 0.8598548
0.0893446 0.2118608 0.8598129
0.0893409 0.2124759 0.8597710
0.0893372 0.2130911 0.8597292
0.0893334 0.2137062 0.8596874
0.0893297 0.2143213 0.8596455
0.0893260 0.2149365 0.8596037
0.0893222 0.2155516 0.8595619
0.0893658 0.2108061 0.8598833
0.0893322 0.2163493 0.8595063
0.0893284 0.2169654 0.8594644
0.0893868 0.2097484 0.8599539
0.0893831 0.2103655 0.8599119
0.0893382 0.2177650 0.8594087
0.0899394 0.2122937 0.8597302
0.0899357 0.2129078 0.8596884
0.0899319 0.2135230 0.8596466
0.0899282 0.2141371 0.8596048
0.0899649 0.2106258 0.8598422
0.0899612 0.2112410 0.8598004
0.0899575 0.2118571 0.8597585
0.0899388 0.2149327 0.8595493
0.0899351 0.2155479 0.8595075
0.0899314 0.2161630 0.8594657
0.0899276 0.2167781 0.8594238
0.0899829 0.2101862 0.8598707
0.0899525 0.2177613 0.8593542
0.0905514 0.2122900 0.8596759
0.0905477 0.2129041 0.8596341
0.0905440 0.2135192 0.8595923
0.0905403 0.2141334 0.8595505
0.0905777 0.2106221 0.8597879
0.0905740 0.2112372 0.8597460
0.0905702 0.2118534 0.8597041
0.0905516 0.2149290 0.8594950
0.0905479 0.2155442 0.8594531
0.0905441 0.2161593 0.8594113
0.0905404 0.2167744 0.8593695
0.0905965 0.2101825 0.8598163
0.0905517 0.2175740 0.8593136
0.0905630 0.2183747 0.8592578
0.0905592 0.2189908 0.8592159
0.0911711 0.2110570 0.8597052
0.0911673 0.2116721 0.8596633
0.0911636 0.2122862 0.8596216
0.0911599 0.2129004 0.8595798
0.0911562 0.2135155 0.8595380
0.0911524 0.2141297 0.8594962
0.0911487 0.2147438 0.8594544
0.0911450 0.2153589 0.8594126
0.0911905 0.2106184 0.8597335
0.0911570 0.2161556 0.8593569
0.0911533 0.2167707 0.8593151
0.0912100 0.2101788 0.8597619
0.0911652 0.2175703 0.8592592
0.0911772 0.2183709 0.8592033
0.0911735 0.2189871 0.8591614
0.0917592 0.2121040 0.8595810
0.0917555 0.2127181 0.8595392
0.0917518 0.2133313 0.8594975
0.0917481 0.2139454 0.8594557
0.0917868 0.2104391 0.8596926
0.0917831 0.2110533 0.8596509
0.0917794 0.2116684 0.8596090
0.0917608 0.2147401 0.8594001
0.0917570 0.2153552 0.8593583
0.0918071 0.2099995 0.8597209
0.0917698 0.2161518 0.8593025
0.0917661 0.2167670 0.8592607
0.0917788 0.2175666 0.8592048
0.0917915 0.2183672 0.8591488
0.0917877 0.2189833 0.8591069
0.0923706 0.2121003 0.8595267
0.0923669 0.2127144 0.8594850
0.0923631 0.2133276 0.8594433
0.0923594 0.2139417 0.8594015
0.0923557 0.2145558 0.8593597
0.0923990 0.2104354 0.8596383
0.0923953 0.2110495 0.8595965
0.0923915 0.2116647 0.8595547
0.0923692 0.2153515 0.8593040
0.0923655 0.2159656 0.8592622
0.0923618 0.2165798 0.8592205
0.0923923 0.2175629 0.8591503
0.0924057 0.2183635 0.8590943
0.0924020 0.2189796 0.8590524
0.0929894 0.2108693 0.8595559
0.0929857 0.2114834 0.8595142
0.0929819 0.2120966 0.8594725
0.0929782 0.2127107 0.8594307
0.0929745 0.2133239 0.8593890
0.0929708 0.2139380 0.8593473
0.0929671 0.2145521 0.8593055
0.0930111 0.2104317 0.8595840
0.0929813 0.2153478 0.8592497
0.0929775 0.2159619 0.8592079
0.0929738 0.2165760 0.8591662
0.0930059 0.2175591 0.8590959
0.0930199 0.2183597 0.8590398
0.0930162 0.2189759 0.8589979
0.0935821 0.2106891 0.8595155
0.0935784 0.2113022 0.8594738
0.0935747 0.2119144 0.8594321
0.0935710 0.2125275 0.8593904
0.0935673 0.2131406 0.8593487
0.0935635 0.2137538 0.8593070
0.0935598 0.2143669 0.8592654
0.0936045 0.2102514 0.8595435
0.0935747 0.2151616 0.8592096
0.0935896 0.2159582 0.8591536
0.0935859 0.2165723 0.8591119
0.0936007 0.2173709 0.8590558
0.0941660 0.2117331 0.8593919
0.0941623 0.2123453 0.8593502
0.0941586 0.2129574 0.8593086
0.0941549 0.2135696 0.8592670
0.0936343 0.2183560 0.8589853
0.0936306 0.2189721 0.8589434
0.0941928 0.2106854 0.8594613
0.0941891 0.2112985 0.8594196
0.0941705 0.2143632 0.8592112
0.0942159 0.2102477 0.8594892
0.0941862 0.2151578 0.8591553
0.0942018 0.2159544 0.8590993
0.0941980 0.2165686 0.8590575
0.0942136 0.2173672 0.8590014
0.0942292 0.2181668 0.8589452
0.0942254 0.2187829 0.8589033
0.0947760 0.2117294 0.8593377
0.0947723 0.2123416 0.8592961
0.0947686 0.2129537 0.8592545
0.0947649 0.2135659 0.8592129
0.0948035 0.2106816 0.8594071
0.0947997 0.2112948 0.8593654
0.0947812 0.2143595 0.8591570
0.0948273 0.2102440 0.8594350
0.0947975 0.2151541 0.8591011
0.0948138 0.2159507 0.8590450
0.0948101 0.2165649 0.8590032
0.0948264 0.2173635 0.8589470
0.0948427 0.2181631 0.8588908
0.0948390 0.2187792 0.8588489
0.0953934 0.2105004 0.8593670
0.0953897 0.2111136 0.8593253
0.0953860 0.2117257 0.8592836
0.0953823 0.2123379 0.8592420
0.0953786 0.2129500 0.8592004
0.0953749 0.2135622 0.8591587
0.0953711 0.2141743 0.8591171
0.0954178 0.2100648 0.8593946
0.0953881 0.2149689 0.8590611
0.0954052 0.2157645 0.8590051
0.0954015 0.2163787 0.8589633
0.0954185 0.2171763 0.8589071
0.0954355 0.2179749 0.8588509
0.0954317 0.2185900 0.8588090
0.0959745 0.2115435 0.8592437
0.0959707 0.2121557 0.8592020
0.0960034 0.2104967 0.8593128
0.0959997 0.2111099 0.8592711
0.0959885 0.2129463 0.8591463
0.0959848 0.2135585 0.8591046
0.0959811 0.2141706 0.8590630
0.0959774 0.2147837 0.8590213
0.0959737 0.2153959 0.8589797
0.0959914 0.2161915 0.8589236
0.0960306 0.2171726 0.8588528
0.0960483 0.2179711 0.8587965
0.0960446 0.2185863 0.8587547
0.0965836 0.2115398 0.8591896
0.0965799 0.2121520 0.8591480
0.0966133 0.2104930 0.8592587
0.0966095 0.2111062 0.8592170
0.0965984 0.2129426 0.8590921
0.0965947 0.2135547 0.8590505
0.0965910 0.2141669 0.8590089
0.0965873 0.2147800 0.8589672
0.0965836 0.2153922 0.8589256
0.0966020 0.2161878 0.8588694
0.0966427 0.2171688 0.8587985
0.0966612 0.2179674 0.8587421
0.0966575 0.2185825 0.8587003
0.0972003 0.2103128 0.8592188
0.0971966 0.2109250 0.8591771
0.0971929 0.2115361 0.8591356
0.0971892 0.2121483 0.8590939
0.0971855 0.2127594 0.8590524
0.0971818 0.2133706 0.8590108
0.0971781 0.2139827 0.8589692
0.0971973 0.2147763 0.8589131
0.0971935 0.2153885 0.8588714
0.0972127 0.2161841 0.8588152
0.0972319 0.2169807 0.8587589
0.0972511 0.2177792 0.8587024
0.0972474 0.2183934 0.8586607
0.0977785 0.2113539 0.8590959
0.0977748 0.2119651 0.8590543
0.0972665 0.2191940 0.8586041
0.0978096 0.2103091 0.8591647
0.0978059 0.2109213 0.8591231
0.0977948 0.2127557 0.8589983
0.0977911 0.2133669 0.8589568
0.0977874 0.2139790 0.8589151
0.0978072 0.2147726 0.8588590
0.0978035 0.2153848 0.8588173
0.0977998 0.2159969 0.8587757
0.0978433 0.2169769 0.8587046
0.0978632 0.2177755 0.8586481
0.0978595 0.2183897 0.8586064
0.0978558 0.2190048 0.8585645
0.0983870 0.2113502 0.8590419
0.0983833 0.2119614 0.8590003
0.0984188 0.2103054 0.8591107
0.0984151 0.2109176 0.8590690
0.0984040 0.2127520 0.8589443
0.0984003 0.2133632 0.8589027
0.0983966 0.2139753 0.8588611
0.0984172 0.2147689 0.8588048
0.0984135 0.2153811 0.8587632
0.0984098 0.2159932 0.8587216
0.0984547 0.2169732 0.8586504
0.0984753 0.2177718 0.8585938
0.0984716 0.2183859 0.8585521
0.0984678 0.2190011 0.8585102
0.0989993 0.2107364 0.8590294
0.0989956 0.2113465 0.8589879
0.0989919 0.2119577 0.8589463
0.0989882 0.2125688 0.8589048
0.0989845 0.2131800 0.8588632
0.0990058 0.2139716 0.8588070
0.0990021 0.2145828 0.8587655
0.0989984 0.2151949 0.8587238
0.0990198 0.2159895 0.8586675
0.0990411 0.2167861 0.8586110
0.0990874 0.2177681 0.8585395
0.0990836 0.2183822 0.8584978
0.0990799 0.2189973 0.8584559
0.0996078 0.2107327 0.8589754
0.0996041 0.2113428 0.8589339
0.0996004 0.2119540 0.8588923
0.0995967 0.2125651 0.8588508
0.0995930 0.2131763 0.8588092
0.0996150 0.2139679 0.8587530
0.0996113 0.2145790 0.8587114
0.0996076 0.2151912 0.8586698
0.0996296 0.2159858 0.8586134
0.0996518 0.2167824 0.8585568
0.0996738 0.2175799 0.8585002
0.0996701 0.2181931 0.8584585
0.0996921 0.2189936 0.8584016
0.1002164 0.2107290 0.8589214
0.1002127 0.2113391 0.8588799
0.1002090 0.2119503 0.8588383
0.1002053 0.2125614 0.8587968
0.1002016 0.2131726 0.8587552
0.1002243 0.2139642 0.8586989
0.1002470 0.2147578 0.8586425
0.1002433 0.2153699 0.8586009
0.1002396 0.2159821 0.8585592
0.1002624 0.2167786 0.8585026
0.1002851 0.2175762 0.8584459
0.1002814 0.2181893 0.8584042
0.1003042 0.2189899 0.8583473
0.1008178 0.2119466 0.8587843
0.1008141 0.2125577 0.8587428
0.1008104 0.2131689 0.8587012
0.1008333 0.2139605 0.8586449
0.1008296 0.2145716 0.8586033
0.1008259 0.2151838 0.8585617
0.1008497 0.2159784 0.8585051
0.1008460 0.2165905 0.8584635
0.1008698 0.2173881 0.8584067
0.1008661 0.2180012 0.8583650
0.1008889 0.2187998 0.8583082
0.1014260 0.2119429 0.8587304
0.1014223 0.2125540 0.8586888
0.1014186 0.2131652 0.8586472
0.1014425 0.2139568 0.8585909
0.1014388 0.2145679 0.8585493
0.1014351 0.2151801 0.8585077
0.1014599 0.2159746 0.8584510
0.1014562 0.2165868 0.8584094
0.1014800 0.2173844 0.8583526
0.1014762 0.2179975 0.8583109
0.1015000 0.2187961 0.8582540
0.1014963 0.2194102 0.8582122
0.1020416 0.2107179 0.8587595
0.1020379 0.2113280 0.8587180
0.1020342 0.2119392 0.8586764
0.1020305 0.2125503 0.8586348
0.1020268 0.2131615 0.8585933
0.1020516 0.2139531 0.8585368
0.1020765 0.2147467 0.8584802
0.1020728 0.2153588 0.8584386
0.1020690 0.2159709 0.8583969
0.1020948 0.2167675 0.8583400
0.1021196 0.2175651 0.8582832
0.1021159 0.2181782 0.8582415
0.1021122 0.2187923 0.8581997
0.1021085 0.2194065 0.8581579
0.1026508 0.2107142 0.8587054
0.1026471 0.2113243 0.8586639
0.1026434 0.2119355 0.8586224
0.1026397 0.2125466 0.8585808
0.1026360 0.2131578 0.8585392
0.1026608 0.2139494 0.8584828
0.1026571 0.2145605 0.8584412
0.1026534 0.2151727 0.8583996
0.1026792 0.2159672 0.8583428
0.1026755 0.2165794 0.8583012
0.1027013 0.2173769 0.8582442
0.1026976 0.2179901 0.8582025
0.1027234 0.2187886 0.8581455
0.1032590 0.2107105 0.8586515
0.1032553 0.2113206 0.8586100
0.1032516 0.2119318 0.8585684
0.1032784 0.2127224 0.8585118
0.1032747 0.2133335 0.8584703
0.1032710 0.2139457 0.8584286
0.1032673 0.2145568 0.8583871
0.1032636 0.2151690 0.8583454
0.1032894 0.2159635 0.8582887
0.1032857 0.2165757 0.8582470
0.1033125 0.2173732 0.8581900
0.1033088 0.2179864 0.8581483
0.1033345 0.2187849 0.8580913
0.1038672 0.2107068 0.8585975
0.1038635 0.2113169 0.8585560
0.1038913 0.2121075 0.8584993
0.1038876 0.2127187 0.8584578
0.1038839 0.2133298 0.8584162
0.1038802 0.2139420 0.8583746
0.1039070 0.2147355 0.8583178
0.1039033 0.2153477 0.8582762
0.1038996 0.2159598 0.8582345
0.1038959 0.2165720 0.8581929
0.1039226 0.2173695 0.8581359
0.1039189 0.2179826 0.8580942
0.1039152 0.2185948 0.8580525
0.1039420 0.2193953 0.8579953
0.1044764 0.2107031 0.8585435
0.1044727 0.2113132 0.8585020
0.1045005 0.2121038 0.8584453
0.1044968 0.2127150 0.8584037
0.1044931 0.2133261 0.8583622
0.1044894 0.2139383 0.8583205
0.1045172 0.2147318 0.8582637
0.1045135 0.2153440 0.8582220
0.1045097 0.2159561 0.8581804
0.1045060 0.2165682 0.8581388
0.1045338 0.2173658 0.8580816
0.1045301 0.2179789 0.8580399
0.1045264 0.2185911 0.8579983
0.1045541 0.2193916 0.8579410
0.1050846 0.2106994 0.8584895
0.1050809 0.2113095 0.8584480
0.1051097 0.2121001 0.8583913
0.1051060 0.2127113 0.8583497
0.1051023 0.2133224 0.8583081
0.1050986 0.2139345 0.8582665
0.1051264 0.2147281 0.8582096
0.1051226 0.2153403 0.8581680
0.1051189 0.2159524 0.8581264
0.1051152 0.2165645 0.8580847
0.1051440 0.2173621 0.8580275
0.1051403 0.2179752 0.8579858
0.1051366 0.2185874 0.8579442
0.1051653 0.2193879 0.8578867
0.1057226 0.2114843 0.8583788
0.1057189 0.2120964 0.8583372
0.1057477 0.2128870 0.8582805
0.1057440 0.2134991 0.8582388
0.1057402 0.2141113 0.8581972
0.1057365 0.2147244 0.8581555
0.1057328 0.2153365 0.8581139
0.1057626 0.2161321 0.8580567
0.1057589 0.2167452 0.8580150
0.1057876 0.2175427 0.8579578
0.1057839 0.2181559 0.8579161
0.1057802 0.2187700 0.8578743
0.1057765 0.2193842 0.8578325
0.0776339 0.2233861 0.8600667
0.0776301 0.2240022 0.8600247
0.0776264 0.2246194 0.8599828
0.0776227 0.2252355 0.8599409
0.0776189 0.2258526 0.8598989
0.0776152 0.2264687 0.8598570
0.0776114 0.2270859 0.8598150
0.0776077 0.2277020 0.8597731
0.0776040 0.2283191 0.8597312
0.0776002 0.2289352 0.8596893
0.0782481 0.2233824 0.8600122
0.0782444 0.2239985 0.8599703
0.0782406 0.2246156 0.8599283
0.0782369 0.2252318 0.8598864
0.0782332 0.2258489 0.8598444
0.0782294 0.2264650 0.8598025
0.0782257 0.2270821 0.8597605
0.0782220 0.2276983 0.8597186
0.0782182 0.2283154 0.8596767
0.0782145 0.2289315 0.8596348
0.0788661 0.2227615 0.8599996
0.0788624 0.2233786 0.8599577
0.0788586 0.2239948 0.8599158
0.0788549 0.2246119 0.8598738
0.0788511 0.2252280 0.8598319
0.0788474 0.2258451 0.8597899
0.0788437 0.2264613 0.8597480
0.0788399 0.2270784 0.8597061
0.0788362 0.2276945 0.8596642
0.0788325 0.2283116 0.8596222
0.0788287 0.2289278 0.8595803
0.0794878 0.2215245 0.8600290
0.0794841 0.2221417 0.8599870
0.0794803 0.2227578 0.8599451
0.0794766 0.2233749 0.8599032
0.0794729 0.2239910 0.8598613
0.0794691 0.2246082 0.8598193
0.0794654 0.2252243 0.8597774
0.0794617 0.2258414 0.8597354
0.0794579 0.2264575 0.8596935
0.0794542 0.2270747 0.8596516
0.0794504 0.2276908 0.8596097
0.0794467 0.2283079 0.8595677
0.0794430 0.2289240 0.8595258
0.0801021 0.2215208 0.8599745
0.0800983 0.2221379 0.8599325
0.0800946 0.2227541 0.8598906
0.0800908 0.2233712 0.8598487
0.0800871 0.2239873 0.8598068
0.0800834 0.2246044 0.8597648
0.0800796 0.2252206 0.8597229
0.0800759 0.2258377 0.8596809
0.0800722 0.2264538 0.8596390
0.0800684 0.2270709 0.8595971
0.0800647 0.2276871 0.8595552
0.0800609 0.2283042 0.8595132
0.0800572 0.2289203 0.8594713
0.0807163 0.2215171 0.8599200
0.0807126 0.2221342 0.8598781
0.0807088 0.2227503 0.8598362
0.0807051 0.2233674 0.8597942
0.0807014 0.2239836 0.8597523
0.0806976 0.2246007 0.8597103
0.0806939 0.2252168 0.8596684
0.0806901 0.2258339 0.8596264
0.0806864 0.2264501 0.8595845
0.0806827 0.2270672 0.8595426
0.0806789 0.2276833 0.8595007
0.0806752 0.2283004 0.8594587
0.0806715 0.2289166 0.8594168
0.0813305 0.2215133 0.8598655
0.0813268 0.2221305 0.8598236
0.0813231 0.2227466 0.8597817
0.0813193 0.2233637 0.8597397
0.0813156 0.2239798 0.8596978
0.0813119 0.2245970 0.8596558
0.0813081 0.2252131 0.8596139
0.0813044 0.2258302 0.8595720
0.0813006 0.2264463 0.8595300
0.0812969 0.2270635 0.8594881
0.0812932 0.2276796 0.8594462
0.0812857 0.2289128 0.8593623
0.0819485 0.2208935 0.8598529
0.0819448 0.2215096 0.8598110
0.0819410 0.2221267 0.8597691
0.0819373 0.2227428 0.8597272
0.0819336 0.2233600 0.8596852
0.0819298 0.2239761 0.8596433
0.0819261 0.2245932 0.8596013
0.0819224 0.2252093 0.8595594
0.0819186 0.2258265 0.8595175
0.0819149 0.2264426 0.8594756
0.0819111 0.2270597 0.8594336
0.0819074 0.2276758 0.8593917
0.0818999 0.2289091 0.8593078
0.0825628 0.2208897 0.8597984
0.0825590 0.2215059 0.8597565
0.0825553 0.2221230 0.8597146
0.0825516 0.2227391 0.8596727
0.0825478 0.2233562 0.8596307
0.0825441 0.2239724 0.8595888
0.0825366 0.2252056 0.8595049
0.0825329 0.2258227 0.8594630
0.0831658 0.2227354 0.8596182
0.0831621 0.2233525 0.8595762
0.0837800 0.2227316 0.8595637
0.0837763 0.2233488 0.8595217
0.0855855 0.2288867 0.8589808
0.0861997 0.2288830 0.8589264
0.0868140 0.2288792 0.8588719
0.0874282 0.2288755 0.8588174
0.0880425 0.2288717 0.8587629
0.0886642 0.2276348 0.8587922
0.0886604 0.2282519 0.8587503
0.0886567 0.2288680 0.8587084
0.0892784 0.2276310 0.8587378
0.0892747 0.2282481 0.8586958
0.0892709 0.2288643 0.8586539
0.0898709 0.2286641 0.8586141
0.0898927 0.2276273 0.8586833
0.0898889 0.2282444 0.8586413
0.0904845 0.2286604 0.8585597
0.0905069 0.2276236 0.8586288
0.0905032 0.2282407 0.8585868
0.0910980 0.2286566 0.8585053
0.0911212 0.2276198 0.8585743
0.0911174 0.2282369 0.8585323
0.0917116 0.2286529 0.8584508
0.0917354 0.2276161 0.8585198
0.0917317 0.2282332 0.8584778
0.0923251 0.2286492 0.8583964
0.0923496 0.2276123 0.8584653
0.0923459 0.2282295 0.8584233
0.0929564 0.2288419 0.8583269
0.0935707 0.2288381 0.8582724
0.0941850 0.2288344 0.8582179
0.0947992 0.2288307 0.8581634
0.0954695 0.2195780 0.8587379
0.0954135 0.2288269 0.8581089
0.0960623 0.2193879 0.8586981
0.0960352 0.2275899 0.8581383
0.0960315 0.2282071 0.8580963
0.0960277 0.2288232 0.8580544
0.0966759 0.2193841 0.8586437
0.0966494 0.2275862 0.8580838
0.0966457 0.2282033 0.8580419
0.0966420 0.2288194 0.8580000
0.0972857 0.2199965 0.8585474
0.0972820 0.2206126 0.8585055
0.0972334 0.2286193 0.8579610
0.0973011 0.2214162 0.8584487
0.0972637 0.2275825 0.8580293
0.0972599 0.2281996 0.8579874
0.0978756 0.2198054 0.8585079
0.0978719 0.2204215 0.8584660
0.0978234 0.2284182 0.8579222
0.0978918 0.2212240 0.8584092
0.0978544 0.2273833 0.8579903
0.0978507 0.2279995 0.8579484
0.0979116 0.2220296 0.8583522
