0.0423334 0.3003016 0.8581405
0.0423327 0.3009198 0.8580993
0.0427036 0.2857913 0.8591022
0.0427029 0.2864046 0.8590613
0.0427023 0.2870178 0.8590204
0.0427016 0.2876311 0.8589795
0.0427009 0.2882444 0.8589386
0.0427002 0.2888577 0.8588977
0.0426996 0.2894709 0.8588568
0.0427320 0.2903553 0.8587973
0.0427643 0.2912406 0.8587377
0.0427637 0.2918559 0.8586967
0.0427961 0.2927442 0.8586369
0.0428615 0.2939075 0.8585582
0.0428608 0.2945248 0.8585171
0.0428932 0.2954171 0.8584570
0.0429256 0.2963104 0.8583969
0.0429249 0.2969286 0.8583557
0.0429573 0.2978249 0.8582954
0.0429566 0.2984442 0.8582541
0.0429559 0.2990624 0.8582129
0.0429552 0.2996817 0.8581716
0.0429545 0.3003009 0.8581303
0.0429539 0.3009192 0.8580891
0.0433190 0.2857906 0.8590920
0.0433183 0.2864039 0.8590511
0.0433176 0.2870172 0.8590102
0.0433169 0.2876304 0.8589694
0.0433163 0.2882437 0.8589285
0.0433156 0.2888570 0.8588876
0.0433149 0.2894703 0.8588467
0.0433480 0.2903546 0.8587871
0.0433811 0.2912399 0.8587276
0.0433804 0.2918552 0.8586865
0.0434136 0.2927435 0.8586267
0.0434804 0.2939069 0.8585480
0.0434798 0.2945241 0.8585069
0.0435128 0.2954164 0.8584468
0.0435460 0.2963097 0.8583867
0.0435453 0.2969280 0.8583455
0.0435784 0.2978242 0.8582851
0.0435777 0.2984435 0.8582439
0.0435770 0.2990617 0.8582026
0.0435764 0.2996810 0.8581613
0.0435757 0.3003002 0.8581201
0.0435750 0.3009185 0.8580788
0.0439343 0.2857899 0.8590819
0.0439336 0.2864032 0.8590410
0.0439329 0.2870165 0.8590001
0.0439323 0.2876298 0.8589592
0.0439316 0.2882430 0.8589183
0.0439309 0.2888563 0.8588774
0.0439302 0.2894696 0.8588366
0.0439640 0.2903539 0.8587770
0.0439979 0.2912392 0.8587174
0.0439972 0.2918545 0.8586764
0.0440310 0.2927428 0.8586166
0.0440994 0.2939062 0.8585379
0.0440987 0.2945234 0.8584967
0.0441326 0.2954157 0.8584366
0.0441663 0.2963090 0.8583765
0.0441657 0.2969273 0.8583353
0.0441995 0.2978236 0.8582749
0.0441975 0.2996803 0.8581511
0.0441968 0.3002995 0.8581098
0.0441961 0.3009178 0.8580686
0.0442333 0.2987208 0.8582145
0.0442326 0.2993411 0.8581732
0.0445496 0.2857893 0.8590718
0.0445489 0.2864025 0.8590309
0.0445483 0.2870158 0.8589900
0.0445476 0.2876291 0.8589491
0.0445469 0.2882424 0.8589082
0.0445462 0.2888556 0.8588673
0.0445456 0.2894689 0.8588264
0.0445801 0.2903532 0.8587669
0.0446146 0.2912386 0.8587073
0.0446140 0.2918538 0.8586662
0.0446485 0.2927421 0.8586064
0.0446831 0.2936315 0.8585465
0.0446825 0.2942477 0.8585054
0.0447522 0.2954150 0.8584264
0.0447868 0.2963083 0.8583663
0.0447861 0.2969266 0.8583251
0.0448206 0.2978229 0.8582647
0.0448199 0.2984421 0.8582234
0.0448192 0.2990604 0.8581822
0.0448185 0.2996796 0.8581409
0.0448178 0.3002989 0.8580996
0.0448172 0.3009171 0.8580584
0.0451650 0.2857886 0.8590617
0.0451643 0.2864019 0.8590208
0.0451636 0.2870151 0.8589799
0.0451629 0.2876284 0.8589390
0.0451623 0.2882417 0.8588981
0.0451616 0.2888550 0.8588572
0.0451609 0.2894682 0.8588163
0.0451962 0.2903526 0.8587567
0.0452315 0.2912379 0.8586971
0.0452308 0.2918531 0.8586561
0.0452660 0.2927415 0.8585963
0.0453013 0.2936308 0.8585364
0.0453006 0.2942470 0.8584953
0.0453359 0.2951383 0.8584352
0.0453711 0.2960316 0.8583751
0.0453705 0.2966489 0.8583339
0.0454057 0.2975442 0.8582736
0.0454410 0.2984414 0.8582132
0.0454403 0.2990597 0.8581720
0.0454397 0.2996789 0.8581307
0.0454390 0.3002982 0.8580894
0.0454383 0.3009164 0.8580482
0.0457803 0.2857879 0.8590515
0.0457796 0.2864012 0.8590106
0.0457789 0.2870145 0.8589697
0.0457783 0.2876277 0.8589289
0.0457776 0.2882410 0.8588880
0.0457769 0.2888543 0.8588471
0.0457762 0.2894676 0.8588062
0.0458176 0.2854407 0.8590741
0.0458122 0.2903519 0.8587466
0.0458482 0.2912372 0.8586870
0.0458475 0.2918525 0.8586459
0.0458835 0.2927408 0.8585861
0.0459195 0.2936301 0.8585262
0.0459188 0.2942464 0.8584851
0.0459548 0.2951377 0.8584251
0.0459908 0.2960309 0.8583649
0.0459901 0.2966482 0.8583237
0.0460262 0.2975435 0.8582634
0.0460621 0.2984408 0.8582030
0.0460615 0.2990590 0.8581618
0.0460608 0.2996783 0.8581205
0.0460601 0.3002975 0.8580792
0.0460594 0.3009157 0.8580380
0.0463956 0.2857872 0.8590414
0.0463949 0.2864005 0.8590005
0.0463943 0.2870138 0.8589596
0.0463936 0.2876271 0.8589187
0.0463929 0.2882403 0.8588778
0.0463922 0.2888536 0.8588369
0.0463916 0.2894669 0.8587961
0.0464337 0.2854400 0.8590639
0.0464283 0.2903512 0.8587365
0.0464650 0.2912365 0.8586768
0.0464644 0.2918518 0.8586358
0.0464637 0.2924661 0.8585948
0.0465004 0.2933554 0.8585349
0.0464997 0.2939706 0.8584939
0.0465737 0.2951370 0.8584149
0.0466105 0.2960303 0.8583547
0.0466098 0.2966475 0.8583135
0.0466465 0.2975428 0.8582532
0.0466458 0.2981611 0.8582120
0.0466451 0.2987793 0.8581708
0.0466818 0.2996776 0.8581102
0.0466811 0.3002968 0.8580690
0.0466804 0.3009151 0.8580277
0.0470110 0.2857866 0.8590313
0.0470103 0.2863998 0.8589904
0.0470096 0.2870131 0.8589495
0.0470089 0.2876264 0.8589086
0.0470082 0.2882397 0.8588677
0.0470076 0.2888529 0.8588268
0.0470069 0.2894662 0.8587859
0.0470497 0.2854394 0.8590538
0.0470443 0.2903505 0.8587263
0.0470818 0.2912359 0.8586667
0.0470811 0.2918511 0.8586256
0.0470804 0.2924654 0.8585847
0.0471178 0.2933547 0.8585248
0.0471171 0.2939700 0.8584837
0.0471546 0.2948603 0.8584237
0.0472301 0.2960296 0.8583445
0.0472295 0.2966468 0.8583033
0.0472288 0.2972641 0.8582622
0.0472662 0.2981604 0.8582018
0.0472655 0.2987786 0.8581606
0.0472648 0.2993969 0.8581193
0.0472641 0.3000151 0.8580781
0.0472634 0.3006334 0.8580369
0.0476249 0.2870124 0.8589394
0.0476243 0.2876257 0.8588985
0.0476236 0.2882390 0.8588576
0.0476229 0.2888523 0.8588167
0.0476222 0.2894655 0.8587758
0.0476658 0.2854387 0.8590437
0.0476652 0.2860520 0.8590028
0.0476645 0.2866662 0.8589618
0.0476604 0.2903499 0.8587162
0.0476985 0.2912352 0.8586565
0.0476978 0.2918504 0.8586155
0.0476971 0.2924647 0.8585745
0.0477353 0.2933540 0.8585146
0.0477347 0.2939693 0.8584736
0.0477728 0.2948596 0.8584136
0.0478498 0.2960289 0.8583343
0.0478491 0.2966462 0.8582931
0.0478484 0.2972634 0.8582520
0.0478866 0.2981597 0.8581916
0.0478859 0.2987779 0.8581503
0.0478852 0.2993962 0.8581091
0.0478845 0.3000144 0.8580679
0.0478839 0.3006327 0.8580267
0.0482403 0.2870118 0.8589292
0.0482396 0.2876250 0.8588884
0.0482389 0.2882383 0.8588475
0.0482382 0.2888516 0.8588066
0.0482376 0.2894649 0.8587657
0.0482819 0.2854380 0.8590335
0.0482812 0.2860513 0.8589926
0.0482805 0.2866656 0.8589517
0.0482765 0.2903492 0.8587061
0.0483153 0.2912345 0.8586464
0.0483147 0.2918498 0.8586053
0.0483140 0.2924640 0.8585644
0.0483529 0.2933533 0.8585044
0.0483522 0.2939686 0.8584634
0.0483911 0.2948589 0.8584034
0.0484299 0.2957522 0.8583432
0.0484293 0.2963685 0.8583021
0.0484681 0.2972627 0.8582418
0.0485069 0.2981590 0.8581814
0.0485062 0.2987773 0.8581401
0.0485056 0.2993955 0.8580989
0.0485049 0.3000138 0.8580577
0.0485042 0.3006320 0.8580165
0.0488972 0.2860506 0.8589825
0.0488965 0.2866649 0.8589415
0.0488959 0.2872792 0.8589006
0.0488952 0.2878924 0.8588597
0.0488945 0.2885067 0.8588187
0.0488938 0.2891210 0.8587778
0.0488932 0.2897342 0.8587369
0.0488925 0.2903485 0.8586959
0.0489382 0.2857024 0.8590050
0.0489321 0.2912338 0.8586362
0.0489314 0.2918491 0.8585952
0.0489307 0.2924634 0.8585542
0.0489703 0.2933527 0.8584943
0.0489696 0.2939679 0.8584532
0.0490093 0.2948582 0.8583932
0.0490489 0.2957515 0.8583330
0.0490482 0.2963678 0.8582919
0.0490878 0.2972621 0.8582316
0.0490871 0.2978803 0.8581904
0.0490864 0.2984976 0.8581492
0.0490857 0.2991148 0.8581081
0.0491253 0.3000131 0.8580475
0.0491246 0.3006313 0.8580063
0.0495112 0.2878917 0.8588495
0.0495105 0.2885060 0.8588086
0.0495099 0.2891203 0.8587676
0.0495092 0.2897336 0.8587267
0.0495085 0.2903478 0.8586858
0.0495550 0.2857017 0.8589949
0.0495543 0.2863170 0.8589539
0.0495536 0.2869313 0.8589129
0.0495530 0.2875455 0.8588719
0.0495489 0.2912331 0.8586261
0.0495482 0.2918484 0.8585850
0.0495475 0.2924627 0.8585441
0.0495966 0.2853526 0.8590175
0.0495878 0.2933520 0.8584841
0.0495871 0.2939672 0.8584431
0.0496274 0.2948575 0.8583830
0.0496678 0.2957508 0.8583228
0.0496671 0.2963671 0.8582817
0.0497074 0.2972614 0.8582214
0.0497067 0.2978796 0.8581802
0.0497060 0.2984969 0.8581390
0.0497054 0.2991141 0.8580979
0.0497456 0.3000124 0.8580373
0.0497450 0.3006306 0.8579961
0.0341159 0.3035424 0.8580602
0.0341153 0.3041577 0.8580191
0.0341403 0.3025989 0.8581227
0.0341396 0.3032141 0.8580817
0.0341639 0.3022676 0.8581444
0.0341882 0.3013181 0.8582073
0.0341875 0.3019354 0.8581662
0.0347327 0.3035417 0.8580500
0.0347320 0.3041570 0.8580090
0.0347577 0.3025982 0.8581125
0.0347570 0.3032135 0.8580715
0.0347821 0.3022670 0.8581342
0.0348071 0.3013175 0.8581971
0.0348065 0.3019347 0.8581560
0.0353488 0.3041563 0.8579988
0.0353482 0.3047706 0.8579579
0.0353752 0.3025975 0.8581024
0.0353745 0.3032128 0.8580613
0.0353739 0.3038281 0.8580203
0.0354004 0.3022663 0.8581240
0.0354261 0.3013168 0.8581869
0.0354254 0.3019340 0.8581458
0.0359656 0.3041556 0.8579887
0.0359649 0.3047699 0.8579477
0.0359914 0.3038274 0.8580102
0.0360185 0.3022656 0.8581139
0.0360178 0.3028819 0.8580728
0.0360171 0.3034981 0.8580317
0.0360701 0.3015991 0.8581575
0.0360695 0.3022164 0.8581163
0.0365823 0.3041550 0.8579785
0.0365816 0.3047692 0.8579376
0.0366088 0.3038267 0.8580000
0.0366367 0.3022649 0.8581037
0.0366360 0.3028812 0.8580626
0.0366354 0.3034974 0.8580215
0.0366639 0.3013154 0.8581666
0.0366632 0.3019327 0.8581254
0.0371991 0.3041543 0.8579684
0.0371985 0.3047686 0.8579274
0.0372264 0.3038260 0.8579898
0.0372543 0.3028805 0.8580524
0.0372536 0.3034968 0.8580113
0.0372829 0.3013147 0.8581564
0.0372822 0.3019320 0.8581152
0.0372815 0.3025482 0.8580741
0.0378159 0.3041536 0.8579582
0.0378152 0.3047679 0.8579173
0.0378439 0.3038253 0.8579797
0.0378725 0.3028798 0.8580423
0.0378718 0.3034961 0.8580012
0.0379004 0.3025476 0.8580640
0.0379291 0.3015971 0.8581269
0.0379285 0.3022143 0.8580857
0.0384327 0.3041529 0.8579481
0.0384320 0.3047672 0.8579071
0.0384613 0.3038247 0.8579695
0.0384907 0.3028791 0.8580321
0.0384901 0.3034954 0.8579910
0.0385195 0.3025469 0.8580538
0.0385488 0.3015964 0.8581167
0.0385481 0.3022136 0.8580755
0.0390782 0.3044392 0.8579183
0.0391090 0.3028785 0.8580219
0.0391083 0.3034947 0.8579808
0.0391076 0.3041100 0.8579398
0.0391384 0.3025462 0.8580436
0.0391684 0.3015957 0.8581065
0.0391677 0.3022130 0.8580653
0.0396957 0.3044386 0.8579082
0.0396950 0.3050538 0.8578671
0.0397272 0.3028778 0.8580117
0.0397265 0.3034940 0.8579707
0.0397258 0.3041093 0.8579296
0.0397573 0.3025455 0.8580334
0.0397881 0.3015950 0.8580963
0.0397875 0.3022123 0.8580551
0.0398183 0.3012598 0.8581182
0.0403131 0.3044379 0.8578980
0.0403125 0.3050532 0.8578570
0.0403454 0.3028771 0.8580016
0.0403447 0.3034934 0.8579605
0.0403441 0.3041086 0.8579195
0.0404078 0.3015944 0.8580861
0.0404071 0.3022116 0.8580449
0.0404064 0.3028299 0.8580037
0.0404386 0.3012591 0.8581079
0.0409307 0.3044372 0.8578878
0.0409300 0.3050525 0.8578468
0.0409622 0.3041079 0.8579093
0.0409945 0.3031614 0.8579719
0.0409938 0.3037777 0.8579308
0.0410274 0.3015937 0.8580759
0.0410267 0.3022109 0.8580347
0.0410260 0.3028292 0.8579935
0.0410590 0.3012584 0.8580977
0.0415482 0.3044365 0.8578777
0.0415475 0.3050518 0.8578367
0.0415804 0.3041073 0.8578991
0.0416134 0.3031607 0.8579617
0.0416128 0.3037770 0.8579206
0.0416471 0.3015930 0.8580657
0.0416465 0.3022102 0.8580245
0.0416458 0.3028285 0.8579833
0.0416794 0.3012578 0.8580875
0.0421987 0.3041066 0.8578889
0.0421980 0.3047229 0.8578479
0.0422324 0.3031601 0.8579515
0.0422317 0.3037763 0.8579104
0.0422668 0.3015923 0.8580555
0.0422661 0.3022096 0.8580144
0.0422654 0.3028278 0.8579731
0.0422998 0.3012571 0.8580773
0.0428169 0.3041059 0.8578788
0.0428162 0.3047222 0.8578377
0.0428513 0.3031594 0.8579413
0.0428506 0.3037757 0.8579002
0.0428864 0.3015916 0.8580453
0.0428857 0.3022089 0.8580042
0.0428850 0.3028271 0.8579629
0.0429201 0.3012564 0.8580671
0.0434344 0.3047215 0.8578275
0.0434338 0.3053378 0.8577864
0.0434702 0.3031587 0.8579311
0.0434696 0.3037750 0.8578901
0.0434689 0.3043922 0.8578489
0.0435047 0.3028265 0.8579527
0.0435406 0.3012557 0.8580569
0.0435399 0.3018740 0.8580157
0.0435392 0.3024922 0.8579745
0.0440527 0.3047208 0.8578173
0.0440520 0.3053371 0.8577762
0.0440878 0.3043915 0.8578387
0.0441244 0.3028258 0.8579425
0.0441237 0.3034430 0.8579014
0.0441230 0.3040603 0.8578602
0.0441609 0.3012550 0.8580467
0.0441602 0.3018733 0.8580055
0.0441595 0.3024915 0.8579643
0.0446709 0.3047201 0.8578072
0.0446702 0.3053364 0.8577661
0.0447067 0.3043909 0.8578285
0.0447440 0.3028251 0.8579323
0.0447433 0.3034424 0.8578912
0.0447427 0.3040596 0.8578500
0.0447813 0.3012543 0.8580365
0.0447806 0.3018726 0.8579953
0.0447800 0.3024908 0.8579540
0.0452897 0.3041032 0.8578381
0.0452890 0.3047195 0.8577970
0.0452884 0.3053357 0.8577559
0.0453637 0.3028244 0.8579222
0.0453630 0.3034417 0.8578810
0.0453623 0.3040589 0.8578398
0.0454017 0.3012537 0.8580263
0.0454010 0.3018719 0.8579851
0.0454003 0.3024902 0.8579438
0.0459080 0.3041025 0.8578279
0.0459073 0.3047188 0.8577868
0.0459066 0.3053350 0.8577457
0.0459833 0.3028237 0.8579120
0.0459826 0.3034410 0.8578708
0.0459819 0.3040582 0.8578296
0.0460221 0.3012530 0.8580161
0.0460214 0.3018712 0.8579749
0.0460207 0.3024895 0.8579336
0.0465262 0.3041018 0.8578177
0.0465255 0.3047181 0.8577766
0.0465248 0.3053344 0.8577356
0.0466030 0.3028231 0.8579018
0.0466023 0.3034403 0.8578606
0.0466017 0.3040576 0.8578194
0.0466424 0.3012523 0.8580059
0.0466417 0.3018706 0.8579646
0.0466411 0.3024888 0.8579234
0.0471437 0.3047174 0.8577665
0.0471431 0.3053337 0.8577254
0.0471825 0.3043882 0.8577878
0.0472240 0.3015869 0.8579739
0.0472233 0.3022041 0.8579328
0.0472227 0.3028224 0.8578916
0.0472220 0.3034396 0.8578504
0.0472213 0.3040569 0.8578092
0.0472627 0.3012516 0.8579957
0.0477620 0.3047167 0.8577563
0.0477613 0.3053330 0.8577152
0.0478015 0.3043875 0.8577776
0.0478436 0.3015862 0.8579637
0.0478430 0.3022034 0.8579226
0.0478423 0.3028217 0.8578814
0.0478416 0.3034390 0.8578402
0.0478409 0.3040562 0.8577991
0.0478832 0.3012509 0.8579855
0.0483393 0.3056596 0.8576839
0.0483809 0.3040998 0.8577872
0.0483802 0.3047161 0.8577461
0.0483795 0.3053323 0.8577050
0.0484218 0.3031533 0.8578497
0.0484211 0.3037695 0.8578086
0.0484634 0.3015855 0.8579536
0.0484627 0.3022028 0.8579124
0.0484620 0.3028210 0.8578712
0.0485035 0.3012503 0.8579752
0.0489567 0.3056589 0.8576737
0.0489991 0.3040991 0.8577770
0.0489984 0.3047154 0.8577360
0.0489978 0.3053316 0.8576949
0.0490407 0.3031526 0.8578395
0.0490400 0.3037689 0.8577984
0.0490830 0.3015848 0.8579434
0.0490823 0.3022021 0.8579022
0.0490816 0.3028203 0.8578610
0.0491239 0.3012496 0.8579650
0.0495743 0.3056583 0.8576636
0.0496172 0.3040985 0.8577669
0.0496166 0.3047147 0.8577258
0.0496159 0.3053310 0.8576847
0.0496597 0.3031519 0.8578293
0.0496590 0.3037682 0.8577882
0.0497026 0.3015842 0.8579332
0.0497020 0.3022014 0.8578920
0.0497013 0.3028197 0.8578508
0.0497443 0.3012489 0.8579548
0.0499787 0.2009766 0.8646387
0.0499780 0.2015968 0.8645973
0.0499773 0.2022171 0.8645560
0.0499766 0.2028373 0.8645146
0.0500267 0.1949307 0.8650411
0.0500260 0.1955520 0.8649997
0.0500253 0.1961732 0.8649583
0.0500246 0.1967945 0.8649169
0.0500239 0.1974157 0.8648754
0.0500233 0.1980359 0.8648341
0.0500226 0.1986572 0.8647927
0.0500219 0.1992784 0.8647512
0.0500212 0.1998996 0.8647098
0.0500205 0.2005209 0.8646684
0.0500712 0.1919801 0.8652372
0.0500705 0.1926014 0.8651958
0.0500698 0.1932236 0.8651543
0.0500691 0.1938448 0.8651129
0.0500685 0.1944671 0.8650714
0.0506013 0.2009759 0.8646285
0.0506006 0.2015962 0.8645871
0.0505999 0.2022164 0.8645457
0.0505992 0.2028366 0.8645044
0.0506499 0.1949301 0.8650309
0.0506492 0.1955513 0.8649895
0.0506485 0.1961725 0.8649480
0.0506479 0.1967938 0.8649066
0.0506472 0.1974150 0.8648652
0.0506465 0.1980353 0.8648238
0.0506458 0.1986565 0.8647824
0.0506451 0.1992777 0.8647410
0.0506444 0.1998990 0.8646996
0.0506438 0.2005202 0.8646581
0.0506952 0.1919794 0.8652269
0.0506945 0.1926007 0.8651855
0.0506939 0.1932229 0.8651440
0.0506932 0.1938441 0.8651026
0.0506925 0.1944664 0.8650611
0.0512231 0.2015955 0.8645769
0.0512225 0.2022157 0.8645355
0.0512218 0.2028360 0.8644941
0.0512711 0.1967931 0.8648964
0.0512704 0.1974143 0.8648549
0.0512683 0.1992770 0.8647307
0.0512677 0.1998983 0.8646893
0.0512670 0.2005195 0.8646479
0.0512663 0.2011408 0.8646065
0.0513192 0.1919788 0.8652167
0.0513185 0.1926000 0.8651752
0.0513178 0.1932222 0.8651337
0.0513171 0.1938435 0.8650923
0.0513164 0.1944657 0.8650508
0.0513157 0.1950879 0.8650093
0.0513150 0.1957092 0.8649679
0.0513144 0.1963314 0.8649264
0.0513123 0.1981961 0.8648021
0.0513116 0.1988183 0.8647606
0.0518457 0.2015948 0.8645666
0.0518450 0.2022150 0.8645253
0.0518443 0.2028353 0.8644839
0.0518903 0.2005188 0.8646376
0.0518896 0.2011401 0.8645962
0.0519418 0.1932215 0.8651235
0.0519411 0.1938428 0.8650821
0.0519404 0.1944650 0.8650406
0.0519398 0.1950872 0.8649991
0.0519391 0.1957085 0.8649577
0.0519384 0.1963307 0.8649162
0.0519377 0.1969520 0.8648747
0.0519370 0.1975742 0.8648333
0.0519363 0.1981954 0.8647918
0.0519356 0.1988177 0.8647503
0.0519350 0.1994399 0.8647089
0.0519343 0.2000611 0.8646674
0.0519865 0.1921326 0.8651954
0.0519858 0.1927549 0.8651539
0.0524682 0.2015941 0.8645564
0.0524675 0.2022143 0.8645150
0.0524668 0.2028346 0.8644737
0.0525135 0.2005181 0.8646274
0.0525129 0.2011394 0.8645860
0.0525671 0.1919774 0.8651961
0.0525664 0.1925986 0.8651547
0.0525657 0.1932209 0.8651132
0.0525651 0.1938421 0.8650718
0.0525644 0.1944643 0.8650303
0.0525637 0.1950866 0.8649888
0.0525630 0.1957078 0.8649474
0.0525623 0.1963300 0.8649059
0.0525616 0.1969513 0.8648645
0.0525609 0.1975735 0.8648230
0.0525603 0.1981947 0.8647816
0.0525596 0.1988170 0.8647401
0.0525589 0.1994392 0.8646986
0.0525582 0.2000604 0.8646572
0.0526118 0.1915087 0.8652266
0.0530907 0.2015934 0.8645461
0.0530900 0.2022137 0.8645048
0.0530894 0.2028339 0.8644634
0.0531361 0.2011387 0.8645757
0.0531911 0.1919767 0.8651859
0.0531905 0.1925979 0.8651444
0.0531898 0.1932202 0.8651029
0.0531891 0.1938414 0.8650615
0.0531884 0.1944636 0.8650200
0.0531877 0.1950859 0.8649785
0.0531857 0.1969506 0.8648542
0.0531850 0.1975728 0.8648127
0.0531836 0.1988163 0.8647298
0.0531829 0.1994385 0.8646883
0.0531822 0.2000598 0.8646469
0.0531816 0.2006820 0.8646054
0.0532365 0.1915080 0.8652164
0.0532317 0.1958657 0.8649258
0.0532310 0.1964889 0.8648843
0.0532290 0.1983556 0.8647598
0.0537133 0.2015927 0.8645359
0.0537126 0.2022130 0.8644945
0.0537119 0.2028332 0.8644532
0.0537594 0.2011380 0.8645654
0.0538069 0.1994378 0.8646781
0.0538062 0.2000591 0.8646366
0.0538055 0.2006813 0.8645951
0.0538613 0.1915074 0.8652061
0.0538606 0.1921306 0.8651645
0.0538599 0.1927528 0.8651230
0.0538592 0.1933750 0.8650816
0.0538585 0.1939973 0.8650401
0.0538578 0.1946205 0.8649985
0.0538571 0.1952427 0.8649570
0.0538564 0.1958650 0.8649155
0.0538558 0.1964882 0.8648740
0.0538551 0.1971104 0.8648325
0.0538544 0.1977327 0.8647910
0.0538537 0.1983549 0.8647495
0.0538530 0.1989781 0.8647080
0.0543358 0.2015921 0.8645256
0.0543351 0.2022123 0.8644843
0.0543344 0.2028325 0.8644429
0.0543826 0.2011373 0.8645552
0.0544316 0.1988149 0.8647093
0.0544309 0.1994371 0.8646678
0.0544302 0.2000584 0.8646264
0.0544295 0.2006806 0.8645849
0.0544859 0.1915067 0.8651958
0.0544852 0.1921299 0.8651543
0.0544845 0.1927521 0.8651128
0.0544838 0.1933744 0.8650713
0.0544831 0.1939966 0.8650298
0.0544825 0.1946198 0.8649882
0.0544818 0.1952421 0.8649467
0.0544811 0.1958643 0.8649053
0.0544804 0.1964875 0.8648637
0.0544797 0.1971098 0.8648222
0.0544790 0.1977320 0.8647807
0.0544783 0.1983542 0.8647392
0.0549583 0.2015914 0.8645154
0.0549576 0.2022116 0.8644740
0.0549570 0.2028319 0.8644327
0.0550066 0.2005154 0.8645864
0.0550059 0.2011366 0.8645449
0.0550589 0.1957051 0.8649063
0.0550582 0.1963273 0.8648648
0.0550576 0.1969485 0.8648234
0.0550569 0.1975708 0.8647819
0.0550562 0.1981920 0.8647405
0.0550555 0.1988142 0.8646990
0.0550548 0.1994365 0.8646575
0.0550541 0.2000577 0.8646161
0.0551106 0.1915060 0.8651855
0.0551099 0.1921292 0.8651440
0.0551092 0.1927514 0.8651025
0.0551086 0.1933737 0.8650610
0.0551079 0.1939959 0.8650195
0.0551072 0.1946191 0.8649780
0.0551065 0.1952414 0.8649365
0.0555808 0.2015907 0.8645052
0.0555802 0.2022109 0.8644638
0.0555795 0.2028312 0.8644224
0.0556299 0.2005147 0.8645761
0.0556292 0.2011360 0.8645347
0.0556830 0.1957044 0.8648961
0.0556823 0.1963266 0.8648546
0.0556816 0.1969478 0.8648131
0.0556809 0.1975701 0.8647717
0.0556802 0.1981913 0.8647302
0.0556795 0.1988135 0.8646887
0.0556788 0.1994358 0.8646473
0.0556782 0.2000570 0.8646058
0.0557353 0.1915053 0.8651753
0.0557347 0.1921285 0.8651337
0.0557340 0.1927508 0.8650922
0.0557333 0.1933730 0.8650507
0.0557326 0.1939952 0.8650092
0.0557319 0.1946185 0.8649677
0.0557312 0.1952407 0.8649262
0.0562041 0.2009698 0.8645363
0.0562034 0.2015900 0.8644949
0.0562027 0.2022103 0.8644536
0.0562020 0.2028305 0.8644122
0.0562572 0.1967876 0.8648143
0.0562565 0.1974089 0.8647729
0.0562559 0.1980291 0.8647315
0.0562552 0.1986503 0.8646901
0.0562545 0.1992716 0.8646487
0.0562538 0.1998928 0.8646073
0.0562531 0.2005140 0.8645658
0.0563069 0.1957037 0.8648858
0.0563062 0.1963259 0.8648443
0.0563601 0.1915046 0.8651650
0.0563594 0.1921278 0.8651234
0.0563587 0.1927501 0.8650819
0.0563580 0.1933723 0.8650404
0.0563573 0.1939945 0.8649990
0.0563566 0.1946178 0.8649574
0.0563560 0.1952400 0.8649159
0.0568274 0.2003488 0.8645674
0.0568267 0.2009691 0.8645260
0.0568260 0.2015893 0.8644847
0.0568253 0.2022096 0.8644433
0.0568246 0.2028298 0.8644020
0.0568805 0.1967869 0.8648041
0.0568798 0.1974082 0.8647626
0.0568791 0.1980284 0.8647213
0.0568784 0.1986496 0.8646799
0.0568777 0.1992709 0.8646384
0.0568770 0.1998921 0.8645970
0.0569343 0.1925938 0.8650828
0.0569337 0.1932161 0.8650413
0.0569330 0.1938373 0.8649999
0.0569323 0.1944595 0.8649584
0.0569316 0.1950818 0.8649169
0.0569309 0.1957030 0.8648755
0.0569302 0.1963252 0.8648340
0.0569847 0.1915039 0.8651547
0.0569840 0.1921272 0.8651131
0.0574499 0.2003482 0.8645571
0.0574492 0.2009684 0.8645158
0.0574485 0.2015886 0.8644744
0.0574479 0.2022089 0.8644331
0.0574472 0.2028291 0.8643917
0.0575038 0.1967862 0.8647938
0.0575031 0.1974075 0.8647524
0.0575024 0.1980277 0.8647110
0.0575017 0.1986490 0.8646696
0.0575011 0.1992702 0.8646282
0.0575004 0.1998914 0.8645868
0.0575583 0.1925931 0.8650726
0.0575576 0.1932154 0.8650311
0.0575569 0.1938366 0.8649897
0.0575562 0.1944588 0.8649482
0.0575555 0.1950811 0.8649067
0.0575548 0.1957023 0.8648653
0.0575542 0.1963246 0.8648238
0.0576094 0.1915032 0.8651444
0.0576087 0.1921265 0.8651029
0.0580765 0.1966250 0.8647951
0.0580759 0.1972453 0.8647537
0.0580752 0.1978655 0.8647124
0.0580745 0.1984868 0.8646710
0.0580738 0.1991070 0.8646296
0.0580731 0.1997272 0.8645882
0.0580724 0.2003475 0.8645469
0.0580718 0.2009677 0.8645055
0.0580711 0.2015880 0.8644642
0.0580704 0.2022082 0.8644228
0.0580697 0.2028284 0.8643815
0.0581318 0.1924379 0.8650734
0.0581311 0.1930591 0.8650320
0.0581304 0.1936804 0.8649906
0.0581298 0.1943006 0.8649492
0.0581291 0.1949219 0.8649078
0.0581284 0.1955431 0.8648664
0.0581277 0.1961643 0.8648250
0.0581837 0.1913490 0.8651452
0.0581830 0.1919712 0.8651037
0.0587039 0.1922817 0.8650744
0.0587032 0.1929029 0.8650330
0.0587025 0.1935231 0.8649916
0.0587018 0.1941434 0.8649503
0.0587011 0.1947636 0.8649089
0.0587004 0.1953839 0.8648676
0.0586998 0.1960041 0.8648262
0.0586991 0.1966243 0.8647849
0.0586984 0.1972446 0.8647435
0.0586977 0.1978648 0.8647021
0.0586970 0.1984861 0.8646607
0.0586963 0.1991063 0.8646194
0.0586957 0.1997266 0.8645780
0.0586950 0.2003468 0.8645366
0.0586943 0.2009670 0.8644953
0.0586936 0.2015873 0.8644539
0.0586929 0.2022075 0.8644126
0.0586922 0.2028278 0.8643712
0.0587564 0.1911947 0.8651460
0.0587557 0.1918160 0.8651046
0.0592731 0.1933659 0.8649927
0.0592725 0.1939852 0.8649514
0.0592718 0.1946054 0.8649100
0.0592711 0.1952246 0.8648688
0.0592704 0.1958439 0.8648275
0.0592697 0.1964641 0.8647861
0.0592690 0.1970834 0.8647448
0.0592684 0.1977036 0.8647035
0.0592677 0.1983229 0.8646622
0.0592670 0.1989421 0.8646209
0.0592663 0.1995623 0.8645795
0.0592656 0.2001816 0.8645382
0.0593278 0.1910405 0.8651469
0.0593271 0.1916607 0.8651055
0.0593264 0.1922810 0.8650642
0.0593257 0.1929022 0.8650227
0.0593168 0.2009664 0.8644850
0.0593161 0.2015866 0.8644437
0.0593154 0.2022068 0.8644023
0.0593148 0.2028271 0.8643610
0.0598949 0.1933652 0.8649825
0.0598942 0.1939845 0.8649412
0.0598935 0.1946047 0.8648998
0.0598928 0.1952240 0.8648585
0.0598921 0.1958432 0.8648172
0.0598915 0.1964634 0.8647759
0.0598908 0.1970827 0.8647346
0.0598901 0.1977029 0.8646932
0.0598894 0.1983222 0.8646519
0.0598887 0.1989414 0.8646107
0.0598880 0.1995617 0.8645693
0.0598874 0.2001809 0.8645280
0.0599503 0.1910398 0.8651366
0.0599496 0.1916601 0.8650953
0.0599489 0.1922803 0.8650539
0.0599482 0.1929015 0.8650125
0.0599393 0.2009657 0.8644748
0.0599387 0.2015859 0.8644334
0.0599380 0.2022062 0.8643921
0.0599373 0.2028264 0.8643507
0.0604633 0.1932080 0.8649836
0.0604626 0.1938272 0.8649423
0.0604619 0.1944455 0.8649010
0.0604613 0.1950647 0.8648597
0.0604606 0.1956840 0.8648185
0.0604599 0.1963022 0.8647772
0.0604592 0.1969215 0.8647359
0.0604585 0.1975407 0.8646947
0.0604579 0.1981590 0.8646534
0.0604572 0.1987782 0.8646121
0.0605181 0.1921251 0.8650549
0.0605174 0.1927443 0.8650136
0.0605099 0.1995610 0.8645591
0.0605092 0.2001802 0.8645178
0.0605085 0.2008005 0.8644764
0.0605728 0.1910391 0.8651264
0.0605721 0.1916594 0.8650850
0.0605612 0.2015852 0.8644232
0.0605605 0.2022055 0.8643818
0.0605598 0.2028257 0.8643405
0.0610290 0.1942873 0.8649022
0.0610283 0.1949055 0.8648610
0.0610276 0.1955238 0.8648198
0.0610269 0.1961420 0.8647785
0.0610263 0.1967603 0.8647373
0.0610256 0.1973785 0.8646961
0.0610249 0.1979968 0.8646549
0.0610242 0.1986150 0.8646137
0.0610858 0.1919688 0.8650559
0.0610851 0.1925881 0.8650146
0.0610844 0.1932073 0.8649733
0.0610838 0.1938266 0.8649320
0.0610776 0.1993968 0.8645606
0.0610769 0.2000150 0.8645194
0.0611303 0.2007998 0.8644662
0.0611296 0.2014190 0.8644249
0.0611290 0.2020383 0.8643836
0.0611824 0.2028250 0.8643303
0.0616494 0.1942866 0.8648920
0.0616487 0.1949048 0.8648508
0.0616481 0.1955231 0.8648096
0.0616474 0.1961413 0.8647683
0.0616467 0.1967596 0.8647271
0.0616460 0.1973778 0.8646859
0.0616453 0.1979961 0.8646447
0.0616447 0.1986143 0.8646034
0.0617069 0.1919681 0.8650457
0.0617063 0.1925874 0.8650044
0.0617056 0.1932066 0.8649631
0.0617049 0.1938259 0.8649218
0.0616988 0.1993961 0.8645504
0.0616981 0.2000144 0.8645092
0.0617522 0.2007991 0.8644560
0.0617515 0.2014184 0.8644147
0.0617508 0.2020376 0.8643734
0.0618049 0.2028243 0.8643200
0.0622163 0.1922756 0.8650168
0.0622156 0.1928929 0.8649756
0.0622143 0.1941274 0.8648933
0.0622136 0.1947456 0.8648521
0.0622129 0.1953629 0.8648109
0.0622122 0.1959801 0.8647698
0.0622116 0.1965974 0.8647286
0.0622725 0.1918129 0.8650467
0.0622704 0.1936676 0.8649230
0.0622663 0.1973772 0.8646757
0.0622657 0.1979954 0.8646345
0.0622650 0.1986137 0.8645932
0.0623199 0.1993954 0.8645402
0.0623192 0.2000137 0.8644990
0.0623740 0.2007984 0.8644457
0.0623733 0.2014177 0.8644044
0.0623726 0.2020369 0.8643631
0.0624275 0.2028237 0.8643098
0.0628359 0.1922749 0.8650066
0.0628353 0.1928922 0.8649654
0.0628346 0.1935094 0.8649243
0.0628339 0.1941267 0.8648831
0.0628332 0.1947449 0.8648419
0.0628325 0.1953622 0.8648007
0.0628319 0.1959794 0.8647596
0.0628312 0.1965967 0.8647184
0.0628305 0.1972149 0.8646772
0.0628298 0.1978322 0.8646360
0.0628929 0.1918122 0.8650365
0.0628854 0.1986130 0.8645830
0.0629409 0.1993947 0.8645300
0.0629402 0.2000130 0.8644887
0.0629958 0.2007977 0.8644355
0.0629951 0.2014170 0.8643942
0.0629945 0.2020362 0.8643529
0.0630501 0.2028230 0.8642995
0.0634556 0.1922742 0.8649964
0.0634549 0.1928915 0.8649552
0.0634542 0.1935087 0.8649141
0.0634535 0.1941260 0.8648729
0.0634529 0.1947443 0.8648317
0.0634522 0.1953615 0.8647905
0.0634515 0.1959788 0.8647494
0.0634508 0.1965960 0.8647082
0.0634501 0.1972143 0.8646670
0.0634495 0.1978315 0.8646258
0.0635057 0.1986123 0.8645728
0.0635620 0.1993941 0.8645198
0.0635614 0.2000123 0.8644785
0.0636177 0.2007971 0.8644253
0.0636170 0.2014163 0.8643840
0.0636163 0.2020356 0.8643427
0.0636726 0.2028223 0.8642893
0.0640155 0.1939678 0.8648742
0.0640148 0.1945850 0.8648330
0.0640141 0.1952013 0.8647919
0.0640134 0.1958186 0.8647508
0.0640752 0.1922736 0.8649862
0.0640745 0.1928908 0.8649450
0.0640738 0.1935081 0.8649039
0.0640704 0.1965953 0.8646980
0.0640698 0.1972136 0.8646568
0.0640691 0.1978308 0.8646156
0.0640684 0.1984481 0.8645745
0.0641255 0.1992289 0.8645215
0.0641248 0.1998471 0.8644802
0.0641818 0.2006309 0.8644270
0.0642388 0.2014156 0.8643737
0.0642381 0.2020349 0.8643324
0.0642951 0.2028216 0.8642790
0.0646344 0.1939671 0.8648640
0.0646337 0.1945844 0.8648228
0.0646331 0.1952006 0.8647817
0.0646324 0.1958179 0.8647406
0.0646943 0.1928901 0.8649348
0.0646936 0.1935074 0.8648937
0.0646902 0.1965947 0.8646878
0.0646895 0.1972129 0.8646466
0.0646888 0.1978302 0.8646054
0.0646881 0.1984474 0.8645643
0.0647458 0.1992282 0.8645113
0.0647451 0.1998464 0.8644700
0.0648028 0.2006302 0.8644168
0.0648606 0.2014149 0.8643635
0.0648600 0.2020342 0.8643222
0.0649176 0.2028209 0.8642688
0.0652533 0.1939664 0.8648538
0.0652527 0.1945837 0.8648126
0.0652520 0.1951999 0.8647716
0.0652513 0.1958172 0.8647304
0.0653098 0.1965940 0.8646776
0.0653091 0.1972122 0.8646364
0.0653084 0.1978295 0.8645952
0.0653078 0.1984467 0.8645541
0.0653663 0.1992275 0.8645010
0.0653656 0.1998458 0.8644598
0.0654240 0.2006295 0.8644066
0.0654825 0.2014143 0.8643533
0.0654818 0.2020335 0.8643120
0.0655402 0.2028202 0.8642585
0.0658737 0.1927322 0.8649259
0.0658731 0.1933495 0.8648847
0.0658724 0.1939657 0.8648436
0.0658717 0.1945830 0.8648025
0.0658710 0.1951993 0.8647614
0.0658703 0.1958165 0.8647202
0.0659294 0.1965933 0.8646674
0.0659288 0.1972115 0.8646262
0.0659281 0.1978288 0.8645850
0.0659274 0.1984461 0.8645439
0.0659866 0.1992268 0.8644908
0.0659859 0.1998451 0.8644496
0.0660451 0.2006288 0.8643964
0.0503346 0.2141548 0.8637539
0.0503339 0.2147710 0.8637128
0.0503332 0.2153863 0.8636718
0.0503326 0.2160025 0.8636307
0.0503319 0.2166188 0.8635896
0.0503312 0.2172351 0.8635485
0.0503305 0.2178513 0.8635074
0.0503298 0.2184666 0.8634664
0.0503292 0.2190828 0.8634253
0.0503785 0.2124854 0.8638645
0.0503778 0.2131027 0.8638233
0.0503771 0.2137200 0.8637822
0.0504257 0.2077259 0.8641812
0.0504250 0.2083431 0.8641400
0.0504243 0.2089604 0.8640988
0.0504237 0.2095776 0.8640577
0.0504230 0.2101959 0.8640165
0.0504223 0.2108131 0.8639753
0.0504216 0.2114304 0.8639342
0.0504209 0.2120476 0.8638930
0.0504696 0.2060446 0.8642926
0.0504689 0.2066629 0.8642513
0.0504683 0.2072811 0.8642101
0.0505134 0.2043594 0.8644042
0.0505128 0.2049786 0.8643630
0.0505121 0.2055968 0.8643217
0.0505567 0.2032894 0.8644749
0.0505560 0.2039086 0.8644336
0.0509954 0.2143355 0.8637309
0.0509947 0.2149528 0.8636898
0.0509940 0.2155690 0.8636487
0.0509933 0.2161863 0.8636075
0.0509927 0.2168026 0.8635664
0.0509920 0.2174198 0.8635253
0.0509913 0.2180361 0.8634842
0.0509906 0.2186533 0.8634430
0.0509900 0.2192696 0.8634019
0.0510454 0.2077252 0.8641710
0.0510448 0.2083424 0.8641298
0.0510441 0.2089597 0.8640887
0.0510434 0.2095770 0.8640475
0.0510427 0.2101952 0.8640063
0.0510420 0.2108125 0.8639651
0.0510414 0.2114297 0.8639240
0.0510407 0.2120470 0.8638828
0.0510400 0.2126642 0.8638416
0.0510393 0.2132825 0.8638004
0.0510386 0.2138997 0.8637593
0.0510913 0.2048074 0.8643648
0.0510906 0.2054257 0.8643236
0.0510899 0.2060439 0.8642824
0.0510893 0.2066622 0.8642411
0.0510886 0.2072804 0.8641999
0.0511346 0.2043587 0.8643940
0.0511785 0.2032887 0.8644647
0.0511778 0.2039079 0.8644234
0.0516651 0.2077245 0.8641608
0.0516644 0.2083418 0.8641196
0.0516637 0.2089590 0.8640785
0.0516630 0.2095763 0.8640373
0.0516623 0.2101945 0.8639961
0.0516617 0.2108118 0.8639549
0.0516610 0.2114290 0.8639138
0.0516603 0.2120463 0.8638726
0.0516596 0.2126635 0.8638314
0.0516589 0.2132818 0.8637902
0.0516583 0.2138990 0.8637491
0.0516576 0.2145163 0.8637079
0.0516569 0.2151336 0.8636668
0.0516562 0.2157518 0.8636255
0.0516555 0.2163691 0.8635844
0.0516549 0.2169863 0.8635432
0.0516542 0.2176036 0.8635021
0.0516535 0.2182218 0.8634608
0.0516528 0.2188391 0.8634197
0.0516521 0.2194563 0.8633785
0.0517117 0.2048067 0.8643546
0.0517111 0.2054250 0.8643134
0.0517104 0.2060432 0.8642722
0.0517097 0.2066615 0.8642309
0.0517090 0.2072797 0.8641897
0.0517557 0.2043580 0.8643838
0.0518003 0.2032880 0.8644544
0.0517997 0.2039073 0.8644131
0.0522847 0.2077238 0.8641506
0.0522840 0.2083411 0.8641094
0.0522833 0.2089583 0.8640683
0.0522827 0.2095756 0.8640271
0.0522820 0.2101938 0.8639859
0.0522813 0.2108111 0.8639447
0.0522806 0.2114284 0.8639036
0.0522799 0.2120456 0.8638624
0.0522793 0.2126629 0.8638213
0.0522786 0.2132811 0.8637800
0.0522779 0.2138984 0.8637389
0.0522772 0.2145156 0.8636977
0.0522765 0.2151329 0.8636566
0.0522759 0.2157511 0.8636153
0.0522752 0.2163684 0.8635742
0.0522745 0.2169856 0.8635330
0.0522738 0.2176029 0.8634919
0.0522731 0.2182211 0.8634506
0.0522724 0.2188384 0.8634095
0.0522718 0.2194557 0.8633683
0.0523321 0.2048061 0.8643444
0.0523314 0.2054243 0.8643032
0.0523307 0.2060426 0.8642619
0.0523300 0.2066608 0.8642207
0.0523293 0.2072791 0.8641795
0.0523768 0.2043573 0.8643736
0.0524222 0.2032873 0.8644442
0.0524215 0.2039066 0.8644029
0.0529043 0.2077231 0.8641404
0.0529036 0.2083404 0.8640992
0.0529030 0.2089577 0.8640581
0.0529023 0.2095749 0.8640169
0.0529016 0.2101932 0.8639757
0.0529009 0.2108104 0.8639345
0.0528975 0.2138977 0.8637287
0.0528968 0.2145149 0.8636875
0.0528962 0.2151322 0.8636464
0.0528955 0.2157504 0.8636051
0.0528948 0.2163677 0.8635640
0.0528941 0.2169850 0.8635228
0.0528934 0.2176022 0.8634817
0.0528928 0.2182205 0.8634404
0.0528921 0.2188377 0.8633993
0.0528914 0.2194550 0.8633581
0.0529511 0.2060419 0.8642517
0.0529505 0.2066601 0.8642105
0.0529498 0.2072784 0.8641693
0.0529450 0.2116061 0.8638807
0.0529443 0.2122244 0.8638395
0.0529436 0.2128416 0.8637983
0.0529430 0.2134599 0.8637571
0.0529979 0.2043566 0.8643634
0.0529972 0.2049759 0.8643221
0.0529965 0.2055941 0.8642809
0.0530440 0.2032866 0.8644340
0.0530433 0.2039059 0.8643927
0.0535715 0.2060412 0.8642415
0.0535708 0.2066594 0.8642003
0.0535701 0.2072777 0.8641591
0.0535694 0.2078959 0.8641179
0.0535687 0.2085142 0.8640766
0.0535681 0.2091324 0.8640354
0.0535674 0.2097507 0.8639942
0.0535667 0.2103690 0.8639530
0.0535660 0.2109872 0.8639117
0.0535653 0.2116055 0.8638705
0.0535647 0.2122237 0.8638293
0.0535640 0.2128410 0.8637881
0.0535633 0.2134592 0.8637469
0.0535626 0.2140775 0.8637057
0.0535619 0.2146957 0.8636645
0.0535613 0.2153140 0.8636232
0.0535606 0.2159322 0.8635820
0.0535599 0.2165505 0.8635408
0.0535592 0.2171687 0.8634996
0.0535585 0.2177870 0.8634584
0.0535578 0.2184052 0.8634171
0.0535572 0.2190235 0.8633759
0.0536190 0.2043559 0.8643531
0.0536183 0.2049752 0.8643119
0.0536176 0.2055934 0.8642706
0.0536657 0.2032860 0.8644237
0.0536650 0.2039052 0.8643824
0.0541919 0.2060405 0.8642313
0.0541912 0.2066588 0.8641901
0.0541905 0.2072770 0.8641489
0.0541899 0.2078953 0.8641077
0.0541892 0.2085135 0.8640664
0.0541885 0.2091318 0.8640252
0.0541878 0.2097500 0.8639840
0.0541871 0.2103683 0.8639428
0.0541865 0.2109865 0.8639015
0.0541858 0.2116048 0.8638603
0.0541851 0.2122230 0.8638191
0.0541844 0.2128403 0.8637779
0.0541837 0.2134585 0.8637367
0.0541830 0.2140768 0.8636955
0.0541824 0.2146950 0.8636543
0.0541817 0.2153133 0.8636130
0.0541810 0.2159315 0.8635718
0.0541803 0.2165498 0.8635306
0.0541796 0.2171680 0.8634894
0.0541790 0.2177863 0.8634481
0.0541783 0.2184045 0.8634069
0.0541776 0.2190228 0.8633657
0.0542401 0.2043553 0.8643429
0.0542394 0.2049745 0.8643016
0.0542388 0.2055928 0.8642604
0.0542876 0.2032853 0.8644135
0.0542869 0.2039045 0.8643722
0.0548102 0.2078946 0.8640974
0.0548095 0.2085128 0.8640562
0.0548088 0.2091311 0.8640150
0.0548081 0.2097493 0.8639738
0.0548605 0.2049738 0.8642914
0.0548598 0.2055921 0.8642502
0.0548591 0.2062113 0.8642089
0.0548584 0.2068306 0.8641676
0.0548577 0.2074488 0.8641264
0.0548543 0.2105441 0.8639200
0.0548537 0.2111623 0.8638788
0.0548530 0.2117816 0.8638375
0.0548523 0.2124008 0.8637962
0.0548516 0.2130190 0.8637550
0.0548509 0.2136383 0.8637137
0.0548502 0.2142575 0.8636724
0.0548496 0.2148758 0.8636312
0.0548489 0.2154950 0.8635899
0.0548482 0.2161143 0.8635486
0.0548475 0.2167335 0.8635073
0.0548468 0.2173518 0.8634661
0.0548461 0.2179710 0.8634248
0.0548455 0.2185903 0.8633835
0.0548448 0.2192085 0.8633423
0.0549094 0.2032846 0.8644033
0.0549087 0.2039038 0.8643620
0.0549080 0.2045241 0.8643206
0.0554802 0.2062106 0.8641987
0.0554796 0.2068299 0.8641574
0.0554789 0.2074481 0.8641162
0.0554782 0.2080674 0.8640749
0.0554775 0.2086866 0.8640336
0.0554768 0.2093049 0.8639924
0.0554761 0.2099241 0.8639511
0.0554755 0.2105434 0.8639098
0.0554748 0.2111616 0.8638686
0.0555312 0.2032839 0.8643930
0.0555305 0.2039032 0.8643518
0.0555299 0.2045234 0.8643104
0.0555292 0.2051426 0.8642691
0.0555285 0.2057629 0.8642277
0.0555217 0.2119593 0.8638146
0.0555210 0.2125786 0.8637733
0.0555203 0.2131978 0.8637320
0.0555196 0.2138181 0.8636907
0.0555189 0.2144373 0.8636494
0.0555182 0.2150576 0.8636080
0.0555176 0.2156768 0.8635667
0.0555169 0.2162960 0.8635254
0.0555162 0.2169163 0.8634841
0.0555155 0.2175355 0.8634428
0.0555148 0.2181558 0.8634014
0.0555142 0.2187750 0.8633601
0.0555135 0.2193943 0.8633188
0.0561014 0.2062100 0.8641885
0.0561007 0.2068292 0.8641472
0.0561000 0.2074475 0.8641060
0.0560993 0.2080667 0.8640647
0.0560986 0.2086860 0.8640234
0.0560980 0.2093042 0.8639821
0.0560973 0.2099234 0.8639409
0.0560966 0.2105427 0.8638996
0.0560959 0.2111609 0.8638583
0.0561531 0.2032832 0.8643828
0.0561524 0.2039025 0.8643415
0.0561517 0.2045227 0.8643002
0.0561510 0.2051420 0.8642589
0.0561503 0.2057622 0.8642175
0.0561435 0.2119586 0.8638044
0.0561428 0.2125779 0.8637631
0.0561421 0.2131971 0.8637218
0.0561414 0.2138174 0.8636804
0.0561408 0.2144366 0.8636391
0.0561401 0.2150569 0.8635978
0.0561394 0.2156761 0.8635565
0.0561387 0.2162954 0.8635152
0.0561380 0.2169156 0.8634738
0.0561373 0.2175348 0.8634325
0.0561367 0.2181551 0.8633912
0.0561360 0.2187743 0.8633499
0.0561353 0.2193936 0.8633086
0.0567749 0.2032825 0.8643726
0.0567742 0.2039018 0.8643313
0.0567735 0.2045220 0.8642899
0.0567728 0.2051413 0.8642486
0.0567722 0.2057615 0.8642073
0.0567715 0.2063808 0.8641660
0.0567708 0.2070000 0.8641247
0.0567701 0.2076203 0.8640834
0.0567694 0.2082395 0.8640421
0.0567687 0.2088597 0.8640007
0.0567681 0.2094790 0.8639594
0.0567674 0.2100982 0.8639181
0.0567667 0.2107185 0.8638768
0.0567660 0.2113377 0.8638355
0.0567653 0.2119580 0.8637941
0.0567646 0.2125772 0.8637528
0.0567640 0.2131965 0.8637115
0.0567633 0.2138167 0.8636702
0.0567626 0.2144359 0.8636289
0.0567619 0.2150562 0.8635875
0.0567612 0.2156754 0.8635463
0.0567605 0.2162947 0.8635050
0.0567599 0.2169149 0.8634636
0.0567592 0.2175342 0.8634223
0.0567585 0.2181544 0.8633810
0.0568069 0.2189591 0.8633265
0.0573947 0.2051406 0.8642384
0.0573940 0.2057608 0.8641971
0.0573933 0.2063801 0.8641558
0.0573926 0.2069993 0.8641145
0.0573906 0.2088591 0.8639905
0.0573899 0.2094783 0.8639492
0.0573892 0.2100976 0.8639079
0.0573885 0.2107178 0.8638665
0.0573878 0.2113370 0.8638252
0.0573872 0.2119573 0.8637839
0.0573865 0.2125765 0.8637426
0.0573858 0.2131958 0.8637013
0.0573851 0.2138160 0.8636600
0.0573844 0.2144353 0.8636187
0.0573837 0.2150555 0.8635773
0.0574465 0.2034504 0.8643503
0.0574458 0.2040706 0.8643089
0.0574451 0.2046908 0.8642676
0.0574417 0.2077921 0.8640608
0.0574410 0.2084123 0.8640194
0.0574328 0.2158572 0.8635230
0.0574321 0.2164774 0.8634817
0.0574315 0.2170977 0.8634403
0.0574308 0.2177179 0.8633990
0.0574301 0.2183382 0.8633576
0.0574294 0.2189584 0.8633162
0.0580165 0.2051399 0.8642282
0.0580158 0.2057602 0.8641868
0.0580151 0.2063794 0.8641455
0.0580144 0.2069986 0.8641042
0.0580124 0.2088584 0.8639802
0.0580117 0.2094776 0.8639390
0.0580110 0.2100969 0.8638977
0.0580690 0.2034497 0.8643400
0.0580683 0.2040699 0.8642987
0.0580677 0.2046902 0.8642573
0.0580642 0.2077914 0.8640505
0.0580636 0.2084116 0.8640092
0.0580608 0.2108936 0.8638437
0.0580601 0.2115138 0.8638023
0.0580594 0.2121341 0.8637610
0.0580588 0.2127543 0.8637196
0.0580581 0.2133745 0.8636783
0.0580574 0.2139958 0.8636369
0.0580567 0.2146160 0.8635955
0.0580560 0.2152363 0.8635541
0.0580553 0.2158565 0.8635128
0.0580547 0.2164767 0.8634714
0.0580540 0.2170970 0.8634301
0.0580533 0.2177172 0.8633887
0.0580526 0.2183375 0.8633474
0.0580519 0.2189577 0.8633060
0.0586916 0.2034490 0.8643298
0.0586909 0.2040692 0.8642884
0.0586902 0.2046895 0.8642471
0.0586895 0.2053097 0.8642057
0.0586888 0.2059300 0.8641644
0.0586881 0.2065502 0.8641230
0.0586874 0.2071704 0.8640817
0.0586868 0.2077907 0.8640403
0.0586861 0.2084109 0.8639990
0.0586854 0.2090322 0.8639575
0.0586847 0.2096524 0.8639162
0.0586840 0.2102727 0.8638748
0.0586833 0.2108929 0.8638335
0.0586827 0.2115131 0.8637921
0.0586820 0.2121334 0.8637507
0.0586813 0.2127536 0.8637094
0.0586806 0.2133739 0.8636680
0.0586799 0.2139951 0.8636266
0.0586792 0.2146153 0.8635853
0.0586786 0.2152356 0.8635439
0.0586779 0.2158558 0.8635025
0.0586772 0.2164761 0.8634612
0.0586765 0.2170963 0.8634198
0.0586758 0.2177165 0.8633785
0.0586751 0.2183368 0.8633371
0.0586745 0.2189570 0.8632958
0.0593141 0.2034483 0.8643196
0.0593134 0.2040686 0.8642782
0.0593127 0.2046888 0.8642368
0.0593120 0.2053090 0.8641955
0.0593113 0.2059293 0.8641541
0.0593107 0.2065495 0.8641128
0.0593100 0.2071698 0.8640714
0.0593093 0.2077900 0.8640301
0.0593086 0.2084102 0.8639887
0.0593079 0.2090315 0.8639473
0.0593072 0.2096517 0.8639059
0.0593066 0.2102720 0.8638646
0.0593059 0.2108922 0.8638232
0.0593052 0.2115125 0.8637819
0.0593045 0.2121327 0.8637405
0.0593038 0.2127529 0.8636991
0.0593031 0.2133732 0.8636578
0.0593025 0.2139944 0.8636164
0.0593018 0.2146147 0.8635750
0.0593011 0.2152349 0.8635337
0.0593004 0.2158551 0.8634923
0.0592997 0.2164754 0.8634509
0.0592990 0.2170956 0.8634096
0.0593502 0.2179003 0.8633551
0.0593495 0.2185215 0.8633137
0.0593488 0.2191428 0.8632722
0.0599366 0.2034476 0.8643093
0.0599291 0.2102713 0.8638543
0.0599284 0.2108915 0.8638130
0.0599277 0.2115118 0.8637716
0.0599270 0.2121320 0.8637303
0.0599264 0.2127523 0.8636889
0.0599257 0.2133725 0.8636475
0.0599250 0.2139937 0.8636061
0.0599243 0.2146140 0.8635648
0.0599236 0.2152342 0.8635234
0.0599229 0.2158545 0.8634821
0.0599223 0.2164747 0.8634407
0.0599216 0.2170949 0.8633993
0.0599886 0.2042364 0.8642558
0.0599879 0.2048576 0.8642144
0.0599872 0.2054788 0.8641730
0.0599865 0.2060991 0.8641316
0.0599859 0.2067203 0.8640902
0.0599852 0.2073416 0.8640488
0.0599845 0.2079628 0.8640074
0.0599838 0.2085840 0.8639660
0.0599831 0.2092053 0.8639245
0.0599824 0.2098255 0.8638832
0.0599735 0.2178996 0.8633448
0.0599729 0.2185208 0.8633034
0.0599722 0.2191421 0.8632620
0.0605591 0.2034469 0.8642991
0.0605516 0.2102706 0.8638441
0.0605509 0.2108908 0.8638027
0.0605503 0.2115111 0.8637614
0.0605496 0.2121313 0.8637200
0.0605489 0.2127516 0.8636787
0.0605482 0.2133718 0.8636373
0.0605475 0.2139930 0.8635959
0.0605468 0.2146133 0.8635545
0.0605462 0.2152335 0.8635132
0.0605455 0.2158538 0.8634718
0.0605448 0.2164740 0.8634305
0.0605441 0.2170943 0.8633891
0.0606118 0.2042357 0.8642456
0.0606111 0.2048569 0.8642042
0.0606105 0.2054782 0.8641627
0.0606098 0.2060984 0.8641214
0.0606091 0.2067196 0.8640800
0.0606084 0.2073409 0.8640385
0.0606077 0.2079621 0.8639971
0.0606070 0.2085833 0.8639557
0.0606064 0.2092046 0.8639143
0.0606057 0.2098248 0.8638729
0.0605968 0.2178989 0.8633346
0.0605961 0.2185202 0.8632931
0.0605954 0.2191414 0.8632517
0.0611817 0.2034463 0.8642888
0.0611721 0.2121306 0.8637098
0.0611714 0.2127509 0.8636684
0.0611707 0.2133711 0.8636271
0.0611701 0.2139924 0.8635856
0.0611694 0.2146126 0.8635443
0.0611687 0.2152328 0.8635029
0.0611680 0.2158531 0.8634616
0.0611673 0.2164733 0.8634202
0.0612351 0.2042350 0.8642353
0.0612344 0.2048562 0.8641939
0.0612337 0.2054775 0.8641525
0.0612330 0.2060977 0.8641111
0.0612323 0.2067190 0.8640697
0.0612316 0.2073402 0.8640283
0.0612303 0.2085827 0.8639454
0.0612296 0.2092039 0.8639040
0.0612289 0.2098241 0.8638627
0.0612282 0.2104454 0.8638212
0.0612275 0.2110666 0.8637798
0.0612268 0.2116879 0.8637384
0.0612207 0.2172770 0.8633657
0.0612200 0.2178982 0.8633243
0.0612193 0.2185195 0.8632829
0.0612186 0.2191407 0.8632415
0.0612850 0.2081339 0.8639745
0.0618042 0.2034456 0.8642786
0.0617940 0.2127502 0.8636582
0.0617933 0.2133704 0.8636168
0.0617926 0.2139917 0.8635754
0.0617919 0.2146119 0.8635340
0.0618584 0.2042343 0.8642251
0.0618577 0.2048556 0.8641837
0.0618570 0.2054768 0.8641422
0.0618515 0.2104447 0.8638110
0.0618509 0.2110659 0.8637696
0.0618502 0.2116872 0.8637281
0.0618495 0.2123084 0.8636867
0.0618461 0.2154136 0.8634797
0.0618454 0.2160348 0.8634383
0.0618447 0.2166561 0.8633968
0.0618440 0.2172763 0.8633555
0.0618433 0.2178976 0.8633141
0.0618427 0.2185188 0.8632726
0.0618420 0.2191400 0.8632312
0.0619111 0.2062685 0.8640885
0.0619104 0.2068898 0.8640471
0.0619097 0.2075120 0.8640056
0.0619091 0.2081332 0.8639642
0.0619084 0.2087555 0.8639227
0.0619077 0.2093767 0.8638813
0.0619070 0.2099989 0.8638398
0.0624268 0.2034449 0.8642683
0.0624166 0.2127495 0.8636479
0.0624159 0.2133698 0.8636066
0.0624152 0.2139910 0.8635652
0.0624145 0.2146112 0.8635238
0.0624816 0.2042336 0.8642148
0.0624809 0.2048549 0.8641734
0.0624803 0.2054761 0.8641320
0.0624748 0.2104440 0.8638007
0.0624741 0.2110653 0.8637593
0.0624734 0.2116865 0.8637179
0.0624727 0.2123077 0.8636765
0.0624693 0.2154129 0.8634694
0.0624686 0.2160342 0.8634280
0.0624679 0.2166554 0.8633866
0.0624673 0.2172756 0.8633452
0.0624666 0.2178969 0.8633038
0.0624659 0.2185181 0.8632624
0.0624652 0.2191393 0.8632210
0.0625350 0.2062678 0.8640783
0.0625344 0.2068891 0.8640369
0.0625337 0.2075113 0.8639954
0.0625330 0.2081325 0.8639539
0.0625323 0.2087548 0.8639125
0.0625316 0.2093760 0.8638710
0.0625309 0.2099982 0.8638295
0.0630494 0.2034442 0.8642581
0.0631049 0.2042329 0.8642046
0.0631042 0.2048542 0.8641632
0.0630973 0.2110646 0.8637491
0.0630966 0.2116858 0.8637076
0.0630960 0.2123070 0.8636662
0.0630953 0.2129283 0.8636248
0.0630946 0.2135485 0.8635834
0.0630939 0.2141698 0.8635420
0.0630932 0.2147910 0.8635006
0.0630925 0.2154122 0.8634592
0.0630918 0.2160335 0.8634177
0.0630912 0.2166547 0.8633763
0.0630905 0.2172749 0.8633350
0.0631598 0.2056449 0.8641095
0.0631591 0.2062671 0.8640680
0.0631584 0.2068884 0.8640266
0.0631577 0.2075106 0.8639851
0.0631570 0.2081319 0.8639437
0.0631563 0.2087541 0.8639022
0.0631556 0.2093753 0.8638608
0.0631550 0.2099976 0.8638193
0.0631543 0.2106198 0.8637778
0.0631461 0.2180806 0.8632803
0.0631454 0.2187028 0.8632388
0.0636719 0.2034435 0.8642479
0.0637282 0.2042323 0.8641943
0.0637275 0.2048535 0.8641529
0.0637186 0.2129276 0.8636145
0.0637179 0.2135478 0.8635732
0.0637165 0.2147903 0.8634903
0.0637159 0.2154115 0.8634489
0.0637145 0.2166540 0.8633661
0.0637138 0.2172743 0.8633247
0.0637838 0.2056442 0.8640992
0.0637831 0.2062665 0.8640577
0.0637824 0.2068877 0.8640163
0.0637817 0.2075099 0.8639748
0.0637810 0.2081312 0.8639334
0.0637804 0.2087534 0.8638919
0.0637797 0.2093746 0.8638505
0.0637790 0.2099969 0.8638090
0.0637783 0.2106191 0.8637675
0.0637776 0.2112403 0.8637261
0.0637769 0.2118626 0.8636846
0.0637762 0.2124838 0.8636432
0.0637742 0.2143495 0.8635188
0.0637721 0.2162152 0.8633944
0.0637701 0.2180799 0.8632700
0.0637694 0.2187022 0.8632286
0.0642944 0.2034428 0.8642376
0.0643514 0.2042316 0.8641841
0.0643507 0.2048528 0.8641426
0.0643418 0.2129269 0.8636043
0.0643411 0.2135472 0.8635629
0.0643398 0.2147896 0.8634801
0.0643391 0.2154109 0.8634387
0.0643377 0.2166533 0.8633558
0.0643370 0.2172736 0.8633145
0.0644077 0.2056435 0.8640890
0.0644070 0.2062658 0.8640475
0.0644063 0.2068870 0.8640061
0.0644057 0.2075092 0.8639646
