0.0567897 0.2791417 0.8541018
0.0566942 0.2846396 0.8537432
0.0566835 0.2852508 0.8537033
0.0565871 0.2800133 0.8540949
0.0565765 0.2806245 0.8540550
0.0565127 0.2842948 0.8538157
0.0563739 0.2814992 0.8540479
0.0563632 0.2821114 0.8540080
0.0563526 0.2827236 0.8539681
0.0563419 0.2833358 0.8539281
0.0563313 0.2839490 0.8538881
0.0575962 0.2764297 0.8540763
0.0575856 0.2770400 0.8540365
0.0574583 0.2843626 0.8535589
0.0574477 0.2849728 0.8535191
0.0573838 0.2779086 0.8540296
0.0573732 0.2785198 0.8539897
0.0573625 0.2791311 0.8539499
0.0573519 0.2797413 0.8539101
0.0573413 0.2803525 0.8538702
0.0572776 0.2840188 0.8536311
0.0571394 0.2812261 0.8538630
0.0571288 0.2818373 0.8538231
0.0571181 0.2824496 0.8537832
0.0571075 0.2830608 0.8537433
0.0570969 0.2836730 0.8537034
0.0581684 0.2764191 0.8539245
0.0581578 0.2770294 0.8538847
0.0581472 0.2776396 0.8538449
0.0581366 0.2782498 0.8538051
0.0581260 0.2788600 0.8537653
0.0580305 0.2843520 0.8534072
0.0580199 0.2849622 0.8533674
0.0579247 0.2797307 0.8537582
0.0579141 0.2803419 0.8537183
0.0578504 0.2840082 0.8534792
0.0577129 0.2812155 0.8537109
0.0577022 0.2818267 0.8536710
0.0576916 0.2824389 0.8536311
0.0576810 0.2830502 0.8535913
0.0576703 0.2836624 0.8535513
0.0587406 0.2764085 0.8537728
0.0587300 0.2770188 0.8537330
0.0587194 0.2776290 0.8536932
0.0587088 0.2782392 0.8536534
0.0586982 0.2788494 0.8536136
0.0586134 0.2837312 0.8532952
0.0584977 0.2797200 0.8536062
0.0584870 0.2803313 0.8535664
0.0584764 0.2809425 0.8535265
0.0584446 0.2827751 0.8534070
0.0584339 0.2833863 0.8533671
0.0582758 0.2818161 0.8535189
0.0582652 0.2824283 0.8534790
0.0593128 0.2763979 0.8536210
0.0593022 0.2770082 0.8535812
0.0592916 0.2776184 0.8535414
0.0592810 0.2782286 0.8535016
0.0592704 0.2788388 0.8534618
0.0592598 0.2794490 0.8534220
0.0592492 0.2800593 0.8533822
0.0591855 0.2837206 0.8531435
0.0590492 0.2809319 0.8533746
0.0590386 0.2815431 0.8533347
0.0590280 0.2821533 0.8532949
0.0590174 0.2827645 0.8532551
0.0590067 0.2833757 0.8532152
0.0598850 0.2763873 0.8534693
0.0598744 0.2769976 0.8534295
0.0598637 0.2776078 0.8533897
0.0598531 0.2782180 0.8533499
0.0598425 0.2788282 0.8533101
0.0598319 0.2794384 0.8532703
0.0598213 0.2800487 0.8532305
0.0597577 0.2837100 0.8529917
0.0596221 0.2809213 0.8532226
0.0596115 0.2815325 0.8531828
0.0596009 0.2821427 0.8531430
0.0595903 0.2827539 0.8531031
0.0595797 0.2833651 0.8530633
0.0604041 0.2794278 0.8531186
0.0603935 0.2800381 0.8530788
0.0603511 0.2824789 0.8529196
0.0603405 0.2830892 0.8528798
0.0601949 0.2809106 0.8530707
0.0601843 0.2815219 0.8530309
0.0601737 0.2821321 0.8529911
0.0609550 0.2806377 0.8528872
0.0609444 0.2812479 0.8528474
0.0609338 0.2818581 0.8528076
0.0609232 0.2824683 0.8527678
0.0609126 0.2830786 0.8527280
0.0615273 0.2806271 0.8527355
0.0615167 0.2812373 0.8526957
0.0615061 0.2818475 0.8526559
0.0614955 0.2824577 0.8526161
0.0614849 0.2830680 0.8525763
0.0620995 0.2806165 0.8525837
0.0620889 0.2812267 0.8525439
0.0741046 0.2810041 0.8493573
0.0740940 0.2816143 0.8493175
0.0740834 0.2822245 0.8492777
0.0740728 0.2828348 0.8492379
0.0740622 0.2834450 0.8491981
0.0740516 0.2840552 0.8491583
0.0740410 0.2846654 0.8491185
0.0746768 0.2809935 0.8492056
0.0746662 0.2816037 0.8491658
0.0746556 0.2822139 0.8491260
0.0746450 0.2828242 0.8490862
0.0746344 0.2834344 0.8490464
0.0746238 0.2840446 0.8490066
0.0746131 0.2846548 0.8489668
0.0752596 0.2803727 0.8490936
0.0752489 0.2809829 0.8490538
0.0752383 0.2815931 0.8490140
0.0752277 0.2822033 0.8489742
0.0752171 0.2828136 0.8489344
0.0752065 0.2834238 0.8488946
0.0751959 0.2840340 0.8488548
0.0751853 0.2846442 0.8488150
0.0751747 0.2852544 0.8487752
0.0751641 0.2858647 0.8487354
0.0758318 0.2803621 0.8489419
0.0757364 0.2858541 0.8485837
0.0756514 0.2812353 0.8489289
0.0756408 0.2818456 0.8488891
0.0756301 0.2824568 0.8488493
0.0756195 0.2830680 0.8488094
0.0756089 0.2836792 0.8487696
0.0755983 0.2842894 0.8487298
0.0755877 0.2849006 0.8486899
0.0755770 0.2855119 0.8486500
0.0764040 0.2803515 0.8487901
0.0763085 0.2858435 0.8484319
0.0762242 0.2812247 0.8487770
0.0762136 0.2818349 0.8487372
0.0761711 0.2842788 0.8485778
0.0761605 0.2848900 0.8485380
0.0761499 0.2855012 0.8484981
0.0760339 0.2827102 0.8487240
0.0760232 0.2833224 0.8486841
0.0760126 0.2839336 0.8486442
0.0769867 0.2797307 0.8486782
0.0769761 0.2803409 0.8486384
0.0767440 0.2842682 0.8484259
0.0767334 0.2848794 0.8483860
0.0767228 0.2854906 0.8483462
0.0766287 0.2814761 0.8486517
0.0766180 0.2820883 0.8486117
0.0766074 0.2826995 0.8485719
0.0765968 0.2833118 0.8485320
0.0765861 0.2839230 0.8484921
0.0775589 0.2797201 0.8485264
0.0773805 0.2805923 0.8485130
0.0772021 0.2814655 0.8484996
0.0771915 0.2820777 0.8484597
0.0771490 0.2845246 0.8483001
0.0771384 0.2851358 0.8482602
0.0771277 0.2857480 0.8482203
0.0770131 0.2829529 0.8484461
0.0770024 0.2835661 0.8484061
0.0769918 0.2841783 0.8483662
0.0781311 0.2797095 0.8483747
0.0777863 0.2808436 0.8483873
0.0776086 0.2817178 0.8483736
0.0775979 0.2823301 0.8483337
0.0775873 0.2829423 0.8482938
0.0775766 0.2835555 0.8482538
0.0775660 0.2841677 0.8482139
0.0775554 0.2847799 0.8481739
0.0775447 0.2853921 0.8481340
0.0787033 0.2796989 0.8482229
0.0783599 0.2808330 0.8482352
0.0781828 0.2817072 0.8482214
0.0781722 0.2823194 0.8481814
0.0781615 0.2829316 0.8481415
0.0781509 0.2835448 0.8481015
0.0781402 0.2841570 0.8480616
0.0781296 0.2847693 0.8480217
0.0781189 0.2853815 0.8479817
0.0791098 0.2799492 0.8480971
0.0789334 0.2808224 0.8480831
0.0787570 0.2816966 0.8480691
0.0787464 0.2823088 0.8480291
0.0787357 0.2829210 0.8479892
0.0787144 0.2841464 0.8479093
0.0787038 0.2847586 0.8478694
0.0786932 0.2853708 0.8478294
0.0785593 0.2837981 0.8479750
0.0798688 0.2784572 0.8479990
0.0798582 0.2790675 0.8479592
0.0796826 0.2799386 0.8479452
0.0793419 0.2810737 0.8479567
0.0793312 0.2816859 0.8479168
0.0793206 0.2822981 0.8478769
0.0792780 0.2847480 0.8477171
0.0792674 0.2853602 0.8476772
0.0791449 0.2831743 0.8478625
0.0791342 0.2837875 0.8478225
0.0791236 0.2844007 0.8477825
0.0804410 0.2784466 0.8478473
0.0804304 0.2790569 0.8478075
0.0802554 0.2799280 0.8477933
0.0799161 0.2810631 0.8478044
0.0799055 0.2816753 0.8477645
0.0798948 0.2822875 0.8477246
0.0798522 0.2847373 0.8475648
0.0798416 0.2853496 0.8475249
0.0797197 0.2831636 0.8477100
0.0797091 0.2837768 0.8476700
0.0796984 0.2843900 0.8476300
0.0810132 0.2784360 0.8476956
0.0810026 0.2790463 0.8476558
0.0806646 0.2801783 0.8476668
0.0804902 0.2810524 0.8476522
0.0804796 0.2816647 0.8476122
0.0804264 0.2847267 0.8474125
0.0804157 0.2853389 0.8473726
0.0803052 0.2825408 0.8475975
0.0802946 0.2831530 0.8475576
0.0802839 0.2837662 0.8475176
0.0802733 0.2843794 0.8474776
0.0815854 0.2784254 0.8475438
0.0815748 0.2790357 0.8475040
0.0812382 0.2801677 0.8475146
0.0810644 0.2810418 0.8474999
0.0810538 0.2816540 0.8474600
0.0810006 0.2847161 0.8472603
0.0809899 0.2853283 0.8472203
0.0808801 0.2825301 0.8474450
0.0808695 0.2831423 0.8474051
0.0808482 0.2843687 0.8473251
0.0806957 0.2840204 0.8473901
0.0821576 0.2784148 0.8473921
0.0821470 0.2790251 0.8473523
0.0818116 0.2801571 0.8473626
0.0816386 0.2810312 0.8473476
0.0816280 0.2816434 0.8473077
0.0815748 0.2847054 0.8471080
0.0815641 0.2853176 0.8470680
0.0814550 0.2825195 0.8472926
0.0814443 0.2831317 0.8472527
0.0814337 0.2837449 0.8472127
0.0814230 0.2843581 0.8471727
0.0827298 0.2784042 0.8472403
0.0827191 0.2790145 0.8472005
0.0823852 0.2801464 0.8472105
0.0822129 0.2810205 0.8471953
0.0822022 0.2816327 0.8471554
0.0821490 0.2846948 0.8469557
0.0821384 0.2853070 0.8469158
0.0820299 0.2825088 0.8471401
0.0820192 0.2831210 0.8471002
0.0820086 0.2837342 0.8470602
0.0819979 0.2843475 0.8470202
0.0831409 0.2786535 0.8471133
0.0831303 0.2792637 0.8470735
0.0829588 0.2801358 0.8470583
0.0827871 0.2810099 0.8470430
0.0827764 0.2816221 0.8470031
0.0827232 0.2846842 0.8468034
0.0827126 0.2852964 0.8467635
0.0826047 0.2824982 0.8469877
0.0825941 0.2831104 0.8469477
0.0825728 0.2843368 0.8468678
0.0824223 0.2839884 0.8469322
0.0837138 0.2786429 0.8469614
0.0837032 0.2792531 0.8469216
0.0835322 0.2801252 0.8469063
0.0833613 0.2809993 0.8468908
0.0833507 0.2816115 0.8468508
0.0832974 0.2846735 0.8466511
0.0832868 0.2852857 0.8466112
0.0831796 0.2824875 0.8468352
0.0831690 0.2830997 0.8467953
0.0831583 0.2837129 0.8467553
0.0831476 0.2843262 0.8467153
0.0842866 0.2786323 0.8468095
0.0842760 0.2792425 0.8467697
0.0841058 0.2801146 0.8467541
0.0840101 0.2856205 0.8463950
0.0839354 0.2809886 0.8467385
0.0839248 0.2816008 0.8466986
0.0838822 0.2840507 0.8465388
0.0838716 0.2846629 0.8464989
0.0838609 0.2852751 0.8464589
0.0837545 0.2824769 0.8466828
0.0837438 0.2830891 0.8466428
0.0837332 0.2837023 0.8466028
0.0848595 0.2786217 0.8466575
0.0848489 0.2792319 0.8466178
0.0846793 0.2801039 0.8466021
0.0845836 0.2856099 0.8462430
0.0845096 0.2809780 0.8465862
0.0844990 0.2815902 0.8465463
0.0844884 0.2822024 0.8465064
0.0844777 0.2828146 0.8464664
0.0844671 0.2834278 0.8464264
0.0844564 0.2840400 0.8463865
0.0844458 0.2846522 0.8463466
0.0844351 0.2852645 0.8463066
0.0854324 0.2786111 0.8465056
0.0854218 0.2792213 0.8464658
0.0852528 0.2800933 0.8464499
0.0851571 0.2855992 0.8460909
0.0850839 0.2809673 0.8464339
0.0850732 0.2815796 0.8463940
0.0850626 0.2821918 0.8463541
0.0850519 0.2828040 0.8463141
0.0850413 0.2834172 0.8462741
0.0850306 0.2840294 0.8462342
0.0850200 0.2846416 0.8461943
0.0850094 0.2852538 0.8461544
0.0861734 0.2777304 0.8463697
0.0860355 0.2856633 0.8458523
0.0860052 0.2786004 0.8463537
0.0859946 0.2792107 0.8463139
0.0858884 0.2853208 0.8459154
0.0858264 0.2800827 0.8462978
0.0857626 0.2837530 0.8460585
0.0857520 0.2843652 0.8460185
0.0857413 0.2849764 0.8459787
0.0856581 0.2809567 0.8462816
0.0856474 0.2815689 0.8462417
0.0856368 0.2821811 0.8462018
0.0856261 0.2827933 0.8461619
0.0856155 0.2834066 0.8461219
0.0867456 0.2777198 0.8462179
0.0867350 0.2783300 0.8461781
0.0867244 0.2789403 0.8461383
0.0866183 0.2850425 0.8457403
0.0866077 0.2856527 0.8457005
0.0865569 0.2798113 0.8461221
0.0864825 0.2840878 0.8458432
0.0864719 0.2846990 0.8458033
0.0863892 0.2806843 0.8461058
0.0863786 0.2812955 0.8460660
0.0863573 0.2825189 0.8459862
0.0863467 0.2831311 0.8459462
0.0863361 0.2837424 0.8459064
0.0862110 0.2821705 0.8460495
0.0873072 0.2783194 0.8460264
0.0872966 0.2789297 0.8459866
0.0871906 0.2850319 0.8455886
0.0871800 0.2856421 0.8455488
0.0871297 0.2798007 0.8459702
0.0870553 0.2840772 0.8456913
0.0870447 0.2846884 0.8456514
0.0869628 0.2806737 0.8459537
0.0869522 0.2812849 0.8459138
0.0869309 0.2825083 0.8458341
0.0869202 0.2831205 0.8457941
0.0869096 0.2837317 0.8457543
0.0867851 0.2821599 0.8458972
0.0878794 0.2783088 0.8458746
0.0878688 0.2789191 0.8458348
0.0878582 0.2795293 0.8457950
0.0877839 0.2838008 0.8455164
0.0877733 0.2844110 0.8454766
0.0877627 0.2850213 0.8454368
0.0876920 0.2804013 0.8457784
0.0876813 0.2810125 0.8457385
0.0876389 0.2834563 0.8455792
0.0875151 0.2818865 0.8457218
0.0875044 0.2824977 0.8456819
0.0874938 0.2831099 0.8456420
0.0884303 0.2795187 0.8456433
0.0884197 0.2801289 0.8456035
0.0884091 0.2807391 0.8455637
0.0883561 0.2837902 0.8453647
0.0883455 0.2844004 0.8453249
0.0882435 0.2816121 0.8455468
0.0882329 0.2822233 0.8455070
0.0882223 0.2828345 0.8454671
0.0882117 0.2834457 0.8454272
0.0890025 0.2795081 0.8454915
0.0889919 0.2801183 0.8454517
0.0889813 0.2807285 0.8454119
0.0889283 0.2837796 0.8452130
0.0889177 0.2843898 0.8451732
0.0888164 0.2816015 0.8453949
0.0888057 0.2822127 0.8453551
0.0887951 0.2828239 0.8453152
0.0887845 0.2834351 0.8452753
0.0895641 0.2801077 0.8453000
0.0895535 0.2807179 0.8452602
0.0895428 0.2813281 0.8452204
0.0895322 0.2819384 0.8451806
0.0895216 0.2825486 0.8451408
0.0895110 0.2831588 0.8451010
0.0895004 0.2837690 0.8450612
0.0894898 0.2843792 0.8450214
0.0901151 0.2813175 0.8450686
0.0901045 0.2819278 0.8450288
0.0900939 0.2825380 0.8449890
0.0906873 0.2813069 0.8449169
0.0906767 0.2819172 0.8448771
0.0906661 0.2825274 0.8448373
0.0142915 0.2964347 0.8642195
0.0142808 0.2970519 0.8641793
0.0148704 0.2964240 0.8640660
0.0148597 0.2970412 0.8640257
0.0154493 0.2964133 0.8639125
0.0154385 0.2970305 0.8638722
0.0160390 0.2957854 0.8637992
0.0160282 0.2964026 0.8637589
0.0160175 0.2970198 0.8637187
0.0166179 0.2957747 0.8636457
0.0166071 0.2963918 0.8636054
0.0165964 0.2970090 0.8635652
0.0171967 0.2957639 0.8634921
0.0171860 0.2963811 0.8634519
0.0171753 0.2969983 0.8634116
0.0177971 0.2945178 0.8634192
0.0177864 0.2951350 0.8633789
0.0177756 0.2957532 0.8633386
0.0177649 0.2963704 0.8632984
0.0177542 0.2969876 0.8632581
0.0185785 0.2960825 0.8631017
0.0185678 0.2966987 0.8630615
0.0183761 0.2945071 0.8632656
0.0183654 0.2951243 0.8632254
0.0183546 0.2957425 0.8631851
0.0191567 0.2960718 0.8629483
0.0191460 0.2966880 0.8629081
0.0189550 0.2944964 0.8631121
0.0189442 0.2951136 0.8630719
0.0189335 0.2957318 0.8630315
0.0199468 0.2970153 0.8626718
0.0197457 0.2954439 0.8628352
0.0197349 0.2960611 0.8627950
0.0197242 0.2966773 0.8627548
0.0195446 0.2938685 0.8629988
0.0195339 0.2944857 0.8629586
0.0195231 0.2951029 0.8629183
0.0205458 0.2957723 0.8625990
0.0205351 0.2963884 0.8625588
0.0205244 0.2970046 0.8625187
0.0203239 0.2954332 0.8626819
0.0201236 0.2938577 0.8628453
0.0201128 0.2944749 0.8628050
0.0201021 0.2950921 0.8627648
0.0211234 0.2957616 0.8624459
0.0211127 0.2963777 0.8624057
0.0211020 0.2969939 0.8623655
0.0209021 0.2954225 0.8625285
0.0207132 0.2932298 0.8627320
0.0207025 0.2938470 0.8626918
0.0206917 0.2944642 0.8626515
0.0206810 0.2950814 0.8626113
0.0217010 0.2957509 0.8622927
0.0216903 0.2963670 0.8622525
0.0216796 0.2969832 0.8622123
0.0215019 0.2941784 0.8624556
0.0214912 0.2947956 0.8624153
0.0214805 0.2954118 0.8623751
0.0212921 0.2932191 0.8625785
0.0212813 0.2938363 0.8625383
0.0222786 0.2957402 0.8621395
0.0222679 0.2963563 0.8620993
0.0222571 0.2969725 0.8620591
0.0220801 0.2941677 0.8623022
0.0220694 0.2947849 0.8622620
0.0220587 0.2954010 0.8622218
0.0218924 0.2919730 0.8625056
0.0218817 0.2925912 0.8624652
0.0218710 0.2932084 0.8624250
0.0218602 0.2938256 0.8623847
0.0228669 0.2951133 0.8620265
0.0228561 0.2957295 0.8619863
0.0228454 0.2963456 0.8619461
0.0228347 0.2969618 0.8619060
0.0226691 0.2935408 0.8621891
0.0226584 0.2941570 0.8621489
0.0226476 0.2947741 0.8621086
0.0224821 0.2913451 0.8623923
0.0224714 0.2919623 0.8623520
0.0224607 0.2925805 0.8623117
0.0224499 0.2931977 0.8622714
0.0234444 0.2951026 0.8618733
0.0234337 0.2957188 0.8618332
0.0234123 0.2969511 0.8617528
0.0232473 0.2935300 0.8620357
0.0232366 0.2941462 0.8619955
0.0232259 0.2947634 0.8619553
0.0231937 0.2966130 0.8618346
0.0230610 0.2913344 0.8622387
0.0230503 0.2919516 0.8621985
0.0230395 0.2925698 0.8621582
0.0230288 0.2931869 0.8621179
0.0240219 0.2950919 0.8617202
0.0240112 0.2957081 0.8616800
0.0239898 0.2969404 0.8615996
0.0238255 0.2935193 0.8618824
0.0238148 0.2941355 0.8618422
0.0238041 0.2947527 0.8618019
0.0237720 0.2966023 0.8616813
0.0236614 0.2900893 0.8621657
0.0236506 0.2907065 0.8621255
0.0236399 0.2913237 0.8620852
0.0236292 0.2919408 0.8620450
0.0236184 0.2925590 0.8620046
0.0236077 0.2931762 0.8619644
0.0245888 0.2956974 0.8615268
0.0245781 0.2963135 0.8614866
0.0245674 0.2969297 0.8614464
0.0244145 0.2928914 0.8617693
0.0244038 0.2935086 0.8617290
0.0243931 0.2941248 0.8616888
0.0243823 0.2947420 0.8616486
0.0243716 0.2953582 0.8616084
0.0242940 0.2869906 0.8622136
0.0242833 0.2876088 0.8621732
0.0242725 0.2882260 0.8621330
0.0242618 0.2888432 0.8620927
0.0242511 0.2894604 0.8620525
0.0242403 0.2900786 0.8620122
0.0242296 0.2906957 0.8619719
0.0242189 0.2913129 0.8619317
0.0242082 0.2919301 0.8618914
0.0241974 0.2925483 0.8618511
0.0251664 0.2956867 0.8613736
0.0251557 0.2963028 0.8613335
0.0251450 0.2969190 0.8612933
0.0249927 0.2928807 0.8616159
0.0249820 0.2934979 0.8615757
0.0249713 0.2941141 0.8615355
0.0249606 0.2947313 0.8614952
0.0249499 0.2953475 0.8614550
0.0248729 0.2869799 0.8620600
0.0248622 0.2875981 0.8620197
0.0248514 0.2882153 0.8619795
0.0248407 0.2888325 0.8619392
0.0248300 0.2894496 0.8618990
0.0248192 0.2900678 0.8618586
0.0248085 0.2906850 0.8618184
0.0247978 0.2913022 0.8617781
0.0247870 0.2919194 0.8617379
0.0247763 0.2925376 0.8616976
0.0257439 0.2956760 0.8612205
0.0257332 0.2962921 0.8611803
0.0257225 0.2969083 0.8611401
0.0255924 0.2916366 0.8615430
0.0255817 0.2922538 0.8615028
0.0255710 0.2928700 0.8614626
0.0255602 0.2934872 0.8614223
0.0255495 0.2941034 0.8613821
0.0255388 0.2947206 0.8613419
0.0255281 0.2953368 0.8613017
0.0254518 0.2869692 0.8619065
0.0254410 0.2875874 0.8618662
0.0254303 0.2882045 0.8618259
0.0254196 0.2888217 0.8617857
0.0254089 0.2894389 0.8617454
0.0253981 0.2900571 0.8617051
0.0253874 0.2906743 0.8616649
0.0253767 0.2912915 0.8616246
0.0263001 0.2968976 0.8609869
0.0262028 0.2897754 0.8615104
0.0261921 0.2903925 0.8614701
0.0261814 0.2910087 0.8614299
0.0261706 0.2916259 0.8613897
0.0261599 0.2922431 0.8613494
0.0261492 0.2928593 0.8613092
0.0261385 0.2934765 0.8612690
0.0261278 0.2940927 0.8612288
0.0261170 0.2947099 0.8611885
0.0261063 0.2953261 0.8611483
0.0260956 0.2959433 0.8611081
0.0260849 0.2965594 0.8610679
0.0260307 0.2869584 0.8617530
0.0260199 0.2875766 0.8617127
0.0260092 0.2881938 0.8616724
0.0259985 0.2888110 0.8616322
0.0259877 0.2894282 0.8615919
0.0268777 0.2968869 0.8608337
0.0267810 0.2897646 0.8613570
0.0267703 0.2903818 0.8613168
0.0267596 0.2909980 0.8612766
0.0267489 0.2916152 0.8612363
0.0267381 0.2922324 0.8611961
0.0267274 0.2928486 0.8611559
0.0267167 0.2934658 0.8611156
0.0267060 0.2940820 0.8610754
0.0266953 0.2946992 0.8610352
0.0266846 0.2953154 0.8609950
0.0266738 0.2959325 0.8609547
0.0266631 0.2965487 0.8609145
0.0266096 0.2869477 0.8615994
0.0265989 0.2875659 0.8615591
0.0265882 0.2881831 0.8615189
0.0265774 0.2888003 0.8614786
0.0265667 0.2894175 0.8614384
0.0274981 0.2944125 0.8608413
0.0274874 0.2950277 0.8608011
0.0274553 0.2968762 0.8606806
0.0273914 0.2879044 0.8613243
0.0273807 0.2885205 0.8612841
0.0273700 0.2891377 0.8612438
0.0273593 0.2897539 0.8612037
0.0273485 0.2903711 0.8611634
0.0273378 0.2909873 0.8611232
0.0273271 0.2916045 0.8610830
0.0273164 0.2922217 0.8610427
0.0273057 0.2928379 0.8610025
0.0272949 0.2934551 0.8609623
0.0272842 0.2940713 0.8609221
0.0272521 0.2959218 0.8608014
0.0272414 0.2965380 0.8607612
0.0271885 0.2869370 0.8614459
0.0271778 0.2875552 0.8614056
0.0280756 0.2944018 0.8606881
0.0280649 0.2950170 0.8606480
0.0279911 0.2866603 0.8612514
0.0279804 0.2872765 0.8612112
0.0279696 0.2878936 0.8611709
0.0279589 0.2885098 0.8611307
0.0279482 0.2891270 0.8610905
0.0279375 0.2897432 0.8610503
0.0279268 0.2903604 0.8610101
0.0279161 0.2909766 0.8609699
0.0279053 0.2915938 0.8609296
0.0278946 0.2922110 0.8608894
0.0278839 0.2928272 0.8608492
0.0278732 0.2934444 0.8608089
0.0278625 0.2940605 0.8607687
0.0278303 0.2959111 0.8606480
0.0278196 0.2965273 0.8606078
0.0286532 0.2943911 0.8605349
0.0286425 0.2950063 0.8604948
0.0285693 0.2866496 0.8610980
0.0285586 0.2872657 0.8610578
0.0285479 0.2878829 0.8610176
0.0285372 0.2884991 0.8609774
0.0285264 0.2891163 0.8609371
0.0285157 0.2897325 0.8608970
0.0285050 0.2903497 0.8608567
0.0284943 0.2909659 0.8608165
0.0284836 0.2915831 0.8607763
0.0284728 0.2922003 0.8607360
0.0284621 0.2928165 0.8606958
0.0284514 0.2934336 0.8606556
0.0284407 0.2940498 0.8606154
0.0284085 0.2959004 0.8604947
0.0283978 0.2965166 0.8604545
0.0292950 0.2906842 0.8606228
0.0292843 0.2913004 0.8605826
0.0292307 0.2943804 0.8603817
0.0292200 0.2949956 0.8603416
0.0291476 0.2866388 0.8609447
0.0291368 0.2872550 0.8609045
0.0291261 0.2878722 0.8608642
0.0291154 0.2884884 0.8608240
0.0291047 0.2891056 0.8607838
0.0290940 0.2897218 0.8607436
0.0290832 0.2903390 0.8607034
0.0290511 0.2921896 0.8605827
0.0290404 0.2928057 0.8605425
0.0290296 0.2934229 0.8605022
0.0290189 0.2940391 0.8604620
0.0289868 0.2958897 0.8603413
0.0289761 0.2965059 0.8603011
0.0299261 0.2875935 0.8606705
0.0299154 0.2882097 0.8606303
0.0299047 0.2888259 0.8605901
0.0298940 0.2894411 0.8605500
0.0298833 0.2900573 0.8605098
0.0298726 0.2906735 0.8604696
0.0298618 0.2912897 0.8604294
0.0298511 0.2919059 0.8603893
0.0298404 0.2925211 0.8603491
0.0298297 0.2931373 0.8603089
0.0298190 0.2937535 0.8602688
0.0298083 0.2943697 0.8602286
0.0297258 0.2866281 0.8607913
0.0297151 0.2872443 0.8607511
0.0295757 0.2952618 0.8602282
0.0295650 0.2958790 0.8601880
0.0295543 0.2964952 0.8601478
0.0305037 0.2875828 0.8605173
0.0304930 0.2881990 0.8604771
0.0304822 0.2888152 0.8604370
0.0304716 0.2894304 0.8603968
0.0304608 0.2900466 0.8603566
0.0304501 0.2906628 0.8603165
0.0304394 0.2912790 0.8602763
0.0304287 0.2918952 0.8602361
0.0304180 0.2925104 0.8601960
0.0304073 0.2931266 0.8601558
0.0303966 0.2937428 0.8601156
0.0303859 0.2943590 0.8600754
0.0303041 0.2866174 0.8606380
0.0302934 0.2872336 0.8605978
0.0301540 0.2952511 0.8600749
0.0301433 0.2958683 0.8600346
0.0301326 0.2964845 0.8599944
0.0310920 0.2869559 0.8604043
0.0310812 0.2875721 0.8603642
0.0310705 0.2881883 0.8603240
0.0310598 0.2888045 0.8602838
0.0310491 0.2894197 0.8602437
0.0310384 0.2900359 0.8602035
0.0310277 0.2906521 0.8601633
0.0310170 0.2912683 0.8601231
0.0310063 0.2918845 0.8600829
0.0309956 0.2924997 0.8600428
0.0309849 0.2931159 0.8600026
0.0309742 0.2937321 0.8599624
0.0309635 0.2943483 0.8599222
0.0308823 0.2866067 0.8604846
0.0307323 0.2952404 0.8599215
0.0307216 0.2958576 0.8598813
0.0307108 0.2964738 0.8598411
0.0316695 0.2869452 0.8602512
0.0316588 0.2875614 0.8602110
0.0316481 0.2881776 0.8601708
0.0316374 0.2887938 0.8601306
0.0316267 0.2894090 0.8600905
0.0316160 0.2900252 0.8600503
0.0316053 0.2906414 0.8600101
0.0315946 0.2912576 0.8599699
0.0315839 0.2918738 0.8599297
0.0315732 0.2924890 0.8598896
0.0315625 0.2931052 0.8598494
0.0313320 0.2939963 0.8598486
0.0313212 0.2946135 0.8598084
0.0313105 0.2952297 0.8597682
0.0312998 0.2958468 0.8597279
0.0312891 0.2964630 0.8596877
0.0322470 0.2869345 0.8600980
0.0322363 0.2875507 0.8600578
0.0322256 0.2881669 0.8600176
0.0322149 0.2887831 0.8599775
0.0322042 0.2893983 0.8599373
0.0321935 0.2900145 0.8598971
0.0321828 0.2906307 0.8598570
0.0321721 0.2912469 0.8598168
0.0321614 0.2918631 0.8597766
0.0321507 0.2924783 0.8597365
0.0319209 0.2933694 0.8597354
0.0319102 0.2939856 0.8596953
0.0318995 0.2946028 0.8596550
0.0318887 0.2952189 0.8596148
0.0318780 0.2958361 0.8595746
0.0316481 0.2967302 0.8595734
0.0328246 0.2869239 0.8599448
0.0328139 0.2875400 0.8599047
0.0328032 0.2881562 0.8598645
0.0327925 0.2887724 0.8598243
0.0327818 0.2893876 0.8597842
0.0327711 0.2900038 0.8597440
0.0327604 0.2906200 0.8597038
0.0327496 0.2912362 0.8596636
0.0327389 0.2918524 0.8596234
0.0327282 0.2924676 0.8595833
0.0324991 0.2933587 0.8595821
0.0324884 0.2939749 0.8595419
0.0324777 0.2945920 0.8595017
0.0324670 0.2952082 0.8594615
0.0324563 0.2958254 0.8594212
0.0322270 0.2967195 0.8594199
0.0334022 0.2869132 0.8597917
0.0333915 0.2875293 0.8597515
0.0333808 0.2881455 0.8597113
0.0333700 0.2887617 0.8596711
0.0333594 0.2893769 0.8596310
0.0333486 0.2899931 0.8595908
0.0333379 0.2906093 0.8595506
0.0333272 0.2912255 0.8595104
0.0333165 0.2918417 0.8594702
0.0333058 0.2924569 0.8594301
0.0332951 0.2930731 0.8593899
0.0330666 0.2939641 0.8593886
0.0330559 0.2945813 0.8593483
0.0330452 0.2951975 0.8593081
0.0330345 0.2958147 0.8592679
0.0328060 0.2967088 0.8592663
0.0339798 0.2869025 0.8596385
0.0339690 0.2875186 0.8595983
0.0339583 0.2881348 0.8595581
0.0339476 0.2887510 0.8595179
0.0339369 0.2893662 0.8594778
0.0339262 0.2899824 0.8594376
0.0339155 0.2905986 0.8593974
0.0339048 0.2912148 0.8593572
0.0338941 0.2918310 0.8593171
0.0338834 0.2924462 0.8592769
0.0338727 0.2930624 0.8592367
0.0336449 0.2939534 0.8592352
0.0336342 0.2945706 0.8591950
0.0336234 0.2951868 0.8591548
0.0333956 0.2960808 0.8591530
0.0333849 0.2966980 0.8591128
0.0345573 0.2868918 0.8594853
0.0345466 0.2875079 0.8594451
0.0345359 0.2881241 0.8594049
0.0345252 0.2887403 0.8593647
0.0345145 0.2893555 0.8593246
0.0345038 0.2899717 0.8592844
0.0344931 0.2905879 0.8592442
0.0344824 0.2912041 0.8592041
0.0344717 0.2918203 0.8591639
0.0344610 0.2924355 0.8591238
0.0344503 0.2930517 0.8590836
0.0342231 0.2939427 0.8590819
0.0342124 0.2945599 0.8590416
0.0342017 0.2951761 0.8590014
0.0339745 0.2960701 0.8589995
0.0339637 0.2966873 0.8589593
0.0351349 0.2868811 0.8593321
0.0351242 0.2874972 0.8592919
0.0351135 0.2881134 0.8592518
0.0351028 0.2887296 0.8592116
0.0350921 0.2893448 0.8591714
0.0350814 0.2899610 0.8591313
0.0350707 0.2905772 0.8590911
0.0350600 0.2911934 0.8590509
0.0350492 0.2918096 0.8590107
0.0350386 0.2924248 0.8589706
0.0350278 0.2930410 0.8589304
0.0348013 0.2939320 0.8589285
0.0347906 0.2945492 0.8588883
0.0347799 0.2951654 0.8588481
0.0345534 0.2960594 0.8588460
0.0345426 0.2966766 0.8588057
0.0357125 0.2868704 0.8591790
0.0357018 0.2874865 0.8591388
0.0356911 0.2881027 0.8590986
0.0356804 0.2887189 0.8590584
0.0356697 0.2893341 0.8590183
0.0356590 0.2899503 0.8589781
0.0356482 0.2905665 0.8589379
0.0356375 0.2911827 0.8588977
0.0356268 0.2917989 0.8588575
0.0356161 0.2924141 0.8588174
0.0356054 0.2930303 0.8587772
0.0355947 0.2936465 0.8587370
0.0355840 0.2942627 0.8586968
0.0353581 0.2951547 0.8586947
0.0353474 0.2957719 0.8586545
0.0353367 0.2963881 0.8586143
0.0362900 0.2868597 0.8590258
0.0362793 0.2874758 0.8589856
0.0362686 0.2880920 0.8589454
0.0362578 0.2887082 0.8589052
0.0362472 0.2893234 0.8588651
0.0362364 0.2899396 0.8588249
0.0362257 0.2905558 0.8587847
0.0362150 0.2911720 0.8587446
0.0362043 0.2917882 0.8587044
0.0361936 0.2924034 0.8586642
0.0361829 0.2930196 0.8586241
0.0361722 0.2936358 0.8585839
0.0361615 0.2942520 0.8585437
0.0359364 0.2951440 0.8585414
0.0359256 0.2957612 0.8585011
0.0359149 0.2963773 0.8584609
0.0368676 0.2868490 0.8588726
0.0368568 0.2874651 0.8588324
0.0368461 0.2880813 0.8587923
0.0368354 0.2886975 0.8587521
0.0368247 0.2893127 0.8587119
0.0368140 0.2899289 0.8586718
0.0368033 0.2905451 0.8586316
0.0367926 0.2911613 0.8585914
0.0367819 0.2917775 0.8585512
0.0367712 0.2923927 0.8585111
0.0367605 0.2930089 0.8584709
0.0367498 0.2936251 0.8584307
0.0367391 0.2942413 0.8583905
0.0365146 0.2951333 0.8583880
0.0365039 0.2957504 0.8583478
0.0364932 0.2963666 0.8583076
0.0376581 0.2865714 0.8586813
0.0376474 0.2871866 0.8586412
0.0376367 0.2878018 0.8586011
0.0376260 0.2884170 0.8585610
0.0376153 0.2890322 0.8585209
0.0376046 0.2896474 0.8584807
0.0375939 0.2902626 0.8584406
0.0375832 0.2908778 0.8584005
0.0375725 0.2914930 0.8583604
0.0375618 0.2921092 0.8583202
0.0373381 0.2929982 0.8583177
0.0373274 0.2936144 0.8582775
0.0373166 0.2942306 0.8582373
0.0373060 0.2948458 0.8581972
0.0370821 0.2957397 0.8581944
0.0370714 0.2963559 0.8581542
0.0382350 0.2865608 0.8585283
0.0382243 0.2871760 0.8584882
0.0382136 0.2877912 0.8584481
0.0382029 0.2884063 0.8584080
0.0381922 0.2890215 0.8583678
0.0381815 0.2896367 0.8583277
0.0381708 0.2902519 0.8582876
0.0381602 0.2908671 0.8582475
0.0381495 0.2914823 0.8582074
0.0381387 0.2920985 0.8581672
0.0379156 0.2929875 0.8581645
0.0379049 0.2936037 0.8581243
0.0378942 0.2942199 0.8580842
0.0378835 0.2948351 0.8580440
0.0376603 0.2957290 0.8580411
0.0376496 0.2963452 0.8580009
0.0388118 0.2865501 0.8583754
0.0388011 0.2871653 0.8583352
0.0387904 0.2877805 0.8582951
0.0387798 0.2883957 0.8582550
0.0387691 0.2890109 0.8582149
0.0387584 0.2896261 0.8581747
0.0387477 0.2902413 0.8581346
0.0387370 0.2908565 0.8580945
0.0387263 0.2914717 0.8580544
0.0387156 0.2920878 0.8580142
0.0387049 0.2927030 0.8579741
0.0384825 0.2935930 0.8579712
0.0384718 0.2942092 0.8579310
0.0384611 0.2948244 0.8578909
0.0384504 0.2954406 0.8578507
0.0384397 0.2960568 0.8578105
0.0393888 0.2865394 0.8582224
0.0393781 0.2871546 0.8581822
0.0393674 0.2877698 0.8581421
0.0393567 0.2883850 0.8581020
0.0393460 0.2890002 0.8580619
0.0393353 0.2896154 0.8580217
0.0393246 0.2902306 0.8579816
0.0393139 0.2908458 0.8579415
0.0393032 0.2914610 0.8579014
0.0392925 0.2920772 0.8578612
0.0392818 0.2926924 0.8578211
0.0392711 0.2933076 0.8577809
0.0392604 0.2939227 0.8577408
0.0392497 0.2945379 0.8577007
0.0390280 0.2954299 0.8576975
0.0390173 0.2960461 0.8576573
0.0390066 0.2966623 0.8576171
0.0399657 0.2865287 0.8580694
0.0399550 0.2871439 0.8580292
0.0399443 0.2877591 0.8579891
0.0399336 0.2883743 0.8579490
0.0399229 0.2889895 0.8579089
0.0399122 0.2896047 0.8578687
0.0399015 0.2902199 0.8578286
0.0398908 0.2908351 0.8577885
0.0398801 0.2914503 0.8577484
0.0398694 0.2920665 0.8577082
0.0398587 0.2926817 0.8576681
0.0398480 0.2932969 0.8576279
0.0398374 0.2939121 0.8575878
0.0398267 0.2945273 0.8575477
0.0396056 0.2954192 0.8575443
0.0395949 0.2960354 0.8575041
0.0395841 0.2966516 0.8574639
0.0405425 0.2865180 0.8579164
0.0405318 0.2871332 0.8578763
0.0405211 0.2877484 0.8578361
0.0405104 0.2883636 0.8577960
0.0404997 0.2889788 0.8577559
0.0404890 0.2895940 0.8577158
0.0404784 0.2902092 0.8576756
0.0404677 0.2908244 0.8576355
0.0404570 0.2914396 0.8575954
0.0404463 0.2920558 0.8575552
0.0404356 0.2926710 0.8575151
0.0404249 0.2932862 0.8574750
0.0404142 0.2939014 0.8574348
0.0404035 0.2945166 0.8573947
0.0403928 0.2951318 0.8573546
0.0403821 0.2957470 0.8573145
0.0403714 0.2963622 0.8572743
0.0412535 0.2905420 0.8574458
0.0412428 0.2911562 0.8574058
0.0412321 0.2917714 0.8573656
0.0412215 0.2923856 0.8573256
0.0412108 0.2930008 0.8572855
0.0412001 0.2936150 0.8572454
0.0411894 0.2942292 0.8572053
0.0411194 0.2865073 0.8577634
0.0411087 0.2871225 0.8577233
0.0410981 0.2877377 0.8576831
0.0410874 0.2883529 0.8576430
0.0410767 0.2889681 0.8576029
0.0410660 0.2895833 0.8575628
0.0410553 0.2901985 0.8575226
0.0409697 0.2951211 0.8572016
0.0409590 0.2957363 0.8571615
0.0409483 0.2963515 0.8571213
0.0418298 0.2905313 0.8572930
0.0418191 0.2911455 0.8572529
0.0418084 0.2917607 0.8572128
0.0417977 0.2923749 0.8571728
0.0417870 0.2929901 0.8571326
0.0417764 0.2936043 0.8570926
0.0417657 0.2942185 0.8570525
0.0416964 0.2864966 0.8576104
0.0416857 0.2871118 0.8575703
0.0416750 0.2877270 0.8575301
0.0416643 0.2883422 0.8574900
0.0416536 0.2889574 0.8574499
0.0416429 0.2895726 0.8574098
0.0416322 0.2901878 0.8573696
0.0415466 0.2951104 0.8570486
0.0415360 0.2957256 0.8570085
0.0415253 0.2963408 0.8569683
0.0424060 0.2905206 0.8571402
0.0423953 0.2911348 0.8571001
0.0423846 0.2917500 0.8570600
0.0423739 0.2923642 0.8570199
0.0423632 0.2929794 0.8569798
0.0423525 0.2935936 0.8569398
0.0423419 0.2942078 0.8568997
0.0423312 0.2948230 0.8568596
0.0423205 0.2954372 0.8568195
0.0422732 0.2864859 0.8574574
0.0422625 0.2871011 0.8574173
0.0422518 0.2877163 0.8573771
0.0422411 0.2883315 0.8573370
0.0422304 0.2889467 0.8572969
0.0422197 0.2895619 0.8572568
0.0422090 0.2901771 0.8572167
0.0421021 0.2963301 0.8568154
0.0430143 0.2886664 0.8571076
0.0430036 0.2892806 0.8570675
0.0429929 0.2898958 0.8570274
0.0429822 0.2905100 0.8569874
0.0429716 0.2911242 0.8569473
0.0429609 0.2917394 0.8569072
0.0429502 0.2923536 0.8568671
0.0429395 0.2929688 0.8568270
0.0429288 0.2935830 0.8567869
0.0429181 0.2941972 0.8567469
0.0429074 0.2948124 0.8567068
0.0428968 0.2954266 0.8566667
0.0428861 0.2960408 0.8566266
0.0428754 0.2966560 0.8565865
0.0428501 0.2864753 0.8573044
0.0428394 0.2870905 0.8572643
0.0428287 0.2877057 0.8572241
0.0428180 0.2883209 0.8571840
0.0436225 0.2868121 0.8570750
0.0436118 0.2874263 0.8570350
0.0436011 0.2880415 0.8569948
0.0435904 0.2886557 0.8569548
0.0435798 0.2892699 0.8569147
0.0435691 0.2898851 0.8568746
0.0435584 0.2904993 0.8568346
0.0435477 0.2911135 0.8567945
0.0435370 0.2917287 0.8567544
0.0435264 0.2923429 0.8567143
0.0435157 0.2929581 0.8566742
0.0435050 0.2935723 0.8566341
0.0434943 0.2941865 0.8565941
0.0434836 0.2948017 0.8565539
0.0434730 0.2954159 0.8565139
0.0434623 0.2960301 0.8564738
0.0434516 0.2966453 0.8564337
0.0434270 0.2864646 0.8571514
0.0441988 0.2868014 0.8569222
0.0441881 0.2874156 0.8568821
0.0441774 0.2880308 0.8568420
0.0441667 0.2886450 0.8568020
0.0441560 0.2892592 0.8567619
0.0441454 0.2898744 0.8567218
0.0441347 0.2904886 0.8566817
0.0441240 0.2911028 0.8566417
0.0441133 0.2917180 0.8566015
0.0441026 0.2923322 0.8565615
0.0440919 0.2929474 0.8565214
0.0440813 0.2935616 0.8564813
0.0440706 0.2941758 0.8564412
0.0440599 0.2947910 0.8564011
0.0440492 0.2954052 0.8563611
0.0440385 0.2960194 0.8563210
0.0440279 0.2966346 0.8562809
0.0440039 0.2864539 0.8569984
0.0447749 0.2867907 0.8567694
0.0447643 0.2874049 0.8567293
0.0447536 0.2880201 0.8566892
0.0447429 0.2886343 0.8566492
0.0447322 0.2892485 0.8566091
0.0447215 0.2898637 0.8565690
0.0447109 0.2904779 0.8565289
0.0447002 0.2910921 0.8564889
0.0446895 0.2917073 0.8564487
0.0446788 0.2923215 0.8564087
0.0446681 0.2929367 0.8563686
0.0446574 0.2935509 0.8563285
0.0446468 0.2941651 0.8562884
0.0446361 0.2947803 0.8562483
0.0446254 0.2953945 0.8562083
0.0446147 0.2960087 0.8561682
0.0446040 0.2966239 0.8561281
0.0453512 0.2867801 0.8566166
0.0453405 0.2873943 0.8565765
0.0453298 0.2880095 0.8565364
0.0453192 0.2886237 0.8564963
0.0453085 0.2892379 0.8564563
0.0452978 0.2898531 0.8564161
0.0452871 0.2904673 0.8563761
0.0452765 0.2910815 0.8563360
0.0452658 0.2916967 0.8562959
0.0452551 0.2923109 0.8562558
0.0452444 0.2929261 0.8562157
0.0452337 0.2935403 0.8561757
0.0452230 0.2941545 0.8561356
0.0452123 0.2947697 0.8560955
0.0452017 0.2953839 0.8560554
0.0451910 0.2959981 0.8560154
0.0451803 0.2966133 0.8559752
0.0459274 0.2867694 0.8564638
0.0459167 0.2873836 0.8564237
0.0459060 0.2879988 0.8563836
0.0458953 0.2886130 0.8563435
0.0458847 0.2892272 0.8563035
0.0458740 0.2898424 0.8562633
0.0458633 0.2904566 0.8562233
0.0458526 0.2910708 0.8561832
0.0458419 0.2916860 0.8561431
0.0458313 0.2923002 0.8561030
0.0458206 0.2929154 0.8560629
0.0458099 0.2935296 0.8560229
0.0457992 0.2941438 0.8559828
0.0457885 0.2947590 0.8559427
0.0457778 0.2953732 0.8559026
0.0457672 0.2959874 0.8558626
0.0457565 0.2966026 0.8558224
0.0457346 0.2864218 0.8565394
0.0465037 0.2867587 0.8563109
0.0464930 0.2873729 0.8562709
0.0464823 0.2879881 0.8562308
0.0464716 0.2886023 0.8561907
0.0464609 0.2892165 0.8561506
0.0464503 0.2898317 0.8561105
0.0464396 0.2904459 0.8560705
0.0464289 0.2910601 0.8560304
0.0464182 0.2916753 0.8559903
0.0464075 0.2922895 0.8559502
0.0463968 0.2929047 0.8559101
0.0463862 0.2935189 0.8558700
0.0463755 0.2941331 0.8558300
0.0463648 0.2947483 0.8557899
0.0463541 0.2953625 0.8557498
0.0463434 0.2959767 0.8557097
0.0463328 0.2965919 0.8556696
0.0463115 0.2864111 0.8563864
0.0470798 0.2867480 0.8561581
0.0470692 0.2873622 0.8561181
0.0470585 0.2879774 0.8560779
0.0470478 0.2885916 0.8560379
0.0470371 0.2892058 0.8559978
0.0470264 0.2898210 0.8559577
0.0470158 0.2904352 0.8559176
0.0470051 0.2910494 0.8558776
0.0469944 0.2916646 0.8558375
0.0469837 0.2922788 0.8557974
0.0469730 0.2928940 0.8557573
0.0469623 0.2935082 0.8557172
0.0469517 0.2941224 0.8556772
0.0469410 0.2947376 0.8556370
0.0469303 0.2953518 0.8555970
0.0469196 0.2959661 0.8555569
0.0469089 0.2965812 0.8555168
0.0476560 0.2867374 0.8560053
0.0476453 0.2873516 0.8559653
0.0476347 0.2879668 0.8559251
0.0476240 0.2885810 0.8558851
0.0476133 0.2891952 0.8558450
0.0476026 0.2898104 0.8558049
0.0475919 0.2904246 0.8557648
0.0475813 0.2910388 0.8557248
0.0475706 0.2916540 0.8556847
0.0475599 0.2922682 0.8556446
0.0475492 0.2928834 0.8556045
0.0475385 0.2934976 0.8555644
0.0475278 0.2941118 0.8555244
0.0475172 0.2947270 0.8554842
0.0475065 0.2953412 0.8554442
0.0474958 0.2959554 0.8554041
0.0474851 0.2965706 0.8553640
0.0484011 0.2883007 0.8556976
0.0483904 0.2889149 0.8556575
0.0483798 0.2895281 0.8556175
0.0483691 0.2901423 0.8555774
0.0483584 0.2907555 0.8555375
0.0483478 0.2913697 0.8554974
0.0483371 0.2919839 0.8554573
0.0483264 0.2925972 0.8554173
0.0483157 0.2932114 0.8553773
0.0483051 0.2938256 0.8553372
0.0482323 0.2867267 0.8558525
0.0482216 0.2873409 0.8558124
0.0482109 0.2879561 0.8557723
0.0480934 0.2947163 0.8553314
0.0480827 0.2953305 0.8552914
0.0480721 0.2959447 0.8552513
0.0480614 0.2965599 0.8552112
0.0491555 0.2892469 0.8554304
0.0491448 0.2898601 0.8553904
0.0491342 0.2904723 0.8553505
0.0491235 0.2910855 0.8553105
0.0491129 0.2916987 0.8552705
0.0489873 0.2876759 0.8555850
0.0489766 0.2882901 0.8555449
0.0489659 0.2889043 0.8555049
0.0489019 0.2925865 0.8552647
0.0488913 0.2932007 0.8552247
0.0488806 0.2938149 0.8551846
0.0488699 0.2944281 0.8551446
0.0488593 0.2950423 0.8551045
0.0488085 0.2867160 0.8556997
0.0487978 0.2873302 0.8556596
0.0486482 0.2959340 0.8550985
0.0486376 0.2965492 0.8550584
0.0497304 0.2892363 0.8552780
0.0497197 0.2898495 0.8552380
0.0497091 0.2904617 0.8551980
0.0496984 0.2910749 0.8551580
0.0496878 0.2916881 0.8551181
0.0495628 0.2876652 0.8554324
0.0495521 0.2882794 0.8553923
0.0495415 0.2888936 0.8553522
0.0494775 0.2925758 0.8551121
0.0494668 0.2931900 0.8550720
0.0494561 0.2938042 0.8550320
0.0494455 0.2944174 0.8549920
0.0494348 0.2950316 0.8549519
0.0493847 0.2867053 0.8555469
0.0493741 0.2873195 0.8555068
0.0492245 0.2959234 0.8549457
0.0492138 0.2965386 0.8549055
0.0503266 0.2879992 0.8552055
0.0503159 0.2886124 0.8551655
0.0503052 0.2892256 0.8551255
0.0502946 0.2898388 0.8550855
0.0502839 0.2904510 0.8550456
0.0502733 0.2910642 0.8550056
0.0502626 0.2916774 0.8549656
0.0502520 0.2922907 0.8549256
0.0502413 0.2929039 0.8548856
0.0502307 0.2935171 0.8548456
0.0501384 0.2876545 0.8552797
0.0500211 0.2944068 0.8548393
0.0500104 0.2950210 0.8547993
0.0499609 0.2866947 0.8553941
0.0499502 0.2873089 0.8553540
0.0498007 0.2959127 0.8547929
0.0497900 0.2965279 0.8547527
0.0510996 0.2877190 0.8550191
0.0510889 0.2883312 0.8549791
0.0510783 0.2889435 0.8549392
0.0510677 0.2895557 0.8548993
0.0510570 0.2901679 0.8548593
0.0510464 0.2907811 0.8548193
0.0510357 0.2913933 0.8547794
0.0509121 0.2873753 0.8550930
0.0508268 0.2922800 0.8547731
0.0508162 0.2928932 0.8547331
0.0508055 0.2935064 0.8546932
0.0507246 0.2870307 0.8551671
0.0505966 0.2943961 0.8546867
0.0505859 0.2950103 0.8546466
0.0505753 0.2956235 0.8546066
0.0505372 0.2866840 0.8552412
0.0503663 0.2965172 0.8545999
0.0516738 0.2877084 0.8548668
0.0516631 0.2883206 0.8548268
0.0516525 0.2889328 0.8547869
0.0516419 0.2895450 0.8547470
0.0516312 0.2901572 0.8547071
0.0516206 0.2907704 0.8546671
0.0516099 0.2913827 0.8546271
0.0514870 0.2873647 0.8549406
0.0514017 0.2922694 0.8546207
0.0513911 0.2928826 0.8545807
0.0513804 0.2934958 0.8545407
0.0513001 0.2870200 0.8550144
0.0511721 0.2943855 0.8545341
0.0511615 0.2949997 0.8544940
0.0511508 0.2956129 0.8544540
0.0511134 0.2866733 0.8550884
0.0509425 0.2965065 0.8544471
0.0522587 0.2870846 0.8547545
0.0522480 0.2876978 0.8547145
0.0522374 0.2883100 0.8546746
0.0522267 0.2889222 0.8546346
0.0522161 0.2895344 0.8545947
0.0522054 0.2901466 0.8545548
0.0521948 0.2907598 0.8545148
0.0521841 0.2913720 0.8544748
0.0521735 0.2919842 0.8544349
0.0521629 0.2925964 0.8543950
0.0520725 0.2867408 0.8548281
0.0519553 0.2934851 0.8543882
0.0518863 0.2863951 0.8549019
0.0517477 0.2943748 0.8543814
0.0517370 0.2949890 0.8543414
0.0517263 0.2956022 0.8543014
0.0515187 0.2964959 0.8542943
0.0530184 0.2874176 0.8545287
0.0530078 0.2880289 0.8544889
0.0529972 0.2886401 0.8544490
0.0529865 0.2892523 0.8544091
0.0529759 0.2898635 0.8543692
0.0529653 0.2904757 0.8543293
0.0529546 0.2910869 0.8542894
0.0528435 0.2864617 0.8546421
0.0528329 0.2870739 0.8546022
0.0527477 0.2919736 0.8542826
0.0527371 0.2925858 0.8542427
0.0527264 0.2931980 0.8542028
0.0525195 0.2940877 0.8541958
0.0525088 0.2947009 0.8541558
0.0523019 0.2955915 0.8541487
0.0520949 0.2964852 0.8541415
0.0535919 0.2874070 0.8543767
0.0535812 0.2880182 0.8543368
0.0535706 0.2886294 0.8542969
0.0535600 0.2892417 0.8542570
0.0535494 0.2898529 0.8542171
0.0535387 0.2904651 0.8541772
0.0535281 0.2910763 0.8541373
0.0534177 0.2864511 0.8544898
0.0534071 0.2870633 0.8544499
0.0533219 0.2919630 0.8541303
0.0533113 0.2925752 0.8540904
0.0533007 0.2931874 0.8540505
0.0530943 0.2940770 0.8540433
0.0530837 0.2946902 0.8540033
0.0528775 0.2955809 0.8539961
0.0526711 0.2964745 0.8539887
0.0545338 0.2880769 0.8540788
0.0545232 0.2886871 0.8540390
0.0543708 0.2865157 0.8542313
0.0543602 0.2871259 0.8541915
0.0543496 0.2877371 0.8541517
0.0543178 0.2895698 0.8540321
0.0543071 0.2901810 0.8539923
0.0542965 0.2907922 0.8539524
0.0540910 0.2916779 0.8539453
0.0540804 0.2922891 0.8539054
0.0538748 0.2931767 0.8538982
0.0536692 0.2940664 0.8538909
0.0536586 0.2946796 0.8538509
0.0534530 0.2955702 0.8538435
0.0532474 0.2964638 0.8538358
0.0551272 0.2868459 0.8540067
0.0551166 0.2874561 0.8539669
0.0551060 0.2880663 0.8539271
0.0550954 0.2886765 0.8538873
0.0550848 0.2892868 0.8538475
0.0550741 0.2898970 0.8538077
0.0550635 0.2905072 0.8537679
0.0548587 0.2913928 0.8537606
0.0548481 0.2920031 0.8537208
0.0546432 0.2928907 0.8537134
0.0544383 0.2937793 0.8537060
0.0544277 0.2943915 0.8536660
0.0540285 0.2955596 0.8536908
0.0538235 0.2964532 0.8536830
0.0556994 0.2868353 0.8538549
0.0556888 0.2874455 0.8538151
0.0556782 0.2880557 0.8537753
0.0556676 0.2886659 0.8537355
0.0556570 0.2892762 0.8536957
0.0556464 0.2898864 0.8536559
0.0556358 0.2904966 0.8536161
0.0554316 0.2913822 0.8536087
0.0554210 0.2919924 0.8535689
0.0552168 0.2928801 0.8535613
0.0550126 0.2937687 0.8535537
0.0550019 0.2943809 0.8535137
0.0547976 0.2952715 0.8535060
0.0543998 0.2964425 0.8535302
0.0561973 0.2910962 0.8534246
0.0561867 0.2917064 0.8533848
0.0559832 0.2925930 0.8533771
0.0555868 0.2937580 0.8534014
0.0555761 0.2943702 0.8533615
0.0553725 0.2952608 0.8533535
0.0549760 0.2964318 0.8533774
0.0567483 0.2923061 0.8531933
0.0563532 0.2934700 0.8532173
0.0563426 0.2940822 0.8531773
0.0561397 0.2949718 0.8531692
0.0557445 0.2961418 0.8531928
0.0557338 0.2967560 0.8531528
0.0573205 0.2922955 0.8530415
0.0571183 0.2931830 0.8530334
0.0571077 0.2937943 0.8529935
0.0567139 0.2949612 0.8530170
0.0563200 0.2961311 0.8530402
0.0563093 0.2967453 0.8530002
0.0578926 0.2922849 0.8528898
0.0576911 0.2931724 0.8528815
0.0576805 0.2937836 0.8528416
0.0572880 0.2949505 0.8528647
0.0568956 0.2961204 0.8528876
0.0568850 0.2967346 0.8528475
0.0582640 0.2931618 0.8527296
0.0582534 0.2937730 0.8526897
0.0578623 0.2949399 0.8527124
0.0574712 0.2961098 0.8527349
0.0574605 0.2967240 0.8526949
0.0590264 0.2928739 0.8525465
0.0590158 0.2934841 0.8525067
0.0584365 0.2949293 0.8525601
0.0580467 0.2960991 0.8525823
0.0580360 0.2967133 0.8525422
0.0595986 0.2928633 0.8523947
0.0595880 0.2934735 0.8523549
0.0590107 0.2949186 0.8524078
0.0586222 0.2960885 0.8524297
0.0586115 0.2967027 0.8523896
0.0597731 0.2946297 0.8522248
0.0591977 0.2960778 0.8522770
0.0591871 0.2966920 0.8522370
0.0603467 0.2946191 0.8520727
0.0599609 0.2957889 0.8520938
0.0599503 0.2964011 0.8520539
0.0609202 0.2946085 0.8519206
0.0605358 0.2957782 0.8519414
0.0605251 0.2963904 0.8519014
0.0614937 0.2945978 0.8517685
0.0611107 0.2957676 0.8517889
0.0611000 0.2963798 0.8517490
0.0622528 0.2943090 0.8515864
0.0616855 0.2957569 0.8516365
0.0616749 0.2963691 0.8515965
0.0628256 0.2942984 0.8514345
0.0622604 0.2957463 0.8514840
0.0622497 0.2963585 0.8514441
0.0633984 0.2942877 0.8512826
0.0628353 0.2957356 0.8513315
0.0628246 0.2963478 0.8512916
0.0639713 0.2942771 0.8511307
0.0634101 0.2957250 0.8511791
0.0633995 0.2963372 0.8511392
0.0643613 0.2945447 0.8510080
0.0641678 0.2954351 0.8509974
0.0641572 0.2960473 0.8509575
0.0649348 0.2945341 0.8508559
0.0647420 0.2954245 0.8508451
0.0647314 0.2960367 0.8508052
0.0658926 0.2927467 0.8507256
0.0658820 0.2933569 0.8506858
0.0655084 0.2945235 0.8507038
0.0653162 0.2954138 0.8506928
0.0653056 0.2960261 0.8506529
0.0664647 0.2927361 0.8505738
0.0664541 0.2933463 0.8505340
0.0660819 0.2945128 0.8505517
0.0658905 0.2954032 0.8505406
0.0658798 0.2960154 0.8505006
0.0670370 0.2927255 0.8504221
0.0670264 0.2933357 0.8503823
0.0666554 0.2945022 0.8503996
0.0664647 0.2953926 0.8503883
0.0664540 0.2960048 0.8503483
0.0676091 0.2927149 0.8502703
0.0675985 0.2933251 0.8502305
0.0672290 0.2944916 0.8502475
0.0670388 0.2953819 0.8502360
0.0670282 0.2959941 0.8501961
0.0680025 0.2929814 0.8501469
0.0679919 0.2935926 0.8501070
0.0678025 0.2944810 0.8500954
0.0676130 0.2953713 0.8500837
0.0676024 0.2959835 0.8500438
0.0675917 0.2965957 0.8500039
0.0685754 0.2929708 0.8499949
0.0685647 0.2935820 0.8499551
0.0683760 0.2944703 0.8499433
0.0681872 0.2953607 0.8499314
0.0681766 0.2959729 0.8498915
0.0681660 0.2965851 0.8498516
0.0691483 0.2929602 0.8498430
0.0691376 0.2935714 0.8498031
0.0689496 0.2944597 0.8497912
0.0687615 0.2953500 0.8497792
0.0687508 0.2959622 0.8497392
0.0687402 0.2965744 0.8496993
0.0699085 0.2920623 0.8497031
0.0697211 0.2929496 0.8496911
0.0697105 0.2935608 0.8496512
0.0695230 0.2944491 0.8496391
0.0695124 0.2950613 0.8495992
0.0695018 0.2956725 0.8495593
0.0694911 0.2962837 0.8495195
0.0705019 0.2908312 0.8496310
0.0704913 0.2914414 0.8495912
0.0704806 0.2920517 0.8495514
0.0702939 0.2929390 0.8495392
0.0702833 0.2935502 0.8494993
0.0700966 0.2944385 0.8494870
0.0700860 0.2950507 0.8494471
0.0700753 0.2956619 0.8494072
0.0700647 0.2962731 0.8493674
0.0710528 0.2920411 0.8493997
0.0708668 0.2929283 0.8493872
0.0708562 0.2935396 0.8493474
0.0706702 0.2944278 0.8493349
0.0706595 0.2950400 0.8492950
0.0706489 0.2956513 0.8492551
0.0706383 0.2962625 0.8492153
0.0716250 0.2920305 0.8492479
0.0714396 0.2929177 0.8492353
0.0714290 0.2935290 0.8491955
0.0714184 0.2941392 0.8491557
0.0714078 0.2947504 0.8491158
0.0713971 0.2953616 0.8490759
0.0713865 0.2959728 0.8490361
0.0713759 0.2965830 0.8489963
0.0722183 0.2907994 0.8491758
0.0722077 0.2914096 0.8491360
0.0721971 0.2920199 0.8490962
0.0720125 0.2929071 0.8490834
0.0720019 0.2935183 0.8490435
0.0719913 0.2941286 0.8490037
0.0719807 0.2947398 0.8489639
0.0719701 0.2953510 0.8489240
0.0719594 0.2959622 0.8488841
0.0719488 0.2965724 0.8488443
0.0727906 0.2907888 0.8490240
0.0727800 0.2913990 0.8489842
0.0727694 0.2920093 0.8489444
0.0727588 0.2926195 0.8489046
0.0727482 0.2932297 0.8488648
0.0727057 0.2956716 0.8487056
0.0726951 0.2962818 0.8486658
0.0725641 0.2941179 0.8488518
0.0725535 0.2947292 0.8488120
0.0725429 0.2953404 0.8487721
0.0733628 0.2907782 0.8488723
0.0733522 0.2913884 0.8488325
0.0733415 0.2919987 0.8487927
0.0733309 0.2926089 0.8487529
0.0733203 0.2932191 0.8487131
0.0733097 0.2938293 0.8486733
0.0732991 0.2944405 0.8486334
0.0732885 0.2950508 0.8485936
0.0732779 0.2956610 0.8485538
0.0732673 0.2962712 0.8485140
0.0739455 0.2901574 0.8487603
0.0739349 0.2907676 0.8487205
0.0739243 0.2913778 0.8486807
0.0739137 0.2919881 0.8486409
0.0739031 0.2925983 0.8486011
0.0738925 0.2932085 0.8485613
0.0738819 0.2938187 0.8485215
0.0738713 0.2944299 0.8484817
0.0738607 0.2950402 0.8484419
0.0738501 0.2956504 0.8484021
0.0738394 0.2962606 0.8483623
0.0745177 0.2901468 0.8486086
0.0745071 0.2907570 0.8485688
0.0744965 0.2913672 0.8485290
0.0744859 0.2919775 0.8484892
0.0744753 0.2925877 0.8484494
0.0744647 0.2931979 0.8484096
0.0744541 0.2938081 0.8483698
0.0744434 0.2944193 0.8483299
0.0744328 0.2950296 0.8482901
0.0751535 0.2864749 0.8486956
0.0751217 0.2883055 0.8485762
0.0757257 0.2864643 0.8485439
0.0757151 0.2870745 0.8485041
0.0757045 0.2876847 0.8484643
0.0756939 0.2882949 0.8484245
0.0762979 0.2864537 0.8483921
0.0762873 0.2870639 0.8483523
0.0762767 0.2876741 0.8483125
0.0762661 0.2882843 0.8482727
0.0768595 0.2870533 0.8482006
0.0768489 0.2876635 0.8481608
0.0768382 0.2882737 0.8481210
0.0767121 0.2861018 0.8483063
0.0767015 0.2867121 0.8482665
0.0774316 0.2870427 0.8480489
0.0774210 0.2876529 0.8480091
0.0774104 0.2882631 0.8479693
0.0772850 0.2860912 0.8481544
0.0772743 0.2867015 0.8481146
0.0780038 0.2870321 0.8478971
0.0779932 0.2876423 0.8478573
0.0779826 0.2882525 0.8478175
0.0779720 0.2888628 0.8477777
0.0776907 0.2863486 0.8480283
0.0776800 0.2869608 0.8479884
0.0775341 0.2860043 0.8480941
0.0785760 0.2870215 0.8477453
0.0785654 0.2876317 0.8477056
0.0785548 0.2882419 0.8476658
0.0782642 0.2863379 0.8478762
0.0782536 0.2869502 0.8478363
0.0781083 0.2859937 0.8479418
0.0791482 0.2870109 0.8475936
0.0791376 0.2876211 0.8475538
