0.0279034 0.2041041 0.8573940
0.0279186 0.2047199 0.8573602
0.0279337 0.2053346 0.8573263
0.0279489 0.2059494 0.8572925
0.0279641 0.2065652 0.8572587
0.0279793 0.2071799 0.8572249
0.0279945 0.2077947 0.8571911
0.0280097 0.2084105 0.8571572
0.0280249 0.2090252 0.8571234
0.0280401 0.2096410 0.8570895
0.0280553 0.2102558 0.8570557
0.0280705 0.2108705 0.8570219
0.0283260 0.2004287 0.8578267
0.0283412 0.2010445 0.8577928
0.0283563 0.2016592 0.8577590
0.0283715 0.2022740 0.8577252
0.0283867 0.2028898 0.8576913
0.0288085 0.2036877 0.8578280
0.0288237 0.2043035 0.8577942
0.0288389 0.2049192 0.8577603
0.0288542 0.2055350 0.8577265
0.0288694 0.2061508 0.8576926
0.0288846 0.2067665 0.8576587
0.0288998 0.2073823 0.8576249
0.0289150 0.2079981 0.8575910
0.0289302 0.2086138 0.8575571
0.0289454 0.2092296 0.8575233
0.0289606 0.2098453 0.8574894
0.0289758 0.2104611 0.8574556
0.0288397 0.2004439 0.8580564
0.0288549 0.2010597 0.8580225
0.0288701 0.2016744 0.8579887
0.0288853 0.2022892 0.8579549
0.0289005 0.2029049 0.8579211
0.0293229 0.2037029 0.8580580
0.0293381 0.2043187 0.8580242
0.0293533 0.2049344 0.8579903
0.0293685 0.2055502 0.8579564
0.0293837 0.2061660 0.8579226
0.0293989 0.2067817 0.8578887
0.0294141 0.2073975 0.8578548
0.0294293 0.2080133 0.8578210
0.0294445 0.2086290 0.8577871
0.0294597 0.2092448 0.8577533
0.0294749 0.2098605 0.8577194
0.0294901 0.2104763 0.8576855
0.0297460 0.2000225 0.8584913
0.0297612 0.2006383 0.8584574
0.0297764 0.2012541 0.8584235
0.0297916 0.2018698 0.8583897
0.0298068 0.2024856 0.8583558
0.0298221 0.2031024 0.8583219
0.0299741 0.2092600 0.8579833
0.0299893 0.2098757 0.8579494
0.0300045 0.2104915 0.8579155
0.0302450 0.2039003 0.8584591
0.0302603 0.2045171 0.8584252
0.0302755 0.2051339 0.8583913
0.0302907 0.2057506 0.8583574
0.0303059 0.2063664 0.8583235
0.0303212 0.2069831 0.8582896
0.0303364 0.2075999 0.8582557
0.0303516 0.2082167 0.8582217
0.0303668 0.2088334 0.8581878
0.0302603 0.2000377 0.8587212
0.0306839 0.2008328 0.8588589
0.0306991 0.2014495 0.8588250
0.0307143 0.2020663 0.8587911
0.0308666 0.2082319 0.8584520
0.0308818 0.2088486 0.8584181
0.0308970 0.2094644 0.8583842
0.0309123 0.2100811 0.8583503
0.0309275 0.2106979 0.8583164
0.0311379 0.2028643 0.8589285
0.0311531 0.2034810 0.8588946
0.0311684 0.2040988 0.8588607
0.0311836 0.2047156 0.8588267
0.0311989 0.2053333 0.8587928
0.0312141 0.2059501 0.8587589
0.0312294 0.2065678 0.8587249
0.0312446 0.2071846 0.8586910
0.0312598 0.2078023 0.8586570
0.0311835 0.2002312 0.8591231
0.0311988 0.2008480 0.8590891
0.0312140 0.2014647 0.8590552
0.0314119 0.2094796 0.8586145
0.0314272 0.2100964 0.8585806
0.0314424 0.2107131 0.8585466
0.0316382 0.2022618 0.8591931
0.0317906 0.2084343 0.8588536
0.0318059 0.2090521 0.8588196
0.0320624 0.2030608 0.8593307
0.0320776 0.2036785 0.8592968
0.0320929 0.2042963 0.8592628
0.0321082 0.2049150 0.8592288
0.0321234 0.2055328 0.8591948
0.0321387 0.2061505 0.8591608
0.0321539 0.2067683 0.8591269
0.0321692 0.2073871 0.8590928
0.0321845 0.2080048 0.8590589
0.0316985 0.2002464 0.8593533
0.0317138 0.2008632 0.8593194
0.0317290 0.2014799 0.8592855
0.0319269 0.2094948 0.8588447
0.0319422 0.2101116 0.8588108
0.0319574 0.2107283 0.8587769
0.0321538 0.2022770 0.8594236
0.0323062 0.2084496 0.8590841
0.0323215 0.2090673 0.8590502
0.0325785 0.2030760 0.8595615
0.0325938 0.2036938 0.8595276
0.0326090 0.2043115 0.8594936
0.0326243 0.2049303 0.8594596
0.0326396 0.2055480 0.8594256
0.0326548 0.2061658 0.8593916
0.0326701 0.2067836 0.8593576
0.0326854 0.2074023 0.8593236
0.0327006 0.2080201 0.8592896
0.0324572 0.2101268 0.8590411
0.0324724 0.2107436 0.8590072
0.0326236 0.2004410 0.8597559
0.0328523 0.2096993 0.8592468
0.0330490 0.2012370 0.8598943
0.0330642 0.2018558 0.8598603
0.0330795 0.2024735 0.8598263
0.0332169 0.2080353 0.8595205
0.0332321 0.2086531 0.8594865
0.0332474 0.2092708 0.8594525
0.0333678 0.2097145 0.8594773
0.0333831 0.2103323 0.8594433
0.0335499 0.2006345 0.8601591
0.0335651 0.2012523 0.8601251
0.0335804 0.2018710 0.8600911
0.0337483 0.2086683 0.8597173
0.0337635 0.2092861 0.8596833
0.0338834 0.2097298 0.8597078
0.0338987 0.2103475 0.8596739
0.0340660 0.2006498 0.8603899
0.0340813 0.2012675 0.8603559
0.0340965 0.2018863 0.8603219
0.0342644 0.2086836 0.8599481
0.0342797 0.2093013 0.8599141
0.0344142 0.2103628 0.8599044
0.0345669 0.2000473 0.8606546
0.0345822 0.2006650 0.8606207
0.0347806 0.2086988 0.8601789
0.0347958 0.2093166 0.8601449
0.0348111 0.2099353 0.8601109
0.0349298 0.2103780 0.8601349
0.0350831 0.2000625 0.8608855
0.0352968 0.2087141 0.8604097
0.0353121 0.2093318 0.8603757
0.0353273 0.2099506 0.8603417
0.0354454 0.2103932 0.8603655
0.0355993 0.2000778 0.8611163
0.0358130 0.2087293 0.8606405
0.0358282 0.2093471 0.8606065
0.0358435 0.2099658 0.8605725
0.0363596 0.2099811 0.8608033
0.0363749 0.2105988 0.8607693
0.0368759 0.2099963 0.8610341
0.0368911 0.2106141 0.8610002
0.0373920 0.2100116 0.8612649
0.0374073 0.2106293 0.8612309
0.0379082 0.2100268 0.8614957
0.0379234 0.2106446 0.8614617
0.0384243 0.2100421 0.8617265
0.0384396 0.2106598 0.8616925
0.0389558 0.2106751 0.8619234
0.0394720 0.2106904 0.8621541
0.0080789 0.2214107 0.8473474
0.0085891 0.2214258 0.8475755
0.0090993 0.2214409 0.8478036
0.0096095 0.2214559 0.8480317
0.0100895 0.2202494 0.8483270
0.0101046 0.2208602 0.8482935
0.0101196 0.2214710 0.8482599
0.0105996 0.2202645 0.8485552
0.0106147 0.2208753 0.8485216
0.0106298 0.2214861 0.8484880
0.0110947 0.2196688 0.8488169
0.0111098 0.2202796 0.8487833
0.0111249 0.2208904 0.8487497
0.0111400 0.2215012 0.8487161
0.0116049 0.2196839 0.8490450
0.0116200 0.2202947 0.8490114
0.0116351 0.2209055 0.8489778
0.0116501 0.2215162 0.8489442
0.0121151 0.2196990 0.8492731
0.0121301 0.2203097 0.8492395
0.0121452 0.2209205 0.8492059
0.0121603 0.2215313 0.8491723
0.0125951 0.2184925 0.8495684
0.0126102 0.2191033 0.8495348
0.0126253 0.2197140 0.8495012
0.0126404 0.2203248 0.8494676
0.0126555 0.2209356 0.8494341
0.0126705 0.2215464 0.8494005
0.0129243 0.2111782 0.8501996
0.0130902 0.2178968 0.8498301
0.0131053 0.2185076 0.8497965
0.0131204 0.2191183 0.8497629
0.0131354 0.2197291 0.8497293
0.0131505 0.2203399 0.8496958
0.0131656 0.2209507 0.8496622
0.0131807 0.2215615 0.8496286
0.0134344 0.2111933 0.8504277
0.0136004 0.2179118 0.8500582
0.0136154 0.2185226 0.8500246
0.0136305 0.2191334 0.8499910
0.0136456 0.2197442 0.8499575
0.0136607 0.2203550 0.8499239
0.0136758 0.2209657 0.8498903
0.0136909 0.2215765 0.8498567
0.0139446 0.2112083 0.8506558
0.0139597 0.2118191 0.8506222
0.0141105 0.2179269 0.8502863
0.0141256 0.2185377 0.8502527
0.0141407 0.2191485 0.8502192
0.0141558 0.2197593 0.8501856
0.0141708 0.2203700 0.8501520
0.0141859 0.2209808 0.8501184
0.0142010 0.2215916 0.8500848
0.0144547 0.2112234 0.8508839
0.0144698 0.2118342 0.8508503
0.0144849 0.2124450 0.8508167
0.0145000 0.2130558 0.8507831
0.0145151 0.2136665 0.8507496
0.0145302 0.2142773 0.8507160
0.0145452 0.2148881 0.8506824
0.0145905 0.2167204 0.8505816
0.0146056 0.2173312 0.8505480
0.0146207 0.2179420 0.8505144
0.0146358 0.2185528 0.8504809
0.0146508 0.2191636 0.8504473
0.0146659 0.2197743 0.8504137
0.0146810 0.2203851 0.8503801
0.0146961 0.2209959 0.8503465
0.0147112 0.2216067 0.8503129
0.0149952 0.2124600 0.8510449
0.0150102 0.2130708 0.8510113
0.0150253 0.2136816 0.8509777
0.0150404 0.2142924 0.8509441
0.0150555 0.2149032 0.8509105
0.0150706 0.2155140 0.8508769
0.0150857 0.2161247 0.8508434
0.0151007 0.2167355 0.8508098
0.0151158 0.2173463 0.8507762
0.0151309 0.2179571 0.8507426
0.0151460 0.2185679 0.8507090
0.0151611 0.2191786 0.8506754
0.0151762 0.2197894 0.8506418
0.0151912 0.2204002 0.8506082
0.0152063 0.2210110 0.8505746
0.0152214 0.2216218 0.8505411
0.0153586 0.2114312 0.8512761
0.0153737 0.2120430 0.8512424
0.0155053 0.2124751 0.8512730
0.0155204 0.2130859 0.8512394
0.0155355 0.2136967 0.8512058
0.0155506 0.2143075 0.8511722
0.0155656 0.2149182 0.8511386
0.0155807 0.2155290 0.8511051
0.0155958 0.2161398 0.8510715
0.0156109 0.2167506 0.8510379
0.0156260 0.2173614 0.8510043
0.0156411 0.2179721 0.8509707
0.0156562 0.2185829 0.8509371
0.0156712 0.2191937 0.8509035
0.0156863 0.2198045 0.8508699
0.0157014 0.2204153 0.8508363
0.0157165 0.2210260 0.8508028
0.0157316 0.2216368 0.8507692
0.0158694 0.2114463 0.8515045
0.0158845 0.2120581 0.8514708
0.0160456 0.2137118 0.8514339
0.0160607 0.2143225 0.8514003
0.0160758 0.2149333 0.8513668
0.0160909 0.2155441 0.8513332
0.0161060 0.2161549 0.8512996
0.0161211 0.2167657 0.8512660
0.0161361 0.2173764 0.8512324
0.0161512 0.2179872 0.8511988
0.0161663 0.2185980 0.8511652
0.0161814 0.2192088 0.8511316
0.0161965 0.2198196 0.8510980
0.0162116 0.2204303 0.8510645
0.0162266 0.2210411 0.8510309
0.0162417 0.2216519 0.8509973
0.0163801 0.2114614 0.8517328
0.0163952 0.2120732 0.8516992
0.0164103 0.2126850 0.8516655
0.0164254 0.2132958 0.8516320
0.0167599 0.2110424 0.8519311
0.0165558 0.2137268 0.8516620
0.0165709 0.2143376 0.8516284
0.0165860 0.2149484 0.8515949
0.0166010 0.2155592 0.8515613
0.0166161 0.2161700 0.8515277
0.0166312 0.2167807 0.8514941
0.0166463 0.2173915 0.8514605
0.0166614 0.2180023 0.8514269
0.0166765 0.2186131 0.8513933
0.0166916 0.2192239 0.8513597
0.0167066 0.2198346 0.8513262
0.0167217 0.2204454 0.8512926
0.0167368 0.2210562 0.8512590
0.0169362 0.2133109 0.8518604
0.0172712 0.2110576 0.8521597
0.0172863 0.2116703 0.8521260
0.0173014 0.2122821 0.8520924
0.0173165 0.2128939 0.8520587
0.0170660 0.2137419 0.8518901
0.0170810 0.2143527 0.8518566
0.0170961 0.2149635 0.8518230
0.0171112 0.2155742 0.8517894
0.0171263 0.2161850 0.8517558
0.0171414 0.2167958 0.8517222
0.0171565 0.2174066 0.8516886
0.0171715 0.2180174 0.8516550
0.0171866 0.2186281 0.8516214
0.0172017 0.2192389 0.8515879
0.0172168 0.2198497 0.8515543
0.0172319 0.2204605 0.8515207
0.0172470 0.2210713 0.8514871
0.0174470 0.2133259 0.8520887
0.0177826 0.2110727 0.8523884
0.0177977 0.2116854 0.8523547
0.0178128 0.2122972 0.8523210
0.0178279 0.2129090 0.8522874
0.0175913 0.2143678 0.8520847
0.0176064 0.2149785 0.8520511
0.0176214 0.2155893 0.8520175
0.0176365 0.2162001 0.8519839
0.0176516 0.2168109 0.8519504
0.0176667 0.2174217 0.8519168
0.0176818 0.2180324 0.8518832
0.0176969 0.2186432 0.8518496
0.0177119 0.2192540 0.8518160
0.0177270 0.2198648 0.8517824
0.0179578 0.2133410 0.8523172
0.0179729 0.2139528 0.8522835
0.0181390 0.2206794 0.8519136
0.0181541 0.2212912 0.8518800
0.0183091 0.2117005 0.8525833
0.0183242 0.2123123 0.8525497
0.0183393 0.2129241 0.8525161
0.0186906 0.2112806 0.8527824
0.0181014 0.2143828 0.8523128
0.0181165 0.2149936 0.8522792
0.0181316 0.2156044 0.8522456
0.0181467 0.2162152 0.8522121
0.0181618 0.2168260 0.8521785
0.0181769 0.2174367 0.8521449
0.0181919 0.2180475 0.8521113
0.0182070 0.2186583 0.8520777
0.0182221 0.2192691 0.8520441
0.0184836 0.2139679 0.8525119
0.0186346 0.2200827 0.8521756
0.0186498 0.2206945 0.8521420
0.0186649 0.2213062 0.8521083
0.0188356 0.2123274 0.8527783
0.0188507 0.2129392 0.8527447
0.0188658 0.2135520 0.8527110
0.0192025 0.2112957 0.8530113
0.0192177 0.2119085 0.8529776
0.0186116 0.2143979 0.8525409
0.0186267 0.2150087 0.8525073
0.0186418 0.2156195 0.8524738
0.0186568 0.2162303 0.8524402
0.0186719 0.2168410 0.8524066
0.0186870 0.2174518 0.8523730
0.0187021 0.2180626 0.8523394
0.0187172 0.2186734 0.8523058
0.0187323 0.2192842 0.8522722
0.0189944 0.2139830 0.8527403
0.0191454 0.2200978 0.8524040
0.0191605 0.2207096 0.8523703
0.0191756 0.2213213 0.8523367
0.0193470 0.2123425 0.8530070
0.0193621 0.2129543 0.8529734
0.0193772 0.2135671 0.8529397
0.0197145 0.2113109 0.8532402
0.0197296 0.2119236 0.8532065
0.0191519 0.2156345 0.8527019
0.0191670 0.2162453 0.8526683
0.0191821 0.2168561 0.8526347
0.0191972 0.2174669 0.8526011
0.0192123 0.2180777 0.8525675
0.0192273 0.2186884 0.8525339
0.0192424 0.2192992 0.8525003
0.0195052 0.2139981 0.8529687
0.0195203 0.2146099 0.8529350
0.0195354 0.2152216 0.8529014
0.0196562 0.2201129 0.8526324
0.0196713 0.2207247 0.8525988
0.0196864 0.2213364 0.8525651
0.0198885 0.2135822 0.8531683
0.0202265 0.2113260 0.8534692
0.0202416 0.2119388 0.8534355
0.0202568 0.2125516 0.8534018
0.0202719 0.2131643 0.8533681
0.0200310 0.2146250 0.8531634
0.0200462 0.2152367 0.8531297
0.0200612 0.2158475 0.8530962
0.0200763 0.2164593 0.8530625
0.0200915 0.2170711 0.8530289
0.0201066 0.2176829 0.8529952
0.0201216 0.2182936 0.8529616
0.0201368 0.2189054 0.8529280
0.0201519 0.2195172 0.8528944
0.0201669 0.2201280 0.8528608
0.0201821 0.2207397 0.8528271
0.0201972 0.2213515 0.8527935
0.0203999 0.2135973 0.8533970
0.0204150 0.2142091 0.8533633
0.0207536 0.2119539 0.8536644
0.0207688 0.2125667 0.8536307
0.0207839 0.2131795 0.8535970
0.0211224 0.2109203 0.8538983
0.0211375 0.2115331 0.8538646
0.0205419 0.2146401 0.8533918
0.0205570 0.2152518 0.8533582
0.0205721 0.2158626 0.8533246
0.0205872 0.2164744 0.8532909
0.0206023 0.2170862 0.8532573
0.0206174 0.2176979 0.8532236
0.0206325 0.2183087 0.8531900
0.0206476 0.2189205 0.8531564
0.0206627 0.2195323 0.8531228
0.0206778 0.2201431 0.8530892
0.0206929 0.2207548 0.8530555
0.0207080 0.2213666 0.8530219
0.0209113 0.2136124 0.8536256
0.0209265 0.2142242 0.8535920
0.0212656 0.2119690 0.8538933
0.0212807 0.2125818 0.8538596
0.0212959 0.2131946 0.8538259
0.0216349 0.2109354 0.8541275
0.0216501 0.2115482 0.8540938
0.0210828 0.2158777 0.8535529
0.0210979 0.2164895 0.8535193
0.0211130 0.2171013 0.8534857
0.0211281 0.2177130 0.8534520
0.0211432 0.2183238 0.8534184
0.0211583 0.2189356 0.8533848
0.0211734 0.2195474 0.8533511
0.0214378 0.2142393 0.8538206
0.0214529 0.2148521 0.8537869
0.0214680 0.2154639 0.8537533
0.0215890 0.2203621 0.8534839
0.0216041 0.2209738 0.8534503
0.0216192 0.2215866 0.8534166
0.0217927 0.2125969 0.8540885
0.0218078 0.2132097 0.8540548
0.0218229 0.2138225 0.8540211
0.0221475 0.2109506 0.8543567
0.0221626 0.2115633 0.8543230
0.0221778 0.2121771 0.8542892
0.0219643 0.2148672 0.8540156
0.0219794 0.2154790 0.8539820
0.0219946 0.2160917 0.8539483
0.0220097 0.2167035 0.8539146
0.0220248 0.2173163 0.8538809
0.0220399 0.2179281 0.8538473
0.0220550 0.2185408 0.8538136
0.0220701 0.2191526 0.8537799
0.0220853 0.2197654 0.8537462
0.0221004 0.2203772 0.8537126
0.0221155 0.2209889 0.8536789
0.0221306 0.2216017 0.8536453
0.0223046 0.2126121 0.8543175
0.0223198 0.2132248 0.8542838
0.0223349 0.2138376 0.8542501
0.0223501 0.2144514 0.8542163
0.0226904 0.2121923 0.8545184
0.0230608 0.2111577 0.8547532
0.0230760 0.2117715 0.8547194
0.0224757 0.2148823 0.8542443
0.0224908 0.2154941 0.8542106
0.0225060 0.2161069 0.8541769
0.0225211 0.2167186 0.8541433
0.0225362 0.2173314 0.8541096
0.0225513 0.2179432 0.8540759
0.0225664 0.2185560 0.8540422
0.0225816 0.2191677 0.8540086
0.0225967 0.2197805 0.8539749
0.0226118 0.2203923 0.8539413
0.0226420 0.2216168 0.8538739
0.0228469 0.2138527 0.8544790
0.0228621 0.2144665 0.8544452
0.0230286 0.2212090 0.8540745
0.0232030 0.2122074 0.8547476
0.0232181 0.2128212 0.8547139
0.0232333 0.2134349 0.8546801
0.0235740 0.2111729 0.8549826
0.0235892 0.2117866 0.8549489
0.0229870 0.2148974 0.8544729
0.0230022 0.2155092 0.8544393
0.0230173 0.2161220 0.8544056
0.0230324 0.2167337 0.8543719
0.0230475 0.2173465 0.8543382
0.0230626 0.2179583 0.8543046
0.0230778 0.2185711 0.8542709
0.0230929 0.2191828 0.8542372
0.0231080 0.2197956 0.8542035
0.0231231 0.2204074 0.8541699
0.0231534 0.2216319 0.8541026
0.0233589 0.2138679 0.8547079
0.0233740 0.2144816 0.8546742
0.0235406 0.2212241 0.8543034
0.0237155 0.2122226 0.8549768
0.0237307 0.2128363 0.8549431
0.0237458 0.2134501 0.8549093
0.0240872 0.2111880 0.8552121
0.0241024 0.2118018 0.8551784
0.0236648 0.2216471 0.8543312
0.0238860 0.2144968 0.8549031
0.0239012 0.2151095 0.8548694
0.0239163 0.2157223 0.8548357
0.0239314 0.2163351 0.8548020
0.0239466 0.2169479 0.8547683
0.0239617 0.2175616 0.8547346
0.0239769 0.2181744 0.8547009
0.0239920 0.2187872 0.8546672
0.0240071 0.2193999 0.8546335
0.0240223 0.2200127 0.8545998
0.0240374 0.2206265 0.8545660
0.0240525 0.2212393 0.8545323
0.0242433 0.2128515 0.8551723
0.0242584 0.2134652 0.8551385
0.0242736 0.2140790 0.8551047
0.0246004 0.2112032 0.8554416
0.0246156 0.2118169 0.8554078
0.0246307 0.2124317 0.8553740
0.0244434 0.2163502 0.8550309
0.0244586 0.2169630 0.8549972
0.0244737 0.2175768 0.8549635
0.0244888 0.2181895 0.8549298
0.0245040 0.2188023 0.8548961
0.0245191 0.2194151 0.8548624
0.0245342 0.2200278 0.8548287
0.0245494 0.2206416 0.8547949
0.0245645 0.2212544 0.8547612
0.0247861 0.2140942 0.8553339
0.0248013 0.2147079 0.8553002
0.0248165 0.2153217 0.8552664
0.0248316 0.2159355 0.8552327
0.0251136 0.2112183 0.8556710
0.0251287 0.2118321 0.8556373
0.0251439 0.2124469 0.8556035
0.0251591 0.2130606 0.8555697
0.0251742 0.2136754 0.8555359
0.0249553 0.2163653 0.8552598
0.0249705 0.2169781 0.8552261
0.0249856 0.2175919 0.8551924
0.0250008 0.2182047 0.8551587
0.0250159 0.2188174 0.8551250
0.0250310 0.2194302 0.8550913
0.0250462 0.2200430 0.8550576
0.0250613 0.2206567 0.8550238
0.0250764 0.2212695 0.8549901
0.0252987 0.2141093 0.8555631
0.0253139 0.2147231 0.8555294
0.0253290 0.2153368 0.8554956
0.0253442 0.2159506 0.8554619
0.0256267 0.2112335 0.8559005
0.0256419 0.2118473 0.8558667
0.0256570 0.2124620 0.8558329
0.0256722 0.2130758 0.8557992
0.0256874 0.2136906 0.8557653
0.0258416 0.2153520 0.8557248
0.0258568 0.2159657 0.8556911
0.0258719 0.2165795 0.8556573
0.0258871 0.2171933 0.8556236
0.0259022 0.2178071 0.8555898
0.0259174 0.2184198 0.8555561
0.0259325 0.2190336 0.8555224
0.0259477 0.2196474 0.8554886
0.0259628 0.2202611 0.8554548
0.0259780 0.2208749 0.8554211
0.0259932 0.2214887 0.8553873
0.0261703 0.2124772 0.8560624
0.0261854 0.2130910 0.8560286
0.0262006 0.2137057 0.8559948
0.0262158 0.2143205 0.8559610
0.0262310 0.2149343 0.8559273
0.0265443 0.2114407 0.8562988
0.0265595 0.2120555 0.8562650
0.0263845 0.2165947 0.8558865
0.0263996 0.2172084 0.8558527
0.0264148 0.2178222 0.8558190
0.0264299 0.2184350 0.8557853
0.0264451 0.2190487 0.8557515
0.0264603 0.2196625 0.8557178
0.0264754 0.2202763 0.8556840
0.0264906 0.2208901 0.8556503
0.0265057 0.2215038 0.8556165
0.0267290 0.2143357 0.8561905
0.0267441 0.2149494 0.8561567
0.0267593 0.2155642 0.8561229
0.0267745 0.2161790 0.8560891
0.0270581 0.2114559 0.8565286
0.0270733 0.2120707 0.8564948
0.0270885 0.2126855 0.8564610
0.0271037 0.2133012 0.8564271
0.0271189 0.2139160 0.8563933
0.0268971 0.2166098 0.8561157
0.0269122 0.2172236 0.8560819
0.0269274 0.2178373 0.8560482
0.0269425 0.2184501 0.8560145
0.0269577 0.2190639 0.8559807
0.0269728 0.2196777 0.8559470
0.0269880 0.2202914 0.8559132
0.0270031 0.2209052 0.8558795
0.0270183 0.2215190 0.8558457
0.0272421 0.2143508 0.8564199
0.0272573 0.2149646 0.8563862
0.0272725 0.2155794 0.8563524
0.0272876 0.2161941 0.8563186
0.0275719 0.2114711 0.8567583
0.0275870 0.2120859 0.8567245
0.0276022 0.2127006 0.8566907
0.0276174 0.2133164 0.8566568
0.0276326 0.2139312 0.8566230
0.0275157 0.2209203 0.8561087
0.0275309 0.2215341 0.8560749
0.0277704 0.2149798 0.8566156
0.0277856 0.2155945 0.8565818
0.0278008 0.2162093 0.8565480
0.0278160 0.2168231 0.8565143
0.0278311 0.2174378 0.8564805
0.0278463 0.2180516 0.8564467
0.0278615 0.2186664 0.8564129
0.0278767 0.2192811 0.8563791
0.0278918 0.2198949 0.8563453
0.0279070 0.2205097 0.8563115
0.0280857 0.2114863 0.8569881
0.0281009 0.2121011 0.8569543
0.0281160 0.2127158 0.8569204
0.0281312 0.2133316 0.8568866
0.0281464 0.2139464 0.8568528
0.0281616 0.2145611 0.8568190
0.0282989 0.2156097 0.8568113
0.0283140 0.2162245 0.8567775
0.0283292 0.2168382 0.8567438
0.0283444 0.2174530 0.8567099
0.0283595 0.2180668 0.8566762
0.0283747 0.2186815 0.8566424
0.0283899 0.2192963 0.8566086
0.0284051 0.2199101 0.8565748
0.0284202 0.2205248 0.8565410
0.0284354 0.2211396 0.8565072
0.0284506 0.2217534 0.8564735
0.0285994 0.2115015 0.8572178
0.0286146 0.2121162 0.8571840
0.0286298 0.2127310 0.8571502
0.0286450 0.2133468 0.8571163
0.0286602 0.2139615 0.8570825
0.0286753 0.2145763 0.8570487
0.0286906 0.2151921 0.8570148
0.0289910 0.2110769 0.8574217
0.0288120 0.2156249 0.8570408
0.0288272 0.2162396 0.8570070
0.0288424 0.2168534 0.8569732
0.0288575 0.2174682 0.8569394
0.0288727 0.2180819 0.8569056
0.0288879 0.2186967 0.8568718
0.0289031 0.2193115 0.8568380
0.0289182 0.2199252 0.8568043
0.0289334 0.2205400 0.8567705
0.0289486 0.2211548 0.8567367
0.0289637 0.2217685 0.8567029
0.0291131 0.2115167 0.8574475
0.0291283 0.2121314 0.8574137
0.0291435 0.2127462 0.8573799
0.0291587 0.2133619 0.8573460
0.0291739 0.2139767 0.8573122
0.0291891 0.2145915 0.8572784
0.0292043 0.2152072 0.8572445
0.0295053 0.2110921 0.8576517
0.0296270 0.2115318 0.8576772
0.0296422 0.2121466 0.8576434
0.0296573 0.2127614 0.8576096
0.0296725 0.2133771 0.8575758
0.0296877 0.2139919 0.8575419
0.0297029 0.2146067 0.8575081
0.0297181 0.2152224 0.8574743
0.0297333 0.2158372 0.8574405
0.0297485 0.2164520 0.8574067
0.0297637 0.2170677 0.8573728
0.0297789 0.2176825 0.8573390
0.0297941 0.2182973 0.8573052
0.0298093 0.2189130 0.8572713
0.0298244 0.2195278 0.8572375
0.0298396 0.2201425 0.8572037
0.0298548 0.2207583 0.8571699
0.0298700 0.2213731 0.8571360
0.0300197 0.2111073 0.8578817
0.0301407 0.2115470 0.8579069
0.0301559 0.2121618 0.8578731
0.0301711 0.2127765 0.8578393
0.0301863 0.2133923 0.8578055
0.0302015 0.2140071 0.8577717
0.0302166 0.2146218 0.8577379
0.0302319 0.2152376 0.8577040
0.0302470 0.2158524 0.8576702
0.0302622 0.2164671 0.8576364
0.0302774 0.2170829 0.8576025
0.0302926 0.2176977 0.8575687
0.0303078 0.2183124 0.8575349
0.0303230 0.2189282 0.8575010
0.0303382 0.2195430 0.8574672
0.0303534 0.2201577 0.8574334
0.0303686 0.2207735 0.8573996
0.0303838 0.2213883 0.8573658
0.0305341 0.2111225 0.8581117
0.0307305 0.2146370 0.8579676
0.0307457 0.2152528 0.8579337
0.0307609 0.2158676 0.8578999
0.0307760 0.2164823 0.8578661
0.0307912 0.2170981 0.8578323
0.0308064 0.2177128 0.8577985
0.0308368 0.2189434 0.8577308
0.0308520 0.2195581 0.8576970
0.0308672 0.2201729 0.8576632
0.0308824 0.2207887 0.8576293
0.0308976 0.2214034 0.8575955
0.0310637 0.2117544 0.8583077
0.0310789 0.2123702 0.8582739
0.0310941 0.2129859 0.8582400
0.0311093 0.2136017 0.8582062
0.0311245 0.2142175 0.8581723
0.0312310 0.2185278 0.8579353
0.0314576 0.2113299 0.8585127
0.0312442 0.2146522 0.8581973
0.0312594 0.2152680 0.8581635
0.0312746 0.2158827 0.8581296
0.0312898 0.2164975 0.8580958
0.0313050 0.2171133 0.8580620
0.0313202 0.2177280 0.8580282
0.0313506 0.2189586 0.8579605
0.0313657 0.2195733 0.8579267
0.0313809 0.2201881 0.8578929
0.0313961 0.2208038 0.8578590
0.0314113 0.2214186 0.8578252
0.0315781 0.2117696 0.8585378
0.0315933 0.2123854 0.8585039
0.0316085 0.2130011 0.8584700
0.0316237 0.2136169 0.8584362
0.0316389 0.2142327 0.8584023
0.0317454 0.2185430 0.8581653
0.0319726 0.2113451 0.8587430
0.0317580 0.2146674 0.8584271
0.0317732 0.2152831 0.8583932
0.0319251 0.2214338 0.8580550
0.0320924 0.2117848 0.8587677
0.0321076 0.2124006 0.8587339
0.0321228 0.2130163 0.8587000
0.0321381 0.2136321 0.8586661
0.0321533 0.2142479 0.8586323
0.0321989 0.2160952 0.8585307
0.0322141 0.2167109 0.8584968
0.0322293 0.2173267 0.8584630
0.0322445 0.2179424 0.8584291
0.0322597 0.2185582 0.8583952
0.0322749 0.2191740 0.8583614
0.0322901 0.2197897 0.8583275
0.0323054 0.2204065 0.8582936
0.0323206 0.2210222 0.8582597
0.0324876 0.2113603 0.8589733
0.0326068 0.2118000 0.8589977
0.0326220 0.2124158 0.8589639
0.0326372 0.2130315 0.8589300
0.0326525 0.2136473 0.8588962
0.0326677 0.2142631 0.8588623
0.0326829 0.2148788 0.8588284
0.0326981 0.2154946 0.8587946
0.0327133 0.2161104 0.8587607
0.0327285 0.2167261 0.8587268
0.0327437 0.2173419 0.8586930
0.0327589 0.2179576 0.8586591
0.0327741 0.2185734 0.8586253
0.0327893 0.2191892 0.8585914
0.0328045 0.2198049 0.8585575
0.0328198 0.2204217 0.8585236
0.0328350 0.2210374 0.8584898
0.0328502 0.2216532 0.8584559
0.0330026 0.2113755 0.8592035
0.0333983 0.2109491 0.8594094
0.0331212 0.2118152 0.8592277
0.0331364 0.2124310 0.8591939
0.0331517 0.2130467 0.8591600
0.0331669 0.2136625 0.8591262
0.0331821 0.2142783 0.8590923
0.0331973 0.2148940 0.8590584
0.0332125 0.2155098 0.8590246
0.0332277 0.2161256 0.8589907
0.0332429 0.2167413 0.8589569
0.0332581 0.2173571 0.8589230
0.0332733 0.2179728 0.8588891
0.0332885 0.2185886 0.8588553
0.0333037 0.2192044 0.8588214
0.0333189 0.2198201 0.8587875
0.0333342 0.2204369 0.8587536
0.0333494 0.2210526 0.8587198
0.0333646 0.2216684 0.8586859
0.0335176 0.2113907 0.8594338
0.0339139 0.2109643 0.8596400
0.0336660 0.2130619 0.8593900
0.0336812 0.2136777 0.8593561
0.0336964 0.2142935 0.8593223
0.0337116 0.2149092 0.8592884
0.0337268 0.2155250 0.8592546
0.0337420 0.2161407 0.8592207
0.0337572 0.2167565 0.8591868
0.0337724 0.2173723 0.8591530
0.0337876 0.2179880 0.8591191
0.0340326 0.2114060 0.8596641
0.0340478 0.2120227 0.8596302
0.0340630 0.2126385 0.8595963
0.0342153 0.2188041 0.8592572
0.0342305 0.2194208 0.8592233
0.0342458 0.2200376 0.8591894
0.0342610 0.2206544 0.8591555
0.0342762 0.2212701 0.8591216
0.0344295 0.2109795 0.8598705
0.0341804 0.2130771 0.8596200
0.0341956 0.2136929 0.8595861
0.0342260 0.2149244 0.8595184
0.0342412 0.2155402 0.8594846
0.0342716 0.2167717 0.8594168
0.0342868 0.2173875 0.8593830
0.0345476 0.2114212 0.8598943
0.0345628 0.2120379 0.8598604
0.0345780 0.2126537 0.8598266
0.0346237 0.2145040 0.8597248
0.0346694 0.2163533 0.8596231
0.0347150 0.2182025 0.8595214
0.0347303 0.2188193 0.8594875
0.0347455 0.2194361 0.8594536
0.0347607 0.2200528 0.8594197
0.0347760 0.2206696 0.8593858
0.0347912 0.2212853 0.8593519
0.0349450 0.2109948 0.8601010
0.0346948 0.2130923 0.8598500
0.0347100 0.2137081 0.8598162
0.0347404 0.2149396 0.8597484
0.0347556 0.2155554 0.8597146
0.0347860 0.2167869 0.8596468
0.0348012 0.2174027 0.8596130
0.0350625 0.2114364 0.8601246
0.0350777 0.2120532 0.8600907
0.0350929 0.2126689 0.8600568
0.0351386 0.2145192 0.8599550
0.0351843 0.2163685 0.8598533
0.0352299 0.2182178 0.8597517
0.0352452 0.2188345 0.8597177
0.0352604 0.2194513 0.8596838
0.0352756 0.2200680 0.8596499
0.0352909 0.2206848 0.8596160
0.0353061 0.2213006 0.8595821
0.0354606 0.2110100 0.8603316
0.0355927 0.2120684 0.8603209
0.0356079 0.2126841 0.8602871
0.0356231 0.2133009 0.8602531
0.0356384 0.2139177 0.8602192
0.0356536 0.2145344 0.8601853
0.0356688 0.2151502 0.8601515
0.0356840 0.2157669 0.8601175
0.0356993 0.2163837 0.8600836
0.0357145 0.2170005 0.8600497
0.0357297 0.2176172 0.8600158
0.0357449 0.2182330 0.8599819
0.0359914 0.2116430 0.8605281
0.0361744 0.2190501 0.8601208
0.0361896 0.2196678 0.8600868
0.0362049 0.2202846 0.8600529
0.0362201 0.2209023 0.8600189
0.0362353 0.2215191 0.8599850
0.0363902 0.2112166 0.8607354
0.0361077 0.2120836 0.8605512
0.0361229 0.2126994 0.8605173
0.0361381 0.2133161 0.8604834
0.0361534 0.2139329 0.8604495
0.0361686 0.2145496 0.8604156
0.0361838 0.2151654 0.8603817
0.0361990 0.2157821 0.8603478
0.0362143 0.2163989 0.8603139
0.0362295 0.2170157 0.8602800
0.0362447 0.2176324 0.8602461
0.0362599 0.2182482 0.8602122
0.0365070 0.2116582 0.8607586
0.0366899 0.2190653 0.8603513
0.0367052 0.2196831 0.8603173
0.0367204 0.2202998 0.8602834
0.0367357 0.2209176 0.8602495
0.0367509 0.2215343 0.8602155
0.0369064 0.2112318 0.8609662
0.0366227 0.2120988 0.8607815
0.0366379 0.2127146 0.8607476
0.0366531 0.2133313 0.8607137
0.0366683 0.2139481 0.8606798
0.0366836 0.2145648 0.8606459
0.0366988 0.2151806 0.8606120
0.0367140 0.2157974 0.8605781
0.0367292 0.2164141 0.8605442
0.0367445 0.2170309 0.8605102
0.0367597 0.2176476 0.8604763
0.0367749 0.2182634 0.8604425
0.0370226 0.2116735 0.8609892
0.0372055 0.2190805 0.8605818
0.0372208 0.2196983 0.8605479
0.0372360 0.2203150 0.8605140
0.0372513 0.2209328 0.8604800
0.0372665 0.2215496 0.8604461
0.0374226 0.2112471 0.8611970
0.0371377 0.2121140 0.8610117
0.0371529 0.2127298 0.8609779
0.0371681 0.2133465 0.8609440
0.0371833 0.2139633 0.8609100
0.0371986 0.2145801 0.8608761
0.0372138 0.2151958 0.8608423
0.0372290 0.2158126 0.8608083
0.0372442 0.2164293 0.8607744
0.0372595 0.2170461 0.8607405
0.0372747 0.2176629 0.8607066
0.0372899 0.2182786 0.8606727
0.0375382 0.2116887 0.8612197
0.0377212 0.2190958 0.8608124
0.0377364 0.2197135 0.8607784
0.0377517 0.2203303 0.8607445
0.0377669 0.2209480 0.8607106
0.0377821 0.2215648 0.8606766
0.0379387 0.2112624 0.8614278
0.0377288 0.2152110 0.8610725
0.0377440 0.2158278 0.8610386
0.0377592 0.2164446 0.8610047
0.0377744 0.2170613 0.8609708
0.0377897 0.2176781 0.8609369
0.0380690 0.2123207 0.8614164
0.0380843 0.2129384 0.8613824
0.0380995 0.2135562 0.8613484
0.0381148 0.2141729 0.8613145
0.0381300 0.2147907 0.8612805
0.0382215 0.2184942 0.8610769
0.0382367 0.2191110 0.8610429
0.0382520 0.2197288 0.8610090
0.0382672 0.2203455 0.8609751
0.0382825 0.2209633 0.8609411
0.0382977 0.2215800 0.8609072
0.0384549 0.2112776 0.8616586
0.0384701 0.2118954 0.8616246
0.0386304 0.2141882 0.8615450
0.0386456 0.2148059 0.8615111
0.0386608 0.2154227 0.8614771
0.0386761 0.2160405 0.8614432
0.0386913 0.2166572 0.8614093
0.0387066 0.2172750 0.8613753
0.0387218 0.2178917 0.8613414
0.0387371 0.2185095 0.8613074
0.0387523 0.2191262 0.8612735
0.0387676 0.2197440 0.8612395
0.0387828 0.2203608 0.8612056
0.0387980 0.2209785 0.8611716
0.0388133 0.2215953 0.8611377
0.0389711 0.2112929 0.8618894
0.0389864 0.2119106 0.8618554
0.0390016 0.2125284 0.8618214
0.0390169 0.2131471 0.8617874
0.0390321 0.2137649 0.8617534
0.0391459 0.2142034 0.8617756
0.0391612 0.2148212 0.8617416
0.0391764 0.2154379 0.8617077
0.0391917 0.2160557 0.8616737
0.0392069 0.2166724 0.8616398
0.0392222 0.2172902 0.8616058
0.0392374 0.2179070 0.8615719
0.0392526 0.2185247 0.8615379
0.0392679 0.2191415 0.8615040
0.0392831 0.2197592 0.8614700
0.0392984 0.2203760 0.8614361
0.0393136 0.2209937 0.8614021
0.0393288 0.2216105 0.8613682
0.0394872 0.2113081 0.8621202
0.0395025 0.2119259 0.8620862
0.0395178 0.2125436 0.8620522
0.0395330 0.2131624 0.8620182
0.0395483 0.2137801 0.8619842
0.0396920 0.2154532 0.8619382
0.0397072 0.2160709 0.8619042
0.0397225 0.2166877 0.8618703
0.0397377 0.2173054 0.8618363
0.0397530 0.2179222 0.8618024
0.0397682 0.2185399 0.8617685
0.0397834 0.2191567 0.8617345
0.0397987 0.2197745 0.8617006
0.0398139 0.2203912 0.8616666
0.0398444 0.2216257 0.8615988
0.0400187 0.2119411 0.8623170
0.0400339 0.2125589 0.8622830
0.0400492 0.2131776 0.8622490
0.0400645 0.2137954 0.8622150
0.0400797 0.2144131 0.8621811
0.0400950 0.2150309 0.8621471
0.0402476 0.2212114 0.8618072
0.0402685 0.2179374 0.8620330
0.0402838 0.2185552 0.8619990
0.0402990 0.2191719 0.8619651
0.0403143 0.2197897 0.8619311
0.0403600 0.2216410 0.8618293
0.0405807 0.2138106 0.8624459
0.0405959 0.2144284 0.8624119
0.0406112 0.2150461 0.8623779
0.0406265 0.2156649 0.8623439
0.0406417 0.2162826 0.8623099
0.0406570 0.2169004 0.8622759
0.0406723 0.2175182 0.8622420
0.0407486 0.2206089 0.8620720
0.0407638 0.2212267 0.8620380
0.0407841 0.2179527 0.8622635
0.0407994 0.2185704 0.8622295
0.0408146 0.2191872 0.8621956
0.0408298 0.2198049 0.8621616
0.0408451 0.2204217 0.8621277
0.0408603 0.2210394 0.8620937
0.0408756 0.2216562 0.8620598
0.0410968 0.2138259 0.8626766
0.0411121 0.2144436 0.8626427
0.0411274 0.2150614 0.8626087
0.0411426 0.2156801 0.8625747
0.0411579 0.2162979 0.8625407
0.0411731 0.2169157 0.8625067
0.0411884 0.2175334 0.8624728
0.0413454 0.2198202 0.8623922
0.0413606 0.2204369 0.8623582
0.0413759 0.2210547 0.8623243
0.0413911 0.2216714 0.8622904
0.0416588 0.2156954 0.8628055
0.0416740 0.2163131 0.8627715
0.0416893 0.2169309 0.8627375
0.0417046 0.2175487 0.8627036
0.0417198 0.2181674 0.8626695
0.0417351 0.2187852 0.8626356
0.0417504 0.2194029 0.8626016
0.0418762 0.2204522 0.8625888
0.0418915 0.2210699 0.8625548
0.0419067 0.2216867 0.8625209
0.0422207 0.2175639 0.8629343
0.0422360 0.2181827 0.8629003
0.0422512 0.2188004 0.8628664
0.0422665 0.2194182 0.8628324
0.0422818 0.2200359 0.8627984
0.0423918 0.2204674 0.8628193
0.0424070 0.2210851 0.8627853
0.0424223 0.2217019 0.8627514
0.0427369 0.2175792 0.8631652
0.0427522 0.2181979 0.8631312
0.0427675 0.2188157 0.8630972
0.0427827 0.2194334 0.8630632
0.0427980 0.2200512 0.8630292
0.0429378 0.2217171 0.8629819
0.0432684 0.2182132 0.8633619
0.0432836 0.2188309 0.8633280
0.0432989 0.2194487 0.8632940
0.0433142 0.2200664 0.8632600
0.0433294 0.2206852 0.8632260
0.0433447 0.2213029 0.8631920
0.0434534 0.2217324 0.8632125
0.0438150 0.2194639 0.8635248
0.0438303 0.2200817 0.8634908
0.0438456 0.2207004 0.8634568
0.0438608 0.2213182 0.8634228
0.0439690 0.2217476 0.8634430
0.0443312 0.2194792 0.8637556
0.0443465 0.2200969 0.8637216
0.0443617 0.2207157 0.8636876
0.0443770 0.2213334 0.8636536
0.0448474 0.2194944 0.8639864
0.0448627 0.2201122 0.8639524
0.0448780 0.2207309 0.8639184
0.0448932 0.2213487 0.8638844
0.0449085 0.2219664 0.8638505
0.0453636 0.2195097 0.8642172
0.0453788 0.2201274 0.8641832
0.0453941 0.2207462 0.8641492
0.0454094 0.2213639 0.8641152
0.0454246 0.2219817 0.8640813
0.0458797 0.2195249 0.8644480
0.0458950 0.2201427 0.8644140
0.0459103 0.2207614 0.8643800
0.0459255 0.2213792 0.8643460
0.0459408 0.2219970 0.8643121
0.0464112 0.2201579 0.8646449
0.0464265 0.2207767 0.8646108
0.0464418 0.2213945 0.8645769
0.0464570 0.2220122 0.8645429
0.0469732 0.2220275 0.8647737
0.0474893 0.2220427 0.8650045
0.0480055 0.2220580 0.8652353
0.0045681 0.2237483 0.8456162
0.0045831 0.2243591 0.8455826
0.0050481 0.2225418 0.8459115
0.0050631 0.2231526 0.8458779
0.0050782 0.2237634 0.8458443
0.0050933 0.2243742 0.8458107
0.0051084 0.2249849 0.8457772
0.0051235 0.2255957 0.8457436
0.0051386 0.2262065 0.8457100
0.0055582 0.2225569 0.8461396
0.0055733 0.2231677 0.8461060
0.0055884 0.2237785 0.8460724
0.0056035 0.2243892 0.8460389
0.0056186 0.2250000 0.8460053
0.0056337 0.2256108 0.8459717
0.0056487 0.2262216 0.8459381
0.0056638 0.2268324 0.8459045
0.0060684 0.2225720 0.8463677
0.0060835 0.2231828 0.8463342
0.0060986 0.2237935 0.8463006
0.0061137 0.2244043 0.8462670
0.0061287 0.2250151 0.8462334
0.0061438 0.2256259 0.8461998
0.0061589 0.2262367 0.8461662
0.0061740 0.2268474 0.8461326
0.0065635 0.2219763 0.8466294
0.0065786 0.2225870 0.8465959
0.0065937 0.2231978 0.8465623
0.0066540 0.2256409 0.8464279
0.0066691 0.2262517 0.8463943
0.0066842 0.2268625 0.8463607
0.0066993 0.2274733 0.8463272
0.0067143 0.2280841 0.8462936
0.0069926 0.2240170 0.8466873
0.0070076 0.2246278 0.8466537
0.0070228 0.2252396 0.8466200
0.0070737 0.2219913 0.8468576
0.0070888 0.2226021 0.8468240
0.0071038 0.2232129 0.8467904
0.0071944 0.2268776 0.8465889
0.0072094 0.2274884 0.8465553
0.0072245 0.2280991 0.8465217
0.0072396 0.2287099 0.8464881
0.0075033 0.2240321 0.8469157
0.0075184 0.2246429 0.8468821
0.0075335 0.2252547 0.8468484
0.0075486 0.2258664 0.8468148
0.0075637 0.2264782 0.8467811
0.0075839 0.2220064 0.8470857
0.0075989 0.2226172 0.8470521
0.0076140 0.2232280 0.8470185
0.0076744 0.2256711 0.8468842
0.0076894 0.2262819 0.8468506
0.0077045 0.2268927 0.8468170
0.0077196 0.2275034 0.8467834
0.0077347 0.2281142 0.8467498
0.0077498 0.2287250 0.8467162
0.0080141 0.2240472 0.8471440
0.0080292 0.2246580 0.8471105
0.0080443 0.2252697 0.8470768
0.0080940 0.2220215 0.8473138
0.0081091 0.2226323 0.8472802
0.0081242 0.2232430 0.8472466
0.0081694 0.2250754 0.8471459
0.0081845 0.2256862 0.8471123
0.0081996 0.2262970 0.8470787
0.0082147 0.2269077 0.8470451
0.0082298 0.2275185 0.8470115
0.0082449 0.2281293 0.8469779
0.0082600 0.2287401 0.8469443
0.0082750 0.2293509 0.8469107
0.0082901 0.2299616 0.8468772
0.0083052 0.2305724 0.8468436
0.0085249 0.2240623 0.8473724
0.0085400 0.2246731 0.8473388
0.0086042 0.2220366 0.8475419
0.0086193 0.2226473 0.8475083
0.0086344 0.2232581 0.8474747
0.0086796 0.2250905 0.8473740
0.0086947 0.2257012 0.8473404
0.0087098 0.2263120 0.8473068
0.0087249 0.2269228 0.8472732
0.0087400 0.2275336 0.8472396
0.0087550 0.2281444 0.8472060
0.0087701 0.2287551 0.8471725
0.0087852 0.2293659 0.8471389
0.0088003 0.2299767 0.8471053
0.0088154 0.2305875 0.8470717
0.0088305 0.2311983 0.8470381
0.0088455 0.2318090 0.8470045
0.0088606 0.2324198 0.8469709
0.0090357 0.2240774 0.8476008
0.0090507 0.2246882 0.8475672
0.0091144 0.2220516 0.8477700
0.0091295 0.2226624 0.8477365
0.0091445 0.2232732 0.8477029
0.0091596 0.2238840 0.8476693
0.0091747 0.2244948 0.8476357
0.0091898 0.2251055 0.8476021
0.0092049 0.2257163 0.8475685
0.0092200 0.2263271 0.8475349
0.0092350 0.2269379 0.8475013
0.0092501 0.2275487 0.8474677
0.0092652 0.2281594 0.8474342
0.0092803 0.2287702 0.8474006
0.0092954 0.2293810 0.8473670
0.0093105 0.2299918 0.8473334
0.0093256 0.2306026 0.8472998
0.0093406 0.2312133 0.8472662
0.0093557 0.2318241 0.8472326
0.0093708 0.2324349 0.8471990
0.0096245 0.2220667 0.8479982
0.0096396 0.2226775 0.8479646
0.0096547 0.2232883 0.8479310
0.0096698 0.2238991 0.8478974
0.0096849 0.2245098 0.8478638
0.0097000 0.2251206 0.8478302
0.0097151 0.2257314 0.8477966
0.0097301 0.2263422 0.8477630
0.0097452 0.2269530 0.8477295
0.0097603 0.2275637 0.8476959
0.0097754 0.2281745 0.8476623
0.0097905 0.2287853 0.8476287
0.0098056 0.2293961 0.8475951
0.0098206 0.2300069 0.8475615
0.0098357 0.2306176 0.8475279
0.0098508 0.2312284 0.8474943
0.0098659 0.2318392 0.8474607
0.0098810 0.2324500 0.8474272
0.0101347 0.2220818 0.8482263
0.0101498 0.2226926 0.8481927
0.0101649 0.2233033 0.8481591
0.0101800 0.2239141 0.8481255
0.0101951 0.2245249 0.8480919
0.0102101 0.2251357 0.8480583
0.0102252 0.2257465 0.8480247
0.0102403 0.2263573 0.8479912
0.0102554 0.2269680 0.8479576
0.0102705 0.2275788 0.8479240
0.0102856 0.2281896 0.8478904
0.0103006 0.2288004 0.8478568
0.0103157 0.2294112 0.8478232
0.0103308 0.2300219 0.8477896
0.0103459 0.2306327 0.8477560
0.0107492 0.2314610 0.8478824
0.0107643 0.2320718 0.8478488
0.0106449 0.2220969 0.8484544
0.0106600 0.2227076 0.8484208
0.0106751 0.2233184 0.8483872
0.0106901 0.2239292 0.8483536
0.0107052 0.2245400 0.8483200
0.0107203 0.2251508 0.8482865
0.0107354 0.2257615 0.8482529
0.0107505 0.2263723 0.8482193
0.0107656 0.2269831 0.8481857
0.0107807 0.2275939 0.8481521
0.0107957 0.2282047 0.8481185
0.0108108 0.2288154 0.8480849
0.0108259 0.2294262 0.8480513
0.0108410 0.2300370 0.8480178
0.0108561 0.2306478 0.8479842
0.0112600 0.2314761 0.8481108
0.0112751 0.2320869 0.8480772
0.0111551 0.2221119 0.8486825
0.0111702 0.2227227 0.8486489
0.0111852 0.2233335 0.8486153
0.0112003 0.2239443 0.8485817
0.0112154 0.2245551 0.8485482
0.0112305 0.2251658 0.8485146
0.0112456 0.2257766 0.8484810
0.0112607 0.2263874 0.8484474
0.0112757 0.2269982 0.8484138
0.0112908 0.2276090 0.8483802
0.0113059 0.2282197 0.8483466
0.0113210 0.2288305 0.8483130
0.0113361 0.2294413 0.8482795
0.0113512 0.2300521 0.8482459
0.0113662 0.2306629 0.8482123
0.0117707 0.2314912 0.8483392
0.0117858 0.2321019 0.8483056
0.0116652 0.2221270 0.8489106
0.0116803 0.2227378 0.8488770
0.0116954 0.2233486 0.8488434
0.0117105 0.2239594 0.8488099
0.0117256 0.2245701 0.8487763
0.0117406 0.2251809 0.8487427
0.0117557 0.2257917 0.8487091
0.0117708 0.2264025 0.8486755
0.0117859 0.2270133 0.8486419
0.0118010 0.2276240 0.8486083
0.0118161 0.2282348 0.8485747
0.0118312 0.2288456 0.8485412
0.0118462 0.2294564 0.8485076
0.0118613 0.2300672 0.8484740
0.0118764 0.2306779 0.8484404
0.0122816 0.2315063 0.8485676
0.0122966 0.2321170 0.8485340
0.0121754 0.2221421 0.8491387
0.0121905 0.2227529 0.8491051
0.0122056 0.2233636 0.8490716
0.0122206 0.2239744 0.8490380
0.0122357 0.2245852 0.8490044
0.0122810 0.2264175 0.8489036
0.0122961 0.2270283 0.8488700
0.0123111 0.2276391 0.8488364
0.0123262 0.2282499 0.8488029
0.0123413 0.2288607 0.8487693
0.0123564 0.2294715 0.8487357
0.0123715 0.2300822 0.8487021
0.0123866 0.2306930 0.8486685
0.0127923 0.2315214 0.8487960
0.0131980 0.2323497 0.8489235
0.0126856 0.2221572 0.8493669
0.0127007 0.2227679 0.8493333
0.0127158 0.2233787 0.8492997
0.0127309 0.2239895 0.8492661
0.0127460 0.2246003 0.8492325
0.0127912 0.2264326 0.8491318
0.0128063 0.2270434 0.8490982
0.0128214 0.2276542 0.8490646
0.0128365 0.2282650 0.8490310
0.0128516 0.2288757 0.8489974
0.0128666 0.2294865 0.8489638
0.0132728 0.2303129 0.8490916
0.0132879 0.2309247 0.8490580
0.0133030 0.2315364 0.8490244
0.0137094 0.2323648 0.8491521
0.0131958 0.2221722 0.8495950
0.0132109 0.2227830 0.8495614
0.0132260 0.2233938 0.8495278
0.0132410 0.2240046 0.8494942
0.0132561 0.2246154 0.8494606
0.0133014 0.2264477 0.8493599
0.0133165 0.2270585 0.8493263
0.0133315 0.2276693 0.8492927
0.0133466 0.2282800 0.8492591
0.0133617 0.2288908 0.8492255
0.0133768 0.2295016 0.8491919
0.0137837 0.2303280 0.8493200
0.0137988 0.2309398 0.8492864
0.0138139 0.2315515 0.8492528
0.0142208 0.2323799 0.8493808
0.0137059 0.2221873 0.8498231
0.0137210 0.2227981 0.8497895
0.0137361 0.2234089 0.8497559
0.0137512 0.2240197 0.8497223
0.0137663 0.2246304 0.8496888
0.0138115 0.2264628 0.8495880
0.0138266 0.2270736 0.8495544
0.0138417 0.2276843 0.8495208
0.0138568 0.2282951 0.8494872
0.0138719 0.2289059 0.8494536
0.0138870 0.2295167 0.8494200
0.0142944 0.2303431 0.8495484
0.0143095 0.2309549 0.8495148
0.0147171 0.2317832 0.8496431
0.0147322 0.2323950 0.8496094
0.0142161 0.2222024 0.8500512
0.0142312 0.2228132 0.8500176
0.0142463 0.2234239 0.8499840
0.0142614 0.2240347 0.8499505
0.0142764 0.2246455 0.8499169
0.0143217 0.2264778 0.8498161
0.0143368 0.2270886 0.8497825
0.0143519 0.2276994 0.8497489
0.0143669 0.2283102 0.8497153
0.0143820 0.2289210 0.8496817
0.0143971 0.2295317 0.8496482
0.0148052 0.2303582 0.8497768
0.0148203 0.2309699 0.8497432
0.0152284 0.2317984 0.8498717
0.0152435 0.2324101 0.8498381
0.0147263 0.2222175 0.8502793
0.0147413 0.2228282 0.8502457
0.0147564 0.2234390 0.8502121
0.0147715 0.2240498 0.8501786
0.0147866 0.2246606 0.8501450
0.0148017 0.2252714 0.8501114
0.0148168 0.2258821 0.8500778
0.0148318 0.2264929 0.8500442
0.0148469 0.2271037 0.8500106
0.0148620 0.2277145 0.8499770
0.0148771 0.2283253 0.8499434
0.0148922 0.2289360 0.8499099
0.0149073 0.2295468 0.8498763
0.0153160 0.2303733 0.8500052
0.0153311 0.2309850 0.8499716
0.0157398 0.2318135 0.8501004
0.0157549 0.2324252 0.8500667
0.0152365 0.2222325 0.8505075
0.0152516 0.2228433 0.8504739
0.0152667 0.2234541 0.8504403
0.0152818 0.2240649 0.8504067
0.0152968 0.2246757 0.8503731
0.0153119 0.2252864 0.8503395
0.0153270 0.2258972 0.8503059
0.0153421 0.2265080 0.8502724
0.0153572 0.2271188 0.8502388
0.0153723 0.2277296 0.8502052
0.0153873 0.2283403 0.8501716
0.0154024 0.2289511 0.8501380
0.0158117 0.2297766 0.8502672
0.0158268 0.2303884 0.8502336
0.0158419 0.2310001 0.8502000
0.0162511 0.2318286 0.8503290
0.0162662 0.2324404 0.8502954
0.0157467 0.2222476 0.8507356
0.0157617 0.2228584 0.8507020
0.0157768 0.2234692 0.8506684
0.0157919 0.2240800 0.8506348
0.0158070 0.2246907 0.8506012
0.0158221 0.2253015 0.8505676
0.0158372 0.2259123 0.8505341
0.0158522 0.2265231 0.8505005
0.0158673 0.2271339 0.8504669
0.0158824 0.2277446 0.8504333
0.0158975 0.2283554 0.8503997
0.0159126 0.2289662 0.8503661
0.0163224 0.2297917 0.8504956
0.0163375 0.2304034 0.8504620
0.0163526 0.2310152 0.8504283
0.0167625 0.2318437 0.8505577
0.0167776 0.2324555 0.8505240
0.0162568 0.2222627 0.8509637
0.0162719 0.2228735 0.8509301
0.0162870 0.2234842 0.8508965
0.0163021 0.2240950 0.8508629
0.0163171 0.2247058 0.8508293
0.0163322 0.2253166 0.8507958
0.0163473 0.2259274 0.8507622
0.0163624 0.2265381 0.8507286
0.0163775 0.2271489 0.8506950
0.0163926 0.2277597 0.8506614
0.0164077 0.2283705 0.8506278
0.0164227 0.2289813 0.8505942
0.0168332 0.2298068 0.8507240
0.0168483 0.2304185 0.8506903
0.0168634 0.2310303 0.8506567
0.0172739 0.2318588 0.8507863
0.0168122 0.2241101 0.8510910
0.0168273 0.2247209 0.8510575
0.0168424 0.2253317 0.8510239
0.0168575 0.2259424 0.8509903
0.0168726 0.2265532 0.8509567
0.0168876 0.2271640 0.8509231
0.0169027 0.2277748 0.8508895
0.0171477 0.2218727 0.8513895
0.0171627 0.2224835 0.8513559
0.0171779 0.2230953 0.8513223
0.0171930 0.2237071 0.8512887
0.0173138 0.2285993 0.8510196
0.0173289 0.2292111 0.8509860
0.0173440 0.2298219 0.8509524
0.0173591 0.2304336 0.8509188
0.0173742 0.2310454 0.8508851
0.0177853 0.2318739 0.8510150
0.0173224 0.2241252 0.8513192
0.0173375 0.2247360 0.8512856
0.0173525 0.2253467 0.8512520
0.0173676 0.2259575 0.8512184
0.0173827 0.2265683 0.8511848
0.0173978 0.2271791 0.8511512
0.0174129 0.2277899 0.8511176
0.0176584 0.2218878 0.8516179
0.0176735 0.2224986 0.8515843
0.0176886 0.2231104 0.8515507
0.0177037 0.2237222 0.8515170
0.0178245 0.2286144 0.8512480
0.0178396 0.2292262 0.8512144
0.0178547 0.2298369 0.8511808
0.0178698 0.2304487 0.8511471
0.0178849 0.2310605 0.8511135
0.0182967 0.2318890 0.8512436
0.0178326 0.2241402 0.8515473
0.0178477 0.2247510 0.8515137
0.0178628 0.2253618 0.8514801
0.0178779 0.2259726 0.8514465
0.0178930 0.2265834 0.8514129
0.0179080 0.2271942 0.8513794
0.0179231 0.2278049 0.8513458
0.0181692 0.2219029 0.8518463
0.0181843 0.2225137 0.8518127
0.0181994 0.2231255 0.8517791
0.0182145 0.2237373 0.8517454
0.0183353 0.2286295 0.8514764
0.0183505 0.2292413 0.8514428
0.0183655 0.2298520 0.8514092
0.0187778 0.2306796 0.8515397
0.0187929 0.2312914 0.8515060
0.0188081 0.2319041 0.8514723
0.0183428 0.2241553 0.8517754
0.0183579 0.2247661 0.8517418
0.0183729 0.2253769 0.8517082
0.0183880 0.2259877 0.8516746
0.0184031 0.2265984 0.8516411
0.0184182 0.2272092 0.8516075
0.0184333 0.2278200 0.8515739
0.0186800 0.2219180 0.8520747
0.0186951 0.2225288 0.8520411
0.0187102 0.2231406 0.8520075
0.0187253 0.2237524 0.8519738
0.0188461 0.2286446 0.8517048
0.0188612 0.2292564 0.8516711
0.0188763 0.2298671 0.8516376
0.0192892 0.2306947 0.8517683
0.0193043 0.2313065 0.8517346
0.0193194 0.2319192 0.8517009
0.0188529 0.2241704 0.8520035
0.0188680 0.2247812 0.8519699
0.0188831 0.2253920 0.8519363
0.0188982 0.2260027 0.8519028
0.0189133 0.2266135 0.8518692
0.0189284 0.2272243 0.8518356
0.0189434 0.2278351 0.8518020
0.0191907 0.2219331 0.8523031
0.0192058 0.2225439 0.8522695
0.0192209 0.2231557 0.8522358
0.0192360 0.2237674 0.8522022
0.0193568 0.2286597 0.8519332
0.0193719 0.2292714 0.8518995
0.0193870 0.2298822 0.8518659
0.0198006 0.2307098 0.8519970
0.0198157 0.2313216 0.8519633
0.0198308 0.2319343 0.8519296
0.0193631 0.2241855 0.8522316
0.0193782 0.2247963 0.8521980
0.0193933 0.2254070 0.8521645
0.0194083 0.2260178 0.8521309
0.0194234 0.2266286 0.8520973
0.0194385 0.2272394 0.8520637
0.0194536 0.2278502 0.8520301
0.0197015 0.2219482 0.8525315
0.0197166 0.2225590 0.8524979
0.0197317 0.2231708 0.8524642
0.0197468 0.2237825 0.8524306
0.0198677 0.2286748 0.8521616
0.0198828 0.2292865 0.8521279
0.0198978 0.2298973 0.8520943
0.0203119 0.2307249 0.8522256
0.0203270 0.2313367 0.8521919
0.0203421 0.2319495 0.8521582
0.0198733 0.2242005 0.8524597
0.0198883 0.2248113 0.8524262
0.0199034 0.2254221 0.8523926
0.0199185 0.2260329 0.8523590
0.0199336 0.2266437 0.8523254
0.0199487 0.2272544 0.8522918
0.0199638 0.2278652 0.8522582
0.0202123 0.2219633 0.8527598
0.0202274 0.2225741 0.8527263
0.0202425 0.2231859 0.8526926
0.0202576 0.2237976 0.8526590
0.0203784 0.2286899 0.8523899
0.0203935 0.2293016 0.8523563
0.0204086 0.2299124 0.8523227
0.0208233 0.2307400 0.8524543
0.0208384 0.2313518 0.8524206
0.0208535 0.2319646 0.8523869
0.0203835 0.2242156 0.8526879
0.0203986 0.2248264 0.8526543
0.0204137 0.2254372 0.8526207
0.0204287 0.2260480 0.8525871
0.0204438 0.2266587 0.8525535
0.0204589 0.2272695 0.8525200
0.0204740 0.2278803 0.8524864
0.0207231 0.2219784 0.8529882
0.0207382 0.2225892 0.8529547
0.0207533 0.2232009 0.8529210
0.0207684 0.2238127 0.8528874
0.0208892 0.2287049 0.8526183
0.0209043 0.2293167 0.8525847
0.0209194 0.2299275 0.8525511
0.0213347 0.2307551 0.8526829
0.0213498 0.2313669 0.8526493
0.0217652 0.2321965 0.8527810
0.0208936 0.2242307 0.8529160
0.0209087 0.2248415 0.8528824
0.0209238 0.2254523 0.8528488
0.0209389 0.2260630 0.8528152
0.0209691 0.2272846 0.8527481
0.0209842 0.2278954 0.8527145
0.0212338 0.2219935 0.8532166
0.0212489 0.2226043 0.8531830
0.0212640 0.2232160 0.8531494
0.0212791 0.2238278 0.8531157
0.0213547 0.2268857 0.8529476
0.0214000 0.2287200 0.8528467
0.0214151 0.2293318 0.8528131
0.0214302 0.2299426 0.8527795
0.0218460 0.2307702 0.8529116
0.0218611 0.2313820 0.8528779
0.0222771 0.2322117 0.8530099
0.0214038 0.2242458 0.8531441
0.0214189 0.2248566 0.8531105
0.0214340 0.2254673 0.8530769
0.0214491 0.2260781 0.8530434
0.0214641 0.2266889 0.8530098
0.0214792 0.2272997 0.8529762
0.0214943 0.2279105 0.8529426
0.0217748 0.2232311 0.8533778
