-0.1468104 0.3680579 1.0392962
-0.1468284 0.3687071 1.0392322
-0.1468455 0.3693535 1.0391642
-0.1468569 0.3699701 1.0390888
-0.1447426 0.3777904 1.0364105
-0.1447701 0.3784284 1.0363359
-0.1447872 0.3790592 1.0362587
-0.1448162 0.3797001 1.0361907
-0.1448424 0.3803812 1.0361158
-0.1458596 0.3463847 1.0395208
-0.1458732 0.3471255 1.0395058
-0.1459325 0.3553537 1.0394457
-0.1459411 0.3560917 1.0394447
-0.1459515 0.3568288 1.0394402
-0.1459635 0.3575661 1.0394341
-0.1463990 0.3705326 1.0386905
-0.1464145 0.3711737 1.0386118
-0.1451594 0.3386837 1.0396305
-0.1451856 0.3394077 1.0395735
-0.1452123 0.3401375 1.0395222
-0.1452376 0.3408693 1.0394753
-0.1452616 0.3416023 1.0394313
-0.1452837 0.3423390 1.0393912
-0.1453032 0.3430784 1.0393559
-0.1453215 0.3438202 1.0393236
-0.1453381 0.3445623 1.0392943
-0.1453524 0.3453062 1.0392686
-0.1453836 0.3475420 1.0392124
-0.1453910 0.3482856 1.0391994
-0.1453971 0.3490296 1.0391889
-0.1454035 0.3497716 1.0391812
-0.1454090 0.3505113 1.0391745
-0.1454139 0.3512491 1.0391705
-0.1454191 0.3519854 1.0391674
-0.1454243 0.3527196 1.0391651
-0.1454305 0.3534520 1.0391635
-0.1454381 0.3541877 1.0391621
-0.1459753 0.3718061 1.0382075
-0.1460041 0.3724569 1.0381326
-0.1460354 0.3731081 1.0380595
-0.1455808 0.3737915 1.0376287
-0.1451097 0.3744753 1.0371841
-0.1451437 0.3751320 1.0371076
-0.1446629 0.3757908 1.0366572
-0.1446968 0.3764406 1.0365811
-0.1447309 0.3771087 1.0365043
-0.1449969 0.3814848 1.0360877
-0.1442339 0.3776711 1.0360548
-0.1442663 0.3783306 1.0359789
-0.1442941 0.3789925 1.0359033
-0.1443308 0.3796761 1.0358336
-0.1443653 0.3803826 1.0357615
-0.1454050 0.3575872 1.0390890
-0.1454217 0.3583195 1.0390802
-0.1454418 0.3590521 1.0390685
-0.1454635 0.3597851 1.0390539
-0.1454877 0.3605212 1.0390338
-0.1455125 0.3612572 1.0390111
-0.1455393 0.3619919 1.0389842
-0.1455667 0.3627247 1.0389540
-0.1455958 0.3634577 1.0389178
-0.1456266 0.3641892 1.0388794
-0.1456594 0.3649164 1.0388367
-0.1456915 0.3656397 1.0387871
-0.1457231 0.3663578 1.0387364
-0.1457527 0.3670674 1.0386761
-0.1457793 0.3677699 1.0386111
-0.1458082 0.3684563 1.0385480
-0.1458324 0.3691253 1.0384794
-0.1458547 0.3697779 1.0384089
-0.1458703 0.3704108 1.0383338
-0.1458867 0.3710401 1.0382548
-0.1445765 0.3386472 1.0392893
-0.1446054 0.3393838 1.0392346
-0.1446329 0.3401241 1.0391813
-0.1446580 0.3408653 1.0391342
-0.1446817 0.3416082 1.0390911
-0.1447037 0.3423515 1.0390516
-0.1447231 0.3430917 1.0390170
-0.1447414 0.3438331 1.0389849
-0.1447574 0.3445732 1.0389576
-0.1447724 0.3453134 1.0389334
-0.1447854 0.3460544 1.0389125
-0.1447965 0.3467963 1.0388952
-0.1448063 0.3475400 1.0388803
-0.1448152 0.3482839 1.0388674
-0.1448226 0.3490278 1.0388574
-0.1448291 0.3497726 1.0388490
-0.1448355 0.3505177 1.0388417
-0.1448412 0.3512614 1.0388369
-0.1448471 0.3520047 1.0388321
-0.1448534 0.3527455 1.0388282
-0.1448595 0.3534847 1.0388252
-0.1448667 0.3542231 1.0388218
-0.1448738 0.3549628 1.0388164
-0.1448808 0.3557026 1.0388092
-0.1448892 0.3564435 1.0387995
-0.1454428 0.3716461 1.0378519
-0.1454717 0.3722861 1.0377781
-0.1455038 0.3729296 1.0377045
-0.1450451 0.3735978 1.0372740
-0.1445786 0.3742828 1.0368324
-0.1446157 0.3749449 1.0367559
-0.1441390 0.3756142 1.0363051
-0.1436539 0.3762595 1.0358512
-0.1436851 0.3768965 1.0357735
-0.1431893 0.3774640 1.0353237
-0.1432158 0.3780917 1.0352444
-0.1432402 0.3787303 1.0351671
-0.1432732 0.3793828 1.0350936
-0.1433025 0.3800621 1.0350176
-0.1433370 0.3807623 1.0349444
-0.1433732 0.3814697 1.0348773
-0.1441243 0.3416246 1.0387664
-0.1441438 0.3423720 1.0387264
-0.1441606 0.3431120 1.0386904
-0.1441754 0.3438521 1.0386574
-0.1441898 0.3445888 1.0386280
-0.1442033 0.3453238 1.0386031
-0.1442170 0.3460609 1.0385825
-0.1442276 0.3467984 1.0385649
-0.1442364 0.3475420 1.0385489
-0.1442858 0.3535136 1.0384779
-0.1442948 0.3542531 1.0384732
-0.1443048 0.3549919 1.0384673
-0.1443150 0.3557321 1.0384609
-0.1443264 0.3564711 1.0384519
-0.1443386 0.3572105 1.0384409
-0.1443526 0.3579506 1.0384265
-0.1443684 0.3586908 1.0384094
-0.1443860 0.3594310 1.0383895
-0.1444064 0.3601705 1.0383650
-0.1444308 0.3609067 1.0383373
-0.1444581 0.3616418 1.0383048
-0.1444872 0.3623761 1.0382689
-0.1445176 0.3631105 1.0382309
-0.1445495 0.3638415 1.0381896
-0.1445849 0.3645688 1.0381430
-0.1446204 0.3652974 1.0380913
-0.1446573 0.3660200 1.0380390
-0.1446957 0.3667441 1.0379835
-0.1447326 0.3674645 1.0379243
-0.1447722 0.3681776 1.0378600
-0.1448062 0.3688746 1.0377937
-0.1448396 0.3695588 1.0377248
-0.1448704 0.3702182 1.0376546
-0.1448990 0.3708617 1.0375825
-0.1434811 0.3383613 1.0386680
-0.1435108 0.3390826 1.0386174
-0.1435396 0.3398079 1.0385696
-0.1435679 0.3405369 1.0385245
-0.1437398 0.3479505 1.0382509
-0.1437499 0.3486925 1.0382400
-0.1437600 0.3494336 1.0382317
-0.1437706 0.3501712 1.0382250
-0.1437786 0.3509028 1.0382189
-0.1437872 0.3516353 1.0382136
-0.1437978 0.3523651 1.0382091
-0.1444214 0.3714719 1.0371549
-0.1444537 0.3721225 1.0370778
-0.1444843 0.3727656 1.0370006
-0.1440161 0.3734417 1.0365601
-0.1435430 0.3741303 1.0361110
-0.1435779 0.3747793 1.0360325
-0.1436147 0.3754378 1.0359542
-0.1426230 0.3760919 1.0351320
-0.1426513 0.3767057 1.0350540
-0.1426810 0.3773350 1.0349744
-0.1427110 0.3779856 1.0348948
-0.1427427 0.3786526 1.0348163
-0.1427815 0.3793391 1.0347411
-0.1428186 0.3800443 1.0346653
-0.1428615 0.3807660 1.0345924
-0.1429051 0.3814875 1.0345267
-0.1435811 0.3416468 1.0384476
-0.1435968 0.3423982 1.0384052
-0.1436092 0.3431365 1.0383670
-0.1436193 0.3438731 1.0383319
-0.1436290 0.3446052 1.0383008
-0.1436379 0.3453344 1.0382740
-0.1436504 0.3460690 1.0382534
-0.1436592 0.3468027 1.0382350
-0.1436639 0.3475479 1.0382166
-0.1437066 0.3535451 1.0381344
-0.1437230 0.3542797 1.0381310
-0.1437391 0.3550132 1.0381256
-0.1437565 0.3557474 1.0381195
-0.1437768 0.3564779 1.0381116
-0.1437958 0.3572104 1.0381017
-0.1438159 0.3579432 1.0380888
-0.1438388 0.3586788 1.0380735
-0.1438631 0.3594139 1.0380549
-0.1438885 0.3601533 1.0380304
-0.1439194 0.3608902 1.0380027
-0.1439519 0.3616273 1.0379716
-0.1439872 0.3623637 1.0379361
-0.1440227 0.3630994 1.0378992
-0.1440591 0.3638366 1.0378589
-0.1440952 0.3645710 1.0378128
-0.1441321 0.3653035 1.0377594
-0.1441708 0.3660267 1.0377038
-0.1442074 0.3667418 1.0376456
-0.1442421 0.3674468 1.0375825
-0.1442778 0.3681410 1.0375198
-0.1443086 0.3688153 1.0374534
-0.1443368 0.3694768 1.0373837
-0.1443644 0.3701111 1.0373150
-0.1443914 0.3707340 1.0372428
-0.1429192 0.3383241 1.0383354
-0.1429514 0.3390580 1.0382848
-0.1429816 0.3397956 1.0382376
-0.1430095 0.3405367 1.0381914
-0.1431673 0.3479530 1.0379186
-0.1431766 0.3486957 1.0379063
-0.1431857 0.3494382 1.0378965
-0.1431954 0.3501799 1.0378874
-0.1432040 0.3509174 1.0378794
-0.1432130 0.3516544 1.0378723
-0.1432234 0.3523885 1.0378655
-0.1439060 0.3713194 1.0368120
-0.1439368 0.3719527 1.0367371
-0.1439667 0.3725810 1.0366601
-0.1434931 0.3732569 1.0362136
-0.1430168 0.3739437 1.0357624
-0.1430544 0.3745965 1.0356842
-0.1430951 0.3752610 1.0356057
-0.1420845 0.3759055 1.0347725
-0.1421222 0.3765445 1.0346953
-0.1421582 0.3771958 1.0346168
-0.1421957 0.3778685 1.0345369
-0.1422383 0.3785622 1.0344586
-0.1422837 0.3792765 1.0343823
-0.1423309 0.3800068 1.0343097
-0.1423801 0.3807443 1.0342415
-0.1424310 0.3814796 1.0341786
-0.1432000 0.3557545 1.0377789
-0.1432288 0.3564746 1.0377724
-0.1432565 0.3571954 1.0377645
-0.1432850 0.3579165 1.0377544
-0.1433173 0.3586445 1.0377410
-0.1433510 0.3593736 1.0377250
-0.1433829 0.3601124 1.0377031
-0.1434176 0.3608553 1.0376770
-0.1436951 0.3660436 1.0373793
-0.1437272 0.3667485 1.0373174
-0.1437609 0.3674415 1.0372516
-0.1437960 0.3681182 1.0371889
-0.1438191 0.3687631 1.0371193
-0.1438459 0.3694011 1.0370511
-0.1438799 0.3700182 1.0369869
-0.1439100 0.3706218 1.0369198
-0.1425137 0.3420505 1.0377885
-0.1425277 0.3427862 1.0377526
-0.1425404 0.3435242 1.0377196
-0.1425511 0.3442599 1.0376895
-0.1425605 0.3449962 1.0376625
-0.1425700 0.3457331 1.0376393
-0.1425790 0.3464719 1.0376196
-0.1425867 0.3472127 1.0376009
-0.1426440 0.3524162 1.0375211
-0.1426548 0.3531554 1.0375127
-0.1426673 0.3538919 1.0375040
-0.1426792 0.3546302 1.0374936
-0.1428619 0.3612867 1.0372832
-0.1428940 0.3620230 1.0372463
-0.1429300 0.3627572 1.0372059
-0.1429687 0.3634952 1.0371601
-0.1430074 0.3642289 1.0371129
-0.1430472 0.3649611 1.0370623
-0.1434119 0.3711706 1.0364856
-0.1418340 0.3387582 1.0376425
-0.1418678 0.3394800 1.0375979
-0.1418987 0.3402080 1.0375539
-0.1419269 0.3409349 1.0375155
-0.1420988 0.3476097 1.0373029
-0.1421158 0.3483493 1.0372931
-0.1421335 0.3490891 1.0372855
-0.1421515 0.3498263 1.0372790
-0.1421644 0.3505556 1.0372712
-0.1421749 0.3512838 1.0372622
-0.1429127 0.3717901 1.0360333
-0.1429516 0.3724378 1.0359574
-0.1429912 0.3730766 1.0358838
-0.1424988 0.3737503 1.0354240
-0.1425441 0.3744110 1.0353487
-0.1420490 0.3750750 1.0348844
-0.1415536 0.3757219 1.0344226
-0.1415974 0.3763787 1.0343456
-0.1410987 0.3769746 1.0338906
-0.1411378 0.3776293 1.0338122
-0.1411765 0.3782952 1.0337325
-0.1412177 0.3789791 1.0336550
-0.1412614 0.3796848 1.0335786
-0.1413073 0.3804063 1.0335044
-0.1413543 0.3811347 1.0334370
-0.1421151 0.3546467 1.0371464
-0.1421351 0.3553783 1.0371353
-0.1421586 0.3561070 1.0371238
-0.1421815 0.3568356 1.0371103
-0.1422084 0.3575678 1.0370941
-0.1422372 0.3583003 1.0370748
-0.1422688 0.3590331 1.0370543
-0.1423025 0.3597674 1.0370308
-0.1427866 0.3685129 1.0364362
-0.1428246 0.3691754 1.0363696
-0.1413036 0.3387376 1.0373224
-0.1413370 0.3394752 1.0372794
-0.1413665 0.3402135 1.0372363
-0.1413904 0.3409507 1.0371972
-0.1414124 0.3416901 1.0371599
-0.1414311 0.3424290 1.0371263
-0.1414474 0.3431661 1.0370937
-0.1414616 0.3439040 1.0370648
-0.1414745 0.3446442 1.0370390
-0.1414870 0.3453865 1.0370162
-0.1414991 0.3461297 1.0369964
-0.1415106 0.3468723 1.0369796
-0.1415233 0.3476129 1.0369658
-0.1415371 0.3483539 1.0369538
-0.1415519 0.3490944 1.0369447
-0.1415671 0.3498320 1.0369361
-0.1415812 0.3505661 1.0369276
-0.1415937 0.3513001 1.0369177
-0.1416072 0.3520329 1.0369087
-0.1416200 0.3527671 1.0369004
-0.1416265 0.3535065 1.0368842
-0.1417254 0.3602285 1.0366208
-0.1417550 0.3609601 1.0365835
-0.1417881 0.3616927 1.0365444
-0.1418241 0.3624246 1.0365010
-0.1418620 0.3631557 1.0364582
-0.1419033 0.3638864 1.0364108
-0.1419457 0.3646163 1.0363591
-0.1419896 0.3653461 1.0363045
-0.1420382 0.3660712 1.0362462
-0.1420881 0.3668022 1.0361865
-0.1421361 0.3675249 1.0361223
-0.1422868 0.3696574 1.0359229
-0.1423388 0.3703394 1.0358553
-0.1423849 0.3710007 1.0357846
-0.1424249 0.3716384 1.0357129
-0.1424634 0.3722740 1.0356392
-0.1419500 0.3729139 1.0351714
-0.1414391 0.3735720 1.0347023
-0.1414895 0.3742304 1.0346269
-0.1409856 0.3748863 1.0341594
-0.1404938 0.3755166 1.0337026
-0.1405401 0.3761661 1.0336251
-0.1405820 0.3768253 1.0335449
-0.1415490 0.3546503 1.0368014
-0.1415738 0.3553760 1.0367909
-0.1416055 0.3560916 1.0367808
-0.1416364 0.3568066 1.0367689
-0.1416722 0.3575275 1.0367557
-0.1417126 0.3582509 1.0367397
-0.1417560 0.3589770 1.0367233
-0.1418017 0.3597084 1.0367038
-0.1423207 0.3684871 1.0361164
-0.1423562 0.3691246 1.0360490
-0.1400756 0.3773921 1.0330902
-0.1401102 0.3780489 1.0330071
-0.1401511 0.3787176 1.0329286
-0.1401938 0.3793945 1.0328527
-0.1402339 0.3800919 1.0327759
-0.1402794 0.3808092 1.0327033
-0.1408011 0.3387233 1.0370196
-0.1408312 0.3394767 1.0369756
-0.1408586 0.3402260 1.0369313
-0.1408787 0.3409730 1.0368899
-0.1408953 0.3417210 1.0368513
-0.1409100 0.3424630 1.0368148
-0.1409201 0.3431979 1.0367796
-0.1409279 0.3439334 1.0367473
-0.1409335 0.3446702 1.0367182
-0.1409381 0.3454071 1.0366918
-0.1409449 0.3461460 1.0366696
-0.1409521 0.3468885 1.0366503
-0.1409582 0.3476297 1.0366322
-0.1409661 0.3483715 1.0366162
-0.1409752 0.3491120 1.0366031
-0.1409865 0.3498501 1.0365911
-0.1409984 0.3505862 1.0365803
-0.1410107 0.3513219 1.0365687
-0.1410234 0.3520570 1.0365570
-0.1410365 0.3527920 1.0365456
-0.1410470 0.3535314 1.0365291
-0.1412394 0.3601765 1.0363112
-0.1412776 0.3609146 1.0362771
-0.1413174 0.3616531 1.0362398
-0.1413599 0.3623952 1.0361985
-0.1414052 0.3631356 1.0361523
-0.1414514 0.3638815 1.0361033
-0.1414973 0.3646249 1.0360507
-0.1415410 0.3653635 1.0359953
-0.1415889 0.3660917 1.0359346
-0.1416360 0.3668155 1.0358727
-0.1416844 0.3675308 1.0358089
-0.1418247 0.3695958 1.0356078
-0.1418709 0.3702487 1.0355412
-0.1419112 0.3708850 1.0354708
-0.1419475 0.3715000 1.0353991
-0.1419852 0.3721227 1.0353256
-0.1414601 0.3727491 1.0348541
-0.1409353 0.3733954 1.0343758
-0.1409832 0.3740509 1.0342989
-0.1404753 0.3747091 1.0338265
-0.1399744 0.3753432 1.0333652
-0.1400216 0.3760034 1.0332857
-0.1400687 0.3766763 1.0332057
-0.1395594 0.3772566 1.0327448
-0.1396025 0.3779310 1.0326644
-0.1396499 0.3786167 1.0325865
-0.1396999 0.3793156 1.0325109
-0.1397517 0.3800325 1.0324361
-0.1398038 0.3807573 1.0323663
-0.1403983 0.3454397 1.0363730
-0.1403990 0.3461743 1.0363478
-0.1404008 0.3483982 1.0362839
-0.1404041 0.3491374 1.0362669
-0.1404119 0.3498760 1.0362527
-0.1404232 0.3506110 1.0362392
-0.1404355 0.3513461 1.0362262
-0.1404504 0.3520790 1.0362128
-0.1404660 0.3528113 1.0362008
-0.1404838 0.3535417 1.0361877
-0.1405036 0.3542723 1.0361731
-0.1405248 0.3550028 1.0361580
-0.1405484 0.3557311 1.0361414
-0.1405763 0.3564555 1.0361223
-0.1406070 0.3571819 1.0361020
-0.1406406 0.3579077 1.0360795
-0.1406762 0.3586374 1.0360551
-0.1407157 0.3593671 1.0360297
-0.1413701 0.3695434 1.0353000
-0.1414104 0.3701643 1.0352343
-0.1396646 0.3384176 1.0363559
-0.1396993 0.3391545 1.0363129
-0.1397283 0.3398920 1.0362742
-0.1397528 0.3406307 1.0362356
-0.1397724 0.3413665 1.0362001
-0.1397908 0.3421023 1.0361661
-0.1398047 0.3428370 1.0361354
-0.1398168 0.3435728 1.0361071
-0.1398274 0.3443100 1.0360808
-0.1398597 0.3465314 1.0360201
-0.1398734 0.3472705 1.0360052
-0.1401336 0.3598718 1.0356107
-0.1401694 0.3606013 1.0355724
-0.1402075 0.3613316 1.0355327
-0.1402480 0.3620660 1.0354913
-0.1402920 0.3628036 1.0354452
-0.1403382 0.3635454 1.0353944
-0.1403856 0.3642858 1.0353419
-0.1404341 0.3650241 1.0352856
-0.1404835 0.3657587 1.0352266
-0.1405347 0.3664890 1.0351659
-0.1405868 0.3672123 1.0351024
-0.1406406 0.3679326 1.0350364
-0.1406931 0.3686432 1.0349679
-0.1408459 0.3706794 1.0347590
-0.1408938 0.3713249 1.0346896
-0.1409437 0.3719687 1.0346197
-0.1409897 0.3726005 1.0345470
-0.1398602 0.3731933 1.0336516
-0.1399186 0.3738660 1.0335777
-0.1399731 0.3745386 1.0335011
-0.1388896 0.3751142 1.0326418
-0.1389464 0.3757836 1.0325658
-0.1389984 0.3764482 1.0324878
-0.1390479 0.3771207 1.0324072
-0.1390996 0.3778083 1.0323276
-0.1392608 0.3799604 1.0321005
-0.1399069 0.3528247 1.0358652
-0.1399304 0.3535393 1.0358537
-0.1399560 0.3542578 1.0358410
-0.1399849 0.3549752 1.0358274
-0.1400173 0.3556890 1.0358131
-0.1400535 0.3563964 1.0357973
-0.1400927 0.3571092 1.0357784
-0.1401362 0.3578265 1.0357608
-0.1385705 0.3783705 1.0318648
-0.1386169 0.3790540 1.0317870
-0.1387182 0.3804552 1.0316423
-0.1387706 0.3811685 1.0315768
-0.1393068 0.3458206 1.0357167
-0.1393126 0.3465589 1.0356966
-0.1393196 0.3472968 1.0356776
-0.1393284 0.3480336 1.0356602
-0.1393394 0.3487678 1.0356455
-0.1393532 0.3495013 1.0356325
-0.1393670 0.3502347 1.0356200
-0.1393806 0.3509675 1.0356070
-0.1393916 0.3517029 1.0355914
-0.1395693 0.3583400 1.0353704
-0.1396064 0.3590666 1.0353391
-0.1402957 0.3692948 1.0345932
-0.1403378 0.3699353 1.0345235
-0.1403833 0.3705761 1.0344534
-0.1386416 0.3410085 1.0355452
-0.1386596 0.3417350 1.0355152
-0.1386771 0.3424636 1.0354859
-0.1386935 0.3431967 1.0354588
-0.1387104 0.3439340 1.0354354
-0.1387261 0.3446696 1.0354148
-0.1390145 0.3595829 1.0349158
-0.1390485 0.3603014 1.0348753
-0.1390876 0.3610227 1.0348325
-0.1393747 0.3654219 1.0345176
-0.1394278 0.3661537 1.0344550
-0.1394822 0.3668850 1.0343908
-0.1395375 0.3676116 1.0343242
-0.1395930 0.3683336 1.0342552
-0.1398186 0.3711213 1.0339695
-0.1398677 0.3717796 1.0338949
-0.1378940 0.3385254 1.0352694
-0.1379321 0.3392204 1.0352378
-0.1379633 0.3399183 1.0352055
-0.1384745 0.3615065 1.0343756
-0.1385106 0.3622104 1.0343240
-0.1385530 0.3629198 1.0342715
-0.1385963 0.3636303 1.0342187
-0.1386432 0.3643442 1.0341625
-0.1393138 0.3723608 1.0334112
-0.1393702 0.3730357 1.0333352
-0.1394243 0.3737032 1.0332579
-0.1388946 0.3743278 1.0327823
-0.1383721 0.3749365 1.0323130
-0.1384323 0.3756166 1.0322360
-0.1384882 0.3762959 1.0321573
-0.1385432 0.3769832 1.0320783
-0.1386001 0.3776817 1.0319994
-0.1387703 0.3798697 1.0317670
-0.1393507 0.3528283 1.0355299
-0.1393756 0.3535301 1.0355178
-0.1394072 0.3542381 1.0355080
-0.1394435 0.3549431 1.0354982
-0.1394845 0.3556411 1.0354879
-0.1395281 0.3563340 1.0354774
-0.1395783 0.3570285 1.0354673
-0.1396338 0.3577329 1.0354561
-0.1380697 0.3782495 1.0315367
-0.1381234 0.3789449 1.0314611
-0.1382374 0.3803665 1.0313205
-0.1382984 0.3810784 1.0312606
-0.1387629 0.3458674 1.0353939
-0.1387641 0.3466038 1.0353708
-0.1387666 0.3473401 1.0353492
-0.1387710 0.3480745 1.0353294
-0.1387777 0.3488042 1.0353116
-0.1387874 0.3495348 1.0352958
-0.1388002 0.3502634 1.0352809
-0.1388142 0.3509928 1.0352666
-0.1388286 0.3517224 1.0352508
-0.1390772 0.3582449 1.0350637
-0.1391228 0.3589690 1.0350367
-0.1398591 0.3692495 1.0342993
-0.1398955 0.3698593 1.0342293
-0.1399401 0.3704799 1.0341603
-0.1381442 0.3410493 1.0352450
-0.1381568 0.3417824 1.0352116
-0.1381685 0.3425132 1.0351803
-0.1381796 0.3432434 1.0351512
-0.1381867 0.3439765 1.0351229
-0.1381953 0.3447104 1.0350987
-0.1385376 0.3594953 1.0346109
-0.1385808 0.3602217 1.0345740
-0.1386276 0.3609555 1.0345346
-0.1389416 0.3654446 1.0342201
-0.1389958 0.3661827 1.0341562
-0.1390491 0.3669108 1.0340892
-0.1391027 0.3676303 1.0340216
-0.1391560 0.3683379 1.0339523
-0.1393557 0.3710218 1.0336643
-0.1394013 0.3716614 1.0335904
-0.1374079 0.3385146 1.0349706
-0.1374453 0.3392251 1.0349381
-0.1374754 0.3399341 1.0349072
-0.1380043 0.3614503 1.0340771
-0.1380487 0.3621701 1.0340289
-0.1380966 0.3628935 1.0339774
-0.1381463 0.3636205 1.0339232
-0.1381980 0.3643502 1.0338660
-0.1388371 0.3722365 1.0331034
-0.1388926 0.3728996 1.0330283
-0.1389438 0.3735597 1.0329496
-0.1383966 0.3741726 1.0324630
-0.1378668 0.3747802 1.0319881
-0.1379276 0.3754647 1.0319103
-0.1379855 0.3761523 1.0318323
-0.1380442 0.3768478 1.0317534
-0.1381028 0.3775518 1.0316752
-0.1375750 0.3781229 1.0312124
-0.1382164 0.3495771 1.0349564
-0.1382311 0.3502967 1.0349418
-0.1382486 0.3510168 1.0349286
-0.1382694 0.3517351 1.0349157
-0.1382925 0.3524534 1.0349001
-0.1383193 0.3531653 1.0348854
-0.1383477 0.3538753 1.0348703
-0.1383804 0.3545867 1.0348541
-0.1384153 0.3552945 1.0348378
-0.1384536 0.3559998 1.0348191
-0.1384953 0.3567031 1.0348001
-0.1385378 0.3574125 1.0347781
-0.1370374 0.3786930 1.0307468
-0.1370912 0.3793837 1.0306739
-0.1371488 0.3800828 1.0306062
-0.1372099 0.3807843 1.0305419
-0.1376665 0.3454969 1.0347568
-0.1376720 0.3462288 1.0347358
-0.1376817 0.3469615 1.0347185
-0.1376937 0.3476919 1.0347034
-0.1377081 0.3484214 1.0346900
-0.1379718 0.3579509 1.0343775
-0.1380153 0.3586687 1.0343479
-0.1370163 0.3406891 1.0345797
-0.1370319 0.3414103 1.0345512
-0.1370456 0.3421330 1.0345242
-0.1370586 0.3428585 1.0344995
-0.1370727 0.3435855 1.0344765
-0.1370887 0.3443129 1.0344575
-0.1374131 0.3592240 1.0339121
-0.1374569 0.3599370 1.0338724
-0.1375031 0.3606567 1.0338301
-0.1379896 0.3673080 1.0333147
-0.1380461 0.3680273 1.0332454
-0.1381032 0.3687425 1.0331739
-0.1381620 0.3694415 1.0331028
-0.1382177 0.3701257 1.0330303
-0.1362667 0.3381975 1.0342953
-0.1363040 0.3388931 1.0342662
-0.1363375 0.3395875 1.0342406
-0.1368735 0.3611687 1.0333650
-0.1369206 0.3618771 1.0333169
-0.1369693 0.3625870 1.0332666
-0.1370212 0.3633053 1.0332126
-0.1370747 0.3640278 1.0331556
-0.1371288 0.3647541 1.0330955
-0.1371837 0.3654831 1.0330335
-0.1372401 0.3662137 1.0329682
-0.1376176 0.3705988 1.0325383
-0.1376814 0.3713058 1.0324635
-0.1377419 0.3720015 1.0323867
-0.1371721 0.3725439 1.0318998
-0.1372415 0.3732509 1.0318245
-0.1373089 0.3739475 1.0317485
-0.1367747 0.3745308 1.0312810
-0.1368403 0.3752228 1.0312032
-0.1377157 0.3517435 1.0345816
-0.1377411 0.3524495 1.0345681
-0.1377712 0.3531460 1.0345535
-0.1378048 0.3538306 1.0345405
-0.1378442 0.3545250 1.0345270
-0.1378873 0.3552152 1.0345146
-0.1363214 0.3757897 1.0307544
-0.1363775 0.3764892 1.0306703
-0.1364328 0.3771815 1.0305889
-0.1364877 0.3778762 1.0305088
-0.1365437 0.3785685 1.0304321
-0.1366023 0.3792626 1.0303586
-0.1366615 0.3799639 1.0302907
-0.1371569 0.3491932 1.0343383
-0.1371710 0.3499156 1.0343223
-0.1371868 0.3506416 1.0343053
-0.1373496 0.3557089 1.0341526
-0.1373896 0.3564153 1.0341282
-0.1361108 0.3805238 1.0298325
-0.1361648 0.3812130 1.0297694
-0.1365597 0.3443761 1.0341391
-0.1365692 0.3451010 1.0341196
-0.1365814 0.3458285 1.0341036
-0.1365977 0.3465577 1.0340899
-0.1366141 0.3472842 1.0340766
-0.1366337 0.3480157 1.0340650
-0.1368135 0.3569725 1.0337230
-0.1368519 0.3576861 1.0336889
-0.1368935 0.3583960 1.0336555
-0.1355901 0.3817834 1.0293076
-0.1359239 0.3417382 1.0338701
-0.1359444 0.3424497 1.0338485
-0.1359632 0.3431717 1.0338304
-0.1362912 0.3589675 1.0332149
-0.1371645 0.3705470 1.0322346
-0.1372209 0.3712360 1.0321577
-0.1351553 0.3385445 1.0335907
-0.1351934 0.3392255 1.0335677
-0.1352302 0.3398991 1.0335475
-0.1352625 0.3405829 1.0335277
-0.1356558 0.3595672 1.0327462
-0.1356982 0.3602452 1.0327012
-0.1357407 0.3609215 1.0326545
-0.1357875 0.3615989 1.0326066
-0.1358384 0.3622944 1.0325576
-0.1358923 0.3629995 1.0325042
-0.1359470 0.3637104 1.0324487
-0.1360021 0.3644279 1.0323891
-0.1360575 0.3651512 1.0323264
-0.1361136 0.3658782 1.0322607
-0.1361724 0.3666090 1.0321926
-0.1362330 0.3673460 1.0321222
-0.1362960 0.3680841 1.0320506
-0.1363589 0.3688201 1.0319776
-0.1364273 0.3695615 1.0319031
-0.1366318 0.3717372 1.0316733
-0.1366976 0.3724432 1.0315952
-0.1367617 0.3731388 1.0315174
-0.1368213 0.3738261 1.0314366
-0.1362738 0.3743951 1.0309674
-0.1363361 0.3750899 1.0308872
-0.1371678 0.3517384 1.0342514
-0.1371972 0.3524286 1.0342383
-0.1372287 0.3531059 1.0342258
-0.1372633 0.3537692 1.0342134
-0.1373074 0.3544448 1.0342017
-0.1373546 0.3551205 1.0341921
-0.1358126 0.3756556 1.0304329
-0.1358714 0.3763566 1.0303501
-0.1359294 0.3770516 1.0302685
-0.1359860 0.3777433 1.0301882
-0.1360431 0.3784335 1.0301116
-0.1361015 0.3791262 1.0300393
-0.1361585 0.3798219 1.0299683
-0.1365981 0.3492388 1.0340041
-0.1366145 0.3499489 1.0339885
-0.1366341 0.3506598 1.0339730
-0.1368379 0.3556093 1.0338376
-0.1368845 0.3562969 1.0338185
-0.1356201 0.3803916 1.0295233
-0.1356802 0.3810729 1.0294631
-0.1360264 0.3444541 1.0338198
-0.1360287 0.3451754 1.0337968
-0.1360344 0.3458981 1.0337776
-0.1360435 0.3466236 1.0337599
-0.1360549 0.3473459 1.0337432
-0.1360688 0.3480703 1.0337284
-0.1363191 0.3568529 1.0334202
-0.1363659 0.3575577 1.0333896
-0.1364160 0.3582642 1.0333600
-0.1351247 0.3816528 1.0290106
-0.1354217 0.3418077 1.0335643
-0.1354330 0.3425236 1.0335396
-0.1354439 0.3432401 1.0335179
-0.1358191 0.3588442 1.0329231
-0.1367017 0.3705015 1.0319286
-0.1367546 0.3711778 1.0318506
-0.1346863 0.3385569 1.0333003
-0.1347198 0.3392531 1.0332760
-0.1347505 0.3399424 1.0332550
-0.1347753 0.3406354 1.0332321
-0.1352004 0.3594359 1.0324664
-0.1352473 0.3601210 1.0324244
-0.1352958 0.3608165 1.0323803
-0.1353474 0.3615232 1.0323341
-0.1354022 0.3622416 1.0322826
-0.1354570 0.3629686 1.0322279
-0.1355144 0.3637053 1.0321682
-0.1355727 0.3644430 1.0321053
-0.1356291 0.3651789 1.0320400
-0.1356865 0.3659132 1.0319724
-0.1357444 0.3666470 1.0319029
-0.1358026 0.3673778 1.0318305
-0.1358607 0.3681058 1.0317567
-0.1359189 0.3688313 1.0316814
-0.1359788 0.3695502 1.0316047
-0.1361613 0.3716680 1.0313681
-0.1362194 0.3723579 1.0312877
-0.1362754 0.3730380 1.0312071
-0.1363302 0.3737161 1.0311258
-0.1357768 0.3742753 1.0306515
-0.1358347 0.3749663 1.0305692
-0.1353036 0.3755335 1.0301114
-0.1353635 0.3762305 1.0300302
-0.1354215 0.3769230 1.0299506
-0.1354780 0.3776073 1.0298711
-0.1360625 0.3499780 1.0336585
-0.1360852 0.3506714 1.0336445
-0.1361099 0.3513732 1.0336305
-0.1361411 0.3520643 1.0336171
-0.1361726 0.3527519 1.0336022
-0.1362014 0.3534337 1.0335811
-0.1362371 0.3541191 1.0335623
-0.1362786 0.3548027 1.0335437
-0.1349538 0.3781947 1.0294228
-0.1350090 0.3788790 1.0293472
-0.1350660 0.3795631 1.0292773
-0.1354777 0.3452695 1.0334668
-0.1354820 0.3459816 1.0334477
-0.1354884 0.3466992 1.0334290
-0.1354991 0.3474147 1.0334122
-0.1355109 0.3481311 1.0333961
-0.1355240 0.3488456 1.0333804
-0.1357338 0.3553274 1.0331725
-0.1357774 0.3560199 1.0331460
-0.1358238 0.3567119 1.0331180
-0.1345309 0.3801573 1.0288318
-0.1345855 0.3808294 1.0287704
-0.1346442 0.3814978 1.0287147
-0.1352455 0.3573025 1.0327043
-0.1352942 0.3579975 1.0326708
-0.1343051 0.3414074 1.0329127
-0.1343255 0.3421086 1.0328963
-0.1343433 0.3428163 1.0328797
-0.1343613 0.3435284 1.0328651
-0.1346927 0.3586037 1.0322298
-0.1334673 0.3820620 1.0278764
-0.1336307 0.3395602 1.0326008
-0.1336649 0.3402322 1.0325869
-0.1340616 0.3592306 1.0317664
-0.1341125 0.3598951 1.0317246
-0.1341641 0.3605655 1.0316806
-0.1347359 0.3677697 1.0310581
-0.1347948 0.3684996 1.0309835
-0.1348561 0.3692287 1.0309061
-0.1349179 0.3699539 1.0308271
-0.1349815 0.3706751 1.0307466
-0.1350461 0.3713910 1.0306660
-0.1351089 0.3720998 1.0305852
-0.1351690 0.3727970 1.0305035
-0.1329741 0.3384781 1.0322599
-0.1335332 0.3611162 1.0312123
-0.1335828 0.3617558 1.0311622
-0.1336357 0.3624191 1.0311112
-0.1336898 0.3631007 1.0310549
-0.1337461 0.3637932 1.0309977
-0.1338036 0.3644971 1.0309364
-0.1338601 0.3652107 1.0308706
-0.1339178 0.3659278 1.0308024
-0.1339794 0.3666504 1.0307326
-0.1346068 0.3733040 1.0300408
-0.1346735 0.3740178 1.0299584
-0.1347371 0.3747246 1.0298761
-0.1347978 0.3754225 1.0297943
-0.1342695 0.3759808 1.0293494
-0.1343298 0.3766811 1.0292668
-0.1343879 0.3773719 1.0291855
-0.1349660 0.3488991 1.0330477
-0.1349825 0.3496039 1.0330320
-0.1350018 0.3503096 1.0330148
-0.1350229 0.3510225 1.0329959
-0.1350488 0.3517299 1.0329792
-0.1350752 0.3524359 1.0329583
-0.1351058 0.3531367 1.0329358
-0.1351407 0.3538319 1.0329127
-0.1351807 0.3545217 1.0328895
-0.1338652 0.3779711 1.0287439
-0.1339190 0.3786571 1.0286679
-0.1339731 0.3793332 1.0285946
-0.1344095 0.3462817 1.0328055
-0.1344253 0.3469971 1.0327920
-0.1344423 0.3477152 1.0327789
-0.1346155 0.3550810 1.0324987
-0.1346571 0.3557755 1.0324705
-0.1347046 0.3564628 1.0324424
-0.1334411 0.3799558 1.0281567
-0.1334904 0.3806232 1.0280884
-0.1337854 0.3414995 1.0326004
-0.1338003 0.3422033 1.0325817
-0.1338151 0.3429092 1.0325648
-0.1338321 0.3436137 1.0325509
-0.1338510 0.3443211 1.0325393
-0.1338736 0.3450367 1.0325293
-0.1341171 0.3570833 1.0320218
-0.1341650 0.3577680 1.0319859
-0.1329423 0.3812563 1.0276509
-0.1329925 0.3819075 1.0275980
-0.1331461 0.3396110 1.0323038
-0.1331720 0.3402984 1.0322868
-0.1335564 0.3584103 1.0315351
-0.1336069 0.3590793 1.0314955
-0.1336609 0.3597549 1.0314552
-0.1337189 0.3604466 1.0314125
-0.1324968 0.3385083 1.0319694
-0.1330947 0.3610038 1.0309460
-0.1331506 0.3616780 1.0308956
-0.1332084 0.3623729 1.0308414
-0.1332642 0.3630790 1.0307839
-0.1333197 0.3637948 1.0307219
-0.1333765 0.3645170 1.0306566
-0.1334319 0.3652394 1.0305895
-0.1334900 0.3659650 1.0305178
-0.1335496 0.3666932 1.0304450
-0.1336106 0.3674235 1.0303705
-0.1336713 0.3681553 1.0302929
-0.1337320 0.3688874 1.0302141
-0.1337951 0.3696224 1.0301355
-0.1338584 0.3703544 1.0300562
-0.1339220 0.3710829 1.0299758
-0.1339861 0.3718062 1.0298938
-0.1340499 0.3725240 1.0298110
-0.1341121 0.3732344 1.0297272
-0.1341728 0.3739386 1.0296423
-0.1342310 0.3746351 1.0295590
-0.1342851 0.3753158 1.0294757
-0.1337584 0.3758651 1.0290308
-0.1338149 0.3765555 1.0289501
-0.1338685 0.3772355 1.0288691
-0.1344095 0.3489490 1.0327158
-0.1344331 0.3496362 1.0327028
-0.1344570 0.3503199 1.0326879
-0.1344834 0.3510108 1.0326721
-0.1345132 0.3516988 1.0326551
-0.1345421 0.3523860 1.0326341
-0.1345751 0.3530599 1.0326153
-0.1346127 0.3537291 1.0325955
-0.1346566 0.3543964 1.0325754
-0.1333526 0.3778299 1.0284330
-0.1334061 0.3785061 1.0283582
-0.1334594 0.3791728 1.0282849
-0.1338475 0.3463701 1.0324727
-0.1338610 0.3470772 1.0324577
-0.1338763 0.3477872 1.0324434
-0.1341096 0.3549514 1.0321964
-0.1341561 0.3556299 1.0321720
-0.1342082 0.3563000 1.0321485
-0.1329388 0.3797995 1.0278541
-0.1329888 0.3804568 1.0277915
-0.1332640 0.3423077 1.0322600
-0.1332732 0.3430141 1.0322397
-0.1332854 0.3437164 1.0322238
-0.1333003 0.3444210 1.0322104
-0.1333173 0.3451311 1.0321982
-0.1336310 0.3569242 1.0317300
-0.1336857 0.3576070 1.0316984
-0.1324568 0.3810948 1.0273655
-0.1325070 0.3817418 1.0273102
-0.1330913 0.3582371 1.0312594
-0.1320064 0.3385484 1.0316748
-0.1320378 0.3392161 1.0316608
-0.1320690 0.3398853 1.0316470
-0.1321015 0.3405563 1.0316368
-0.1324828 0.3588797 1.0308077
-0.1325353 0.3595392 1.0307641
-0.1332177 0.3681898 1.0299957
-0.1332745 0.3689153 1.0299149
-0.1333305 0.3696367 1.0298325
-0.1333856 0.3703498 1.0297493
-0.1334430 0.3710654 1.0296643
-0.1335022 0.3717793 1.0295798
-0.1335607 0.3724844 1.0294948
-0.1336137 0.3731817 1.0294072
-0.1319286 0.3601318 1.0303149
-0.1319809 0.3607768 1.0302688
-0.1320326 0.3614312 1.0302182
-0.1323138 0.3648984 1.0299166
-0.1323696 0.3656168 1.0298457
-0.1324272 0.3663393 1.0297743
-0.1324856 0.3670655 1.0296995
-0.1330622 0.3736592 1.0289693
-0.1331230 0.3743684 1.0288851
-0.1331818 0.3750672 1.0287989
-0.1338783 0.3496606 1.0323734
-0.1339063 0.3503255 1.0323603
-0.1339361 0.3509919 1.0323452
-0.1339675 0.3516564 1.0323287
-0.1339994 0.3523153 1.0323114
-0.1340376 0.3529584 1.0322950
-0.1340788 0.3535931 1.0322796
-0.1314224 0.3619080 1.0297700
-0.1314787 0.3625401 1.0297193
-0.1315307 0.3631919 1.0296620
-0.1315892 0.3638601 1.0296043
-0.1326588 0.3756074 1.0283679
-0.1327206 0.3763159 1.0282850
-0.1327778 0.3770077 1.0282019
-0.1328295 0.3776819 1.0281211
-0.1328785 0.3783433 1.0280425
-0.1332931 0.3471651 1.0321207
-0.1333116 0.3478605 1.0321077
-0.1333309 0.3485591 1.0320941
-0.1335461 0.3541319 1.0319167
-0.1323697 0.3789717 1.0276231
-0.1324182 0.3796231 1.0275518
-0.1324675 0.3802682 1.0274872
-0.1327402 0.3445353 1.0318789
-0.1327565 0.3452355 1.0318668
-0.1327738 0.3459398 1.0318561
-0.1329907 0.3547209 1.0315311
-0.1330324 0.3554034 1.0314981
-0.1330807 0.3560735 1.0314674
-0.1319509 0.3809182 1.0270751
-0.1322041 0.3432727 1.0316049
-0.1325060 0.3567183 1.0310513
-0.1325577 0.3573855 1.0310158
-0.1314234 0.3815755 1.0266671
-0.1315899 0.3406444 1.0313330
-0.1316174 0.3413223 1.0313229
-0.1316462 0.3420102 1.0313172
-0.1319632 0.3580556 1.0305771
-0.1309402 0.3388166 1.0310243
-0.1309754 0.3394695 1.0310168
-0.1313759 0.3587158 1.0301388
-0.1314257 0.3593541 1.0300948
-0.1308276 0.3599602 1.0296492
-0.1308781 0.3605807 1.0296038
-0.1309285 0.3612065 1.0295561
-0.1313678 0.3667006 1.0290440
-0.1314293 0.3674276 1.0289696
-0.1314918 0.3681605 1.0288927
-0.1315540 0.3688975 1.0288126
-0.1316186 0.3696398 1.0287322
-0.1316878 0.3703918 1.0286536
-0.1317547 0.3711393 1.0285697
-0.1318200 0.3718800 1.0284861
-0.1318865 0.3726210 1.0284006
-0.1319520 0.3733548 1.0283142
-0.1320156 0.3740814 1.0282271
-0.1320776 0.3747997 1.0281408
-0.1321366 0.3755077 1.0280569
-0.1321928 0.3761996 1.0279725
-0.1322436 0.3768736 1.0278875
-0.1327956 0.3492962 1.0317499
-0.1328200 0.3499761 1.0317338
-0.1328474 0.3506564 1.0317182
-0.1328792 0.3513427 1.0316999
-0.1329095 0.3520207 1.0316772
-0.1303470 0.3616937 1.0291230
-0.1303996 0.3622982 1.0290738
-0.1304455 0.3629085 1.0290177
-0.1304949 0.3635521 1.0289583
-0.1305472 0.3642199 1.0288948
-0.1306026 0.3649029 1.0288293
-0.1306580 0.3655990 1.0287605
-0.1317396 0.3774785 1.0274715
-0.1317882 0.3781477 1.0273945
-0.1318345 0.3788024 1.0273188
-0.1322023 0.3460391 1.0315226
-0.1322198 0.3467378 1.0315110
-0.1322360 0.3474428 1.0314967
-0.1322530 0.3481552 1.0314802
-0.1323592 0.3525084 1.0313198
-0.1323923 0.3532142 1.0312911
-0.1324294 0.3539054 1.0312591
-0.1324713 0.3545781 1.0312289
-0.1325158 0.3552408 1.0311989
-0.1313298 0.3794544 1.0269087
-0.1313765 0.3800949 1.0268430
-0.1314231 0.3807314 1.0267820
-0.1316460 0.3433868 1.0312758
-0.1316646 0.3440822 1.0312670
-0.1316842 0.3447826 1.0312583
-0.1319543 0.3558796 1.0307978
-0.1309122 0.3813982 1.0263795
-0.1310598 0.3407515 1.0310163
-0.1310833 0.3414314 1.0310080
-0.1311080 0.3421169 1.0309999
-0.1313818 0.3565613 1.0303787
-0.1314296 0.3572191 1.0303390
-0.1314816 0.3578779 1.0302984
-0.1304410 0.3388776 1.0307290
-0.1304731 0.3395406 1.0307195
-0.1309051 0.3585491 1.0298681
-0.1309537 0.3591964 1.0298210
-0.1303745 0.3598195 1.0293847
-0.1304216 0.3604532 1.0293354
-0.1304724 0.3611021 1.0292826
-0.1309065 0.3667395 1.0287457
-0.1309626 0.3674630 1.0286682
-0.1310197 0.3681918 1.0285883
-0.1310772 0.3689226 1.0285062
-0.1311357 0.3696554 1.0284241
-0.1311962 0.3703909 1.0283414
-0.1312565 0.3711263 1.0282569
-0.1313169 0.3718567 1.0281716
-0.1313778 0.3725834 1.0280850
-0.1314385 0.3733044 1.0279975
-0.1314985 0.3740175 1.0279105
-0.1315566 0.3747194 1.0278247
-0.1316093 0.3754077 1.0277399
-0.1316580 0.3760808 1.0276577
-0.1317035 0.3767371 1.0275742
-0.1322343 0.3493211 1.0314210
-0.1322591 0.3499824 1.0314051
-0.1322913 0.3506304 1.0313930
-0.1323278 0.3512961 1.0313764
-0.1323593 0.3519479 1.0313563
-0.1299088 0.3616128 1.0288619
-0.1299576 0.3622391 1.0288060
-0.1300061 0.3628831 1.0287459
-0.1300560 0.3635461 1.0286827
-0.1301078 0.3642283 1.0286160
-0.1301625 0.3649212 1.0285479
-0.1302157 0.3656262 1.0284756
-0.1312036 0.3773306 1.0271651
-0.1312504 0.3779839 1.0270878
-0.1312955 0.3786270 1.0270128
-0.1316364 0.3461354 1.0311913
-0.1316542 0.3468234 1.0311802
-0.1316700 0.3475152 1.0311657
-0.1316887 0.3482146 1.0311496
-0.1318286 0.3524285 1.0310068
-0.1318667 0.3531050 1.0309819
-0.1319018 0.3537700 1.0309524
-0.1319434 0.3544226 1.0309223
-0.1319890 0.3550705 1.0308918
-0.1308015 0.3792757 1.0266122
-0.1308501 0.3799071 1.0265499
-0.1308992 0.3805386 1.0264885
-0.1311002 0.3441980 1.0309378
-0.1311163 0.3448914 1.0309276
-0.1314444 0.3556983 1.0305015
-0.1303886 0.3812218 1.0260933
-0.1305362 0.3415463 1.0306880
-0.1305532 0.3422318 1.0306778
-0.1305724 0.3429211 1.0306707
-0.1308803 0.3563765 1.0300919
-0.1309286 0.3570315 1.0300533
-0.1299831 0.3402948 1.0304088
-0.1303653 0.3577216 1.0296338
-0.1293641 0.3384596 1.0301120
-0.1293992 0.3391040 1.0301085
-0.1298117 0.3584008 1.0292153
-0.1298562 0.3590354 1.0291649
-0.1305867 0.3689581 1.0281879
-0.1306406 0.3696836 1.0281042
-0.1306937 0.3704057 1.0280189
-0.1307486 0.3711276 1.0279335
-0.1308043 0.3718476 1.0278472
-0.1308581 0.3725600 1.0277613
-0.1309144 0.3732664 1.0276733
-0.1309686 0.3739622 1.0275866
-0.1310190 0.3746436 1.0275009
-0.1293035 0.3596662 1.0287506
-0.1298121 0.3663608 1.0281163
-0.1298650 0.3670807 1.0280383
-0.1299187 0.3678044 1.0279589
-0.1305087 0.3751537 1.0270991
-0.1305636 0.3758487 1.0270150
-0.1306148 0.3765219 1.0269324
-0.1310837 0.3469061 1.0308474
-0.1311024 0.3475825 1.0308339
-0.1311255 0.3482662 1.0308207
-0.1311523 0.3489446 1.0308078
-0.1311745 0.3496277 1.0307892
-0.1311993 0.3503074 1.0307681
-0.1312276 0.3509929 1.0307433
-0.1312553 0.3516698 1.0307176
-0.1312851 0.3523321 1.0306913
-0.1313218 0.3529786 1.0306676
-0.1313562 0.3536167 1.0306373
-0.1287827 0.3602615 1.0283600
-0.1288242 0.3608386 1.0283093
-0.1288618 0.3614238 1.0282531
-0.1289074 0.3620095 1.0281996
-0.1289499 0.3626211 1.0281393
-0.1289992 0.3632473 1.0280792
-0.1290497 0.3638914 1.0280161
-0.1291065 0.3645604 1.0279519
-0.1291631 0.3652423 1.0278874
-0.1301135 0.3771401 1.0265332
-0.1301652 0.3778082 1.0264568
-0.1302155 0.3784550 1.0263857
-0.1302655 0.3790901 1.0263207
-0.1303153 0.3797146 1.0262592
-0.1305617 0.3456946 1.0305858
-0.1308264 0.3542157 1.0302678
-0.1308679 0.3548644 1.0302343
-0.1298087 0.3804019 1.0258661
-0.1300099 0.3430450 1.0303431
-0.1300273 0.3437327 1.0303355
-0.1300428 0.3444271 1.0303275
-0.1303190 0.3555353 1.0298402
-0.1293002 0.3810853 1.0254791
-0.1293461 0.3817103 1.0254243
-0.1294708 0.3410781 1.0300874
-0.1294924 0.3417567 1.0300793
-0.1297703 0.3562335 1.0294386
-0.1298148 0.3568841 1.0293938
-0.1288569 0.3385223 1.0298168
-0.1288893 0.3391779 1.0298125
-0.1289273 0.3398366 1.0298130
-0.1292694 0.3575897 1.0289864
-0.1287366 0.3582821 1.0285841
-0.1287775 0.3589007 1.0285318
-0.1296955 0.3714984 1.0272241
-0.1297505 0.3722275 1.0271363
-0.1298043 0.3729530 1.0270486
-0.1298588 0.3736688 1.0269606
-0.1299118 0.3743745 1.0268717
-0.1299610 0.3750651 1.0267858
-0.1300062 0.3757360 1.0267020
-0.1305638 0.3483108 1.0304950
-0.1305964 0.3489714 1.0304847
-0.1306232 0.3496304 1.0304683
-0.1306538 0.3502763 1.0304522
-0.1306801 0.3509378 1.0304277
-0.1307081 0.3515849 1.0304027
-0.1282597 0.3595435 1.0281345
-0.1283052 0.3601228 1.0280858
-0.1283467 0.3607190 1.0280314
-0.1283842 0.3613187 1.0279728
-0.1287279 0.3659673 1.0275143
-0.1287845 0.3666744 1.0274417
-0.1288413 0.3673936 1.0273666
-0.1289009 0.3681236 1.0272903
-0.1289616 0.3688640 1.0272095
-0.1290213 0.3696090 1.0271271
-0.1290852 0.3703585 1.0270439
-0.1295213 0.3763192 1.0263154
-0.1295692 0.3769922 1.0262348
-0.1296153 0.3776420 1.0261595
-0.1296615 0.3782763 1.0260900
-0.1300053 0.3464806 1.0302455
-0.1300221 0.3471716 1.0302328
-0.1301791 0.3520849 1.0300622
-0.1302111 0.3527586 1.0300301
-0.1302470 0.3534095 1.0299969
-0.1279108 0.3617731 1.0276202
-0.1279434 0.3623357 1.0275603
-0.1279940 0.3629341 1.0275052
-0.1280399 0.3635608 1.0274427
-0.1280836 0.3641995 1.0273750
-0.1281336 0.3648638 1.0273081
-0.1291714 0.3789541 1.0257001
-0.1292204 0.3795829 1.0256380
-0.1294386 0.3431669 1.0300159
-0.1294555 0.3438522 1.0300095
-0.1294713 0.3445404 1.0300018
-0.1294865 0.3452405 1.0299912
-0.1297084 0.3540436 1.0296220
-0.1297473 0.3547025 1.0295817
-0.1297898 0.3553523 1.0295408
-0.1287184 0.3802790 1.0252517
-0.1289078 0.3411960 1.0297628
-0.1289271 0.3418778 1.0297575
-0.1292489 0.3560503 1.0291483
-0.1292895 0.3566946 1.0291007
-0.1282132 0.3809733 1.0248716
-0.1282593 0.3815833 1.0248220
-0.1283254 0.3385993 1.0295095
-0.1283498 0.3392667 1.0295033
-0.1283767 0.3399380 1.0295002
-0.1287563 0.3574047 1.0287004
-0.1277500 0.3822357 1.0244663
-0.1282371 0.3581073 1.0283049
-0.1282784 0.3587328 1.0282510
-0.1291498 0.3715025 1.0268942
-0.1292015 0.3722167 1.0268069
-0.1292529 0.3729228 1.0267207
-0.1293025 0.3736207 1.0266342
-0.1293504 0.3743064 1.0265462
-0.1293970 0.3749754 1.0264619
-0.1294388 0.3756224 1.0263796
-0.1300006 0.3483423 1.0301739
-0.1300341 0.3489898 1.0301647
-0.1300619 0.3496318 1.0301490
-0.1300929 0.3502518 1.0301343
-0.1301208 0.3508875 1.0301109
-0.1301510 0.3515065 1.0300876
-0.1277787 0.3593891 1.0278666
-0.1278228 0.3599901 1.0278130
-0.1278621 0.3606032 1.0277530
-0.1279033 0.3612301 1.0276913
-0.1282288 0.3660096 1.0271985
-0.1282835 0.3667198 1.0271239
-0.1283385 0.3674385 1.0270482
-0.1283965 0.3681650 1.0269712
-0.1284529 0.3688987 1.0268904
-0.1285085 0.3696340 1.0268076
-0.1285671 0.3703714 1.0267255
-0.1289670 0.3761901 1.0260081
-0.1290131 0.3768426 1.0259308
-0.1290597 0.3774755 1.0258597
-0.1291094 0.3780951 1.0257936
-0.1294351 0.3465569 1.0299227
-0.1294553 0.3472343 1.0299098
-0.1296316 0.3519873 1.0297500
-0.1296683 0.3526323 1.0297226
-0.1297073 0.3532603 1.0296921
-0.1274145 0.3617152 1.0273350
-0.1274516 0.3623033 1.0272745
-0.1275030 0.3629205 1.0272154
-0.1275471 0.3635608 1.0271490
-0.1275928 0.3642150 1.0270804
-0.1276431 0.3648856 1.0270115
-0.1286298 0.3787686 1.0254117
-0.1286817 0.3793899 1.0253524
-0.1288806 0.3439704 1.0296825
-0.1288963 0.3446523 1.0296754
-0.1289143 0.3453407 1.0296645
-0.1291717 0.3538863 1.0293207
-0.1292098 0.3545283 1.0292808
-0.1292532 0.3551682 1.0292426
-0.1281785 0.3800944 1.0249700
-0.1283727 0.3426855 1.0294286
-0.1276758 0.3807951 1.0246012
-0.1277256 0.3814117 1.0245502
-0.1278225 0.3400447 1.0291848
-0.1278452 0.3407201 1.0291828
-0.1278676 0.3413947 1.0291771
-0.1281498 0.3559248 1.0285108
-0.1281920 0.3565750 1.0284609
-0.1282307 0.3572151 1.0284087
-0.1272148 0.3820693 1.0241926
-0.1272778 0.3381594 1.0289285
-0.1273147 0.3388027 1.0289306
-0.1271940 0.3580020 1.0277029
-0.1272351 0.3586180 1.0276483
-0.1272726 0.3592301 1.0275899
-0.1277560 0.3667802 1.0267935
-0.1278102 0.3674975 1.0267169
-0.1278643 0.3682170 1.0266387
-0.1279179 0.3689416 1.0265579
-0.1279709 0.3696682 1.0264759
-0.1280249 0.3703965 1.0263925
-0.1280758 0.3711314 1.0263041
-0.1281253 0.3718611 1.0262163
-0.1281731 0.3725886 1.0261261
-0.1282207 0.3733095 1.0260363
-0.1282662 0.3740246 1.0259483
-0.1283125 0.3747218 1.0258621
-0.1283581 0.3753999 1.0257796
-0.1284041 0.3760546 1.0257012
-0.1284505 0.3766864 1.0256289
-0.1285007 0.3773032 1.0255609
-0.1289174 0.3479554 1.0295754
-0.1289432 0.3486307 1.0295592
-0.1289673 0.3492972 1.0295398
-0.1289966 0.3499527 1.0295211
-0.1290235 0.3506007 1.0294978
-0.1290532 0.3512478 1.0294695
-0.1268055 0.3598538 1.0272318
-0.1268416 0.3604405 1.0271737
-0.1268756 0.3610420 1.0271114
-0.1269148 0.3616566 1.0270476
-0.1269479 0.3622726 1.0269803
-0.1269896 0.3629161 1.0269118
-0.1270336 0.3635695 1.0268437
-0.1270830 0.3642382 1.0267755
-0.1271366 0.3649202 1.0267070
-0.1271883 0.3656090 1.0266359
-0.1280265 0.3779567 1.0251908
-0.1280819 0.3785810 1.0251302
-0.1281400 0.3791974 1.0250740
-0.1283389 0.3454375 1.0293398
-0.1283568 0.3461260 1.0293288
-0.1283740 0.3468148 1.0293156
-0.1285218 0.3517615 1.0291236
-0.1285540 0.3524349 1.0290895
-0.1285874 0.3530859 1.0290528
-0.1286213 0.3537169 1.0290156
-0.1286548 0.3543423 1.0289735
-0.1278103 0.3434910 1.0291000
-0.1278263 0.3441802 1.0290916
-0.1281293 0.3550356 1.0285954
-0.1270866 0.3799957 1.0243821
-0.1272780 0.3408326 1.0288624
-0.1272981 0.3415128 1.0288595
-0.1273155 0.3421958 1.0288538
-0.1276124 0.3557455 1.0282200
-0.1276478 0.3563891 1.0281657
-0.1265809 0.3807087 1.0240144
-0.1266339 0.3813049 1.0239697
-0.1271504 0.3571147 1.0277878
-0.1261248 0.3819630 1.0236234
-0.1262932 0.3383372 1.0283741
-0.1263285 0.3389792 1.0283779
-0.1266706 0.3578262 1.0274201
-0.1267049 0.3584486 1.0273603
-0.1275003 0.3711436 1.0259696
-0.1275493 0.3718602 1.0258825
-0.1275975 0.3725699 1.0257945
-0.1276451 0.3732732 1.0257096
-0.1276896 0.3739641 1.0256258
-0.1277351 0.3746351 1.0255441
-0.1277830 0.3752858 1.0254667
-0.1262494 0.3591207 1.0270055
-0.1262843 0.3597121 1.0269470
-0.1263175 0.3603163 1.0268844
-0.1263490 0.3609389 1.0268162
-0.1265503 0.3642549 1.0264609
-0.1266009 0.3649509 1.0263879
-0.1266510 0.3656517 1.0263150
-0.1267044 0.3663559 1.0262417
-0.1267612 0.3670655 1.0261688
-0.1268191 0.3677828 1.0260944
-0.1268745 0.3685094 1.0260161
-0.1269295 0.3692413 1.0259348
-0.1269824 0.3699779 1.0258529
-0.1273145 0.3758707 1.0251123
-0.1273628 0.3765227 1.0250367
-0.1274132 0.3771531 1.0249677
-0.1274673 0.3777674 1.0249063
-0.1277811 0.3462010 1.0290115
-0.1277993 0.3468802 1.0289991
-0.1278206 0.3475643 1.0289836
-0.1278423 0.3482584 1.0289631
-0.1278652 0.3489512 1.0289401
-0.1278905 0.3496348 1.0289161
-0.1279163 0.3503229 1.0288874
-0.1279427 0.3510071 1.0288532
-0.1279707 0.3516679 1.0288208
-0.1279981 0.3523152 1.0287835
-0.1280260 0.3529442 1.0287434
-0.1259378 0.3614404 1.0265070
-0.1259621 0.3620214 1.0264383
-0.1259929 0.3626162 1.0263719
-0.1260330 0.3632409 1.0263056
-0.1272266 0.3436034 1.0287787
-0.1272434 0.3442897 1.0287725
-0.1272589 0.3449811 1.0287619
-0.1275083 0.3535812 1.0283881
-0.1275361 0.3542230 1.0283401
-0.1275647 0.3548551 1.0282908
-0.1264385 0.3785648 1.0242251
-0.1264897 0.3791918 1.0241655
-0.1265422 0.3798131 1.0241126
-0.1266925 0.3409485 1.0285402
-0.1267150 0.3416297 1.0285395
-0.1267336 0.3423141 1.0285350
-0.1270600 0.3555677 1.0279193
-0.1270873 0.3562028 1.0278614
-0.1265979 0.3569323 1.0274917
-0.1254936 0.3806530 1.0234493
-0.1255498 0.3812285 1.0234080
-0.1256045 0.3818030 1.0233669
-0.1257262 0.3384253 1.0280629
-0.1257569 0.3390791 1.0280653
-0.1261206 0.3576451 1.0271251
-0.1261547 0.3582763 1.0270631
-0.1269188 0.3711516 1.0256339
-0.1269680 0.3718525 1.0255514
-0.1270169 0.3725424 1.0254699
-0.1270670 0.3732252 1.0253913
-0.1271132 0.3738937 1.0253122
-0.1271591 0.3745382 1.0252350
-0.1272078 0.3751646 1.0251626
-0.1251265 0.3824110 1.0230561
-0.1257040 0.3589560 1.0267121
-0.1257365 0.3595640 1.0266496
-0.1257681 0.3601844 1.0265832
-0.1257978 0.3608279 1.0265114
-0.1259915 0.3642720 1.0261318
-0.1260374 0.3649819 1.0260548
-0.1260872 0.3656909 1.0259796
-0.1261395 0.3664014 1.0259038
-0.1261931 0.3671136 1.0258292
-0.1262477 0.3678300 1.0257532
-0.1263003 0.3685525 1.0256756
-0.1263523 0.3692782 1.0255958
-0.1264015 0.3700075 1.0255143
-0.1267485 0.3757365 1.0248180
-0.1267956 0.3763670 1.0247460
-0.1268464 0.3769786 1.0246807
-0.1269024 0.3775793 1.0246226
-0.1272208 0.3462631 1.0287023
-0.1272395 0.3469310 1.0286880
-0.1272617 0.3476033 1.0286735
-0.1272841 0.3482862 1.0286542
-0.1273119 0.3489586 1.0286344
-0.1273409 0.3496226 1.0286117
-0.1273689 0.3502823 1.0285847
-0.1273945 0.3509373 1.0285501
-0.1274226 0.3515716 1.0285167
-0.1274493 0.3521951 1.0284817
-0.1274755 0.3528045 1.0284424
-0.1253922 0.3613509 1.0262014
-0.1254209 0.3619563 1.0261317
-0.1254564 0.3625788 1.0260645
-0.1254953 0.3632237 1.0259948
-0.1266810 0.3450695 1.0284464
-0.1269557 0.3534300 1.0280879
-0.1269847 0.3540598 1.0280391
-0.1258848 0.3783882 1.0239523
-0.1259379 0.3790095 1.0238967
-0.1259920 0.3796274 1.0238422
-0.1261476 0.3424247 1.0282190
-0.1261625 0.3431164 1.0282125
-0.1261721 0.3438110 1.0282037
-0.1264702 0.3547511 1.0276742
-0.1265020 0.3553906 1.0276187
-0.1265273 0.3560221 1.0275583
-0.1256515 0.3404508 1.0279856
-0.1256692 0.3411354 1.0279827
-0.1249566 0.3804726 1.0231886
-0.1250146 0.3810560 1.0231467
-0.1250667 0.3816434 1.0231076
-0.1251569 0.3385136 1.0277583
-0.1251837 0.3391770 1.0277607
-0.1255313 0.3568311 1.0268914
-0.1255643 0.3574684 1.0268289
-0.1255937 0.3581078 1.0267622
-0.1264309 0.3725114 1.0251399
-0.1264855 0.3731730 1.0250694
-0.1266274 0.3750361 1.0248565
-0.1245936 0.3822600 1.0227999
-0.1251514 0.3587995 1.0264160
-0.1251808 0.3594235 1.0263476
-0.1252065 0.3600634 1.0262731
-0.1255519 0.3664472 1.0255590
-0.1256069 0.3671625 1.0254853
-0.1256626 0.3678788 1.0254106
-0.1257162 0.3685983 1.0253330
-0.1257682 0.3693193 1.0252530
-0.1258180 0.3700401 1.0251713
-0.1258648 0.3707636 1.0250868
-0.1259080 0.3714875 1.0250016
-0.1260375 0.3736232 1.0247431
-0.1260839 0.3743023 1.0246648
-0.1261784 0.3755916 1.0245213
-0.1262199 0.3762019 1.0244526
-0.1262720 0.3767981 1.0243905
-0.1247965 0.3606482 1.0259553
-0.1248282 0.3612705 1.0258861
-0.1248599 0.3619018 1.0258143
-0.1248988 0.3625499 1.0257449
-0.1249415 0.3632126 1.0256748
-0.1249858 0.3638871 1.0256034
-0.1250306 0.3645757 1.0255304
-0.1250769 0.3652730 1.0254566
-0.1257985 0.3774874 1.0240330
-0.1267095 0.3476240 1.0283673
-0.1267372 0.3482979 1.0283500
-0.1267666 0.3489576 1.0283295
-0.1267982 0.3496037 1.0283092
-0.1268236 0.3502381 1.0282830
-0.1261251 0.3458321 1.0281259
-0.1261393 0.3465202 1.0281108
-0.1262762 0.3506851 1.0279491
-0.1263060 0.3513628 1.0279110
-0.1263341 0.3520159 1.0278719
-0.1263653 0.3526574 1.0278280
-0.1253235 0.3782068 1.0236786
-0.1253747 0.3788250 1.0236217
-0.1255557 0.3425299 1.0279017
-0.1255753 0.3432228 1.0278982
-0.1255875 0.3439149 1.0278903
-0.1255959 0.3446112 1.0278792
-0.1258432 0.3532860 1.0274755
-0.1258747 0.3539396 1.0274249
-0.1259027 0.3545800 1.0273704
-0.1248982 0.3795663 1.0232775
-0.1254100 0.3552883 1.0270126
-0.1254398 0.3559320 1.0269515
-0.1244239 0.3802987 1.0229347
-0.1244729 0.3808909 1.0228900
-0.1246087 0.3392748 1.0274506
-0.1246314 0.3399540 1.0274504
-0.1246456 0.3406384 1.0274487
-0.1249658 0.3566569 1.0265928
-0.1240172 0.3815565 1.0225817
-0.1240631 0.3821241 1.0225429
-0.1241673 0.3380227 1.0272403
-0.1245119 0.3573845 1.0262435
-0.1245444 0.3580131 1.0261785
-0.1245770 0.3586423 1.0261104
-0.1250667 0.3679211 1.0250650
-0.1251197 0.3686389 1.0249896
-0.1251720 0.3693561 1.0249108
