0.0015368 0.3540540 0.9124842
0.0015419 0.3547028 0.9124569
0.0015472 0.3553552 0.9124313
0.0015524 0.3560052 0.9124066
0.0015572 0.3566557 0.9123818
0.0015624 0.3573078 0.9123586
0.0015703 0.3579642 0.9123370
0.0015731 0.3586175 0.9123148
0.0015776 0.3592708 0.9122934
0.0015833 0.3599252 0.9122728
0.0015908 0.3605826 0.9122531
0.0016017 0.3612408 0.9122345
0.0016130 0.3618966 0.9122154
0.0016268 0.3625523 0.9121972
0.0016442 0.3453009 0.9131624
0.0016536 0.3459325 0.9130959
0.0016626 0.3465621 0.9130347
0.0016747 0.3471913 0.9129753
0.0016906 0.3478248 0.9129198
0.0017142 0.3484701 0.9128691
0.0015048 0.3359964 0.9146365
0.0015344 0.3365917 0.9145199
0.0015727 0.3372169 0.9144008
0.0016107 0.3378527 0.9142848
0.0016447 0.3384934 0.9141696
0.0016743 0.3391349 0.9140606
0.0017011 0.3397757 0.9139564
0.0017254 0.3404160 0.9138550
0.0017470 0.3410533 0.9137557
0.0017652 0.3416860 0.9136601
0.0017780 0.3423179 0.9135703
0.0017904 0.3429458 0.9134844
0.0017997 0.3435707 0.9134030
0.0018079 0.3441951 0.9133258
0.0018157 0.3448182 0.9132528
0.0020989 0.3502058 0.9128299
0.0020972 0.3508358 0.9127892
0.0020973 0.3514714 0.9127500
0.0020999 0.3521110 0.9127149
0.0021032 0.3527530 0.9126817
0.0021071 0.3533960 0.9126514
0.0021115 0.3540413 0.9126230
0.0021152 0.3546879 0.9125964
0.0021201 0.3553406 0.9125708
0.0021279 0.3559950 0.9125469
0.0021347 0.3566501 0.9125239
0.0021434 0.3573072 0.9125012
0.0021557 0.3579708 0.9124803
0.0021614 0.3586272 0.9124586
0.0021691 0.3592843 0.9124379
0.0021796 0.3599422 0.9124181
0.0021929 0.3606032 0.9123989
0.0022102 0.3612635 0.9123802
0.0022263 0.3619176 0.9123617
0.0022447 0.3625689 0.9123435
0.0022773 0.3453302 0.9132878
0.0022840 0.3459629 0.9132232
0.0022888 0.3465938 0.9131620
0.0022962 0.3472265 0.9131040
0.0023071 0.3478627 0.9130500
0.0023244 0.3485092 0.9130019
0.0023443 0.3491616 0.9129575
0.0023744 0.3498217 0.9129187
0.0021403 0.3359985 0.9147356
0.0021567 0.3365913 0.9146183
0.0021876 0.3372166 0.9144992
0.0022209 0.3378458 0.9143852
0.0022557 0.3384861 0.9142712
0.0022869 0.3391287 0.9141627
0.0023175 0.3397750 0.9140610
0.0023440 0.3404192 0.9139619
0.0023677 0.3410596 0.9138643
0.0023870 0.3416945 0.9137713
0.0024011 0.3423268 0.9136844
0.0024120 0.3429574 0.9135999
0.0024199 0.3435861 0.9135202
0.0024259 0.3442148 0.9134445
0.0024307 0.3448438 0.9133728
0.0027967 0.3606364 0.9125440
0.0028196 0.3612973 0.9125258
0.0028387 0.3619471 0.9125070
0.0028606 0.3625916 0.9124884
0.0029158 0.3453601 0.9134179
0.0029201 0.3459922 0.9133548
0.0029214 0.3466227 0.9132926
0.0029234 0.3472571 0.9132383
0.0029289 0.3478950 0.9131851
0.0029396 0.3485407 0.9131376
0.0029531 0.3491911 0.9130927
0.0029758 0.3498494 0.9130545
0.0029995 0.3505109 0.9130180
0.0030224 0.3511696 0.9129854
0.0030407 0.3518317 0.9129546
0.0030557 0.3524924 0.9129255
0.0030689 0.3531526 0.9128991
0.0030812 0.3538116 0.9128725
0.0030884 0.3544666 0.9128458
0.0030962 0.3551216 0.9128200
0.0031009 0.3557706 0.9127954
0.0031045 0.3564170 0.9127717
0.0031056 0.3570631 0.9127483
0.0031070 0.3576994 0.9127253
0.0031117 0.3583477 0.9127018
0.0031164 0.3589942 0.9126795
0.0031209 0.3596390 0.9126577
0.0031249 0.3602802 0.9126355
0.0029395 0.3397847 0.9141679
0.0029676 0.3404331 0.9140703
0.0029923 0.3410766 0.9139742
0.0030118 0.3417123 0.9138840
0.0030264 0.3423446 0.9137988
0.0030364 0.3429751 0.9137172
0.0030426 0.3436036 0.9136393
0.0030455 0.3442352 0.9135654
0.0030474 0.3448681 0.9134953
0.0030380 0.3361906 0.9148334
0.0030751 0.3368351 0.9147146
0.0031221 0.3375049 0.9145952
0.0031500 0.3381491 0.9144816
0.0031720 0.3387872 0.9143737
0.0031828 0.3394072 0.9142712
0.0033946 0.3606757 0.9126866
0.0034204 0.3613363 0.9126680
0.0034446 0.3619860 0.9126487
0.0034728 0.3626264 0.9126298
0.0035580 0.3453906 0.9135502
0.0035601 0.3460205 0.9134891
0.0035588 0.3466491 0.9134283
0.0035566 0.3472827 0.9133755
0.0035575 0.3479202 0.9133242
0.0035621 0.3485646 0.9132780
0.0035699 0.3492132 0.9132330
0.0035851 0.3498686 0.9131952
0.0036018 0.3505265 0.9131594
0.0036171 0.3511818 0.9131267
0.0036306 0.3518391 0.9130966
0.0036415 0.3524948 0.9130679
0.0036508 0.3531500 0.9130414
0.0036586 0.3538035 0.9130149
0.0036645 0.3544559 0.9129891
0.0036709 0.3551082 0.9129639
0.0036762 0.3557574 0.9129392
0.0036811 0.3564060 0.9129154
0.0036862 0.3570557 0.9128931
0.0036936 0.3576990 0.9128709
0.0037010 0.3583479 0.9128470
0.0037090 0.3589951 0.9128250
0.0037176 0.3596408 0.9128032
0.0037269 0.3602819 0.9127812
0.0035662 0.3398016 0.9142689
0.0035959 0.3404546 0.9141773
0.0036216 0.3411014 0.9140834
0.0036420 0.3417379 0.9139970
0.0036560 0.3423692 0.9139148
0.0036655 0.3429979 0.9138361
0.0036706 0.3436255 0.9137612
0.0036708 0.3442561 0.9136894
0.0036685 0.3448898 0.9136214
0.0036612 0.3362021 0.9149245
0.0036927 0.3368454 0.9148086
0.0037338 0.3375039 0.9146940
0.0037619 0.3381462 0.9145831
0.0037847 0.3387827 0.9144781
0.0037973 0.3394060 0.9143760
0.0040444 0.3620388 0.9127887
0.0040801 0.3626712 0.9127703
0.0041894 0.3447978 0.9137399
0.0041956 0.3454204 0.9136815
0.0041983 0.3460443 0.9136234
0.0041967 0.3466707 0.9135664
0.0041925 0.3473027 0.9135163
0.0041906 0.3479392 0.9134669
0.0041912 0.3485812 0.9134225
0.0041945 0.3492289 0.9133784
0.0042026 0.3498796 0.9133413
0.0042120 0.3505324 0.9133064
0.0042217 0.3511839 0.9132734
0.0042297 0.3518354 0.9132425
0.0042364 0.3524866 0.9132140
0.0042412 0.3531374 0.9131871
0.0042450 0.3537870 0.9131611
0.0042487 0.3544376 0.9131352
0.0042518 0.3550895 0.9131105
0.0042551 0.3557437 0.9130855
0.0042591 0.3564002 0.9130615
0.0042669 0.3570550 0.9130391
0.0042794 0.3577103 0.9130167
0.0042881 0.3583609 0.9129920
0.0042979 0.3590110 0.9129695
0.0043110 0.3596572 0.9129474
0.0043259 0.3602980 0.9129254
0.0043420 0.3609299 0.9129040
0.0043581 0.3615483 0.9128818
0.0042485 0.3411343 0.9141923
0.0042701 0.3417693 0.9141080
0.0042860 0.3423993 0.9140305
0.0042971 0.3430251 0.9139558
0.0043025 0.3436498 0.9138849
0.0043025 0.3442778 0.9138167
0.0042870 0.3362089 0.9150159
0.0043137 0.3368535 0.9149010
0.0043470 0.3375037 0.9147908
0.0043747 0.3381447 0.9146830
0.0043984 0.3387807 0.9145793
0.0044150 0.3394083 0.9144803
0.0044297 0.3400319 0.9143821
0.0044416 0.3406483 0.9142916
0.0046856 0.3627248 0.9129101
0.0048314 0.3448356 0.9138716
0.0048383 0.3454508 0.9138166
0.0048412 0.3460672 0.9137629
0.0048387 0.3466901 0.9137082
0.0048322 0.3473189 0.9136610
0.0048277 0.3479528 0.9136148
0.0048259 0.3485907 0.9135720
0.0048264 0.3492367 0.9135289
0.0048299 0.3498816 0.9134927
0.0048332 0.3505279 0.9134570
0.0048381 0.3511742 0.9134243
0.0048410 0.3518194 0.9133946
0.0048431 0.3524664 0.9133658
0.0049213 0.3603276 0.9130738
0.0049422 0.3609573 0.9130495
0.0049627 0.3615703 0.9130259
0.0049838 0.3621619 0.9130044
0.0049050 0.3418083 0.9142187
0.0049203 0.3424353 0.9141437
0.0049312 0.3430567 0.9140745
0.0049357 0.3436774 0.9140082
0.0049344 0.3443018 0.9139452
0.0051569 0.3536148 0.9133992
0.0051801 0.3542679 0.9133781
0.0051952 0.3549090 0.9133565
0.0052115 0.3555412 0.9133357
0.0052218 0.3561666 0.9133146
0.0052298 0.3567893 0.9132930
0.0052287 0.3573901 0.9132695
0.0052401 0.3580164 0.9132468
0.0052535 0.3586422 0.9132237
0.0052622 0.3592714 0.9132007
0.0052748 0.3598869 0.9131784
0.0050317 0.3394194 0.9145838
0.0050469 0.3400441 0.9144880
0.0050600 0.3406610 0.9144009
0.0050686 0.3412739 0.9143185
0.0051530 0.3365461 0.9150826
0.0051964 0.3371948 0.9149724
0.0052171 0.3378045 0.9148695
0.0052398 0.3384219 0.9147714
0.0052553 0.3390247 0.9146772
0.0052830 0.3627867 0.9130460
0.0054685 0.3448761 0.9140055
0.0054782 0.3454833 0.9139537
0.0054825 0.3460895 0.9139029
0.0054796 0.3467074 0.9138522
0.0054730 0.3473308 0.9138075
0.0054673 0.3479609 0.9137642
0.0054648 0.3485942 0.9137230
0.0054634 0.3492368 0.9136826
0.0054647 0.3498749 0.9136483
0.0054627 0.3505127 0.9136137
0.0054634 0.3511517 0.9135826
0.0054624 0.3517916 0.9135539
0.0054584 0.3524319 0.9135251
0.0055152 0.3603702 0.9132182
0.0055397 0.3609979 0.9131961
0.0055662 0.3616079 0.9131693
0.0055914 0.3621922 0.9131464
0.0055374 0.3418495 0.9143382
0.0055530 0.3424745 0.9142660
0.0055650 0.3430908 0.9141990
0.0055703 0.3437066 0.9141365
0.0055693 0.3443267 0.9140758
0.0057439 0.3536069 0.9135519
0.0057650 0.3542552 0.9135307
0.0057786 0.3548941 0.9135093
0.0057937 0.3555267 0.9134884
0.0058043 0.3561571 0.9134670
0.0058128 0.3567860 0.9134444
0.0058185 0.3573980 0.9134211
0.0058292 0.3580233 0.9133969
0.0058427 0.3586534 0.9133719
0.0058558 0.3592801 0.9133487
0.0058707 0.3598959 0.9133256
0.0056567 0.3394377 0.9146874
0.0056738 0.3400644 0.9145956
0.0056875 0.3406813 0.9145121
0.0056976 0.3412924 0.9144334
0.0057781 0.3365751 0.9151705
0.0058148 0.3372088 0.9150657
0.0058322 0.3378181 0.9149653
0.0058548 0.3384301 0.9148713
0.0058710 0.3390291 0.9147806
0.0058727 0.3628627 0.9131785
0.0060996 0.3449175 0.9141394
0.0061120 0.3455167 0.9140922
0.0061183 0.3461154 0.9140450
0.0061161 0.3467258 0.9139973
0.0061101 0.3473406 0.9139563
0.0061035 0.3479664 0.9139146
0.0061005 0.3485954 0.9138752
0.0060970 0.3492337 0.9138376
0.0060958 0.3498641 0.9138043
0.0060904 0.3504942 0.9137725
0.0060884 0.3511264 0.9137432
0.0060835 0.3517588 0.9137153
0.0060739 0.3523904 0.9136871
0.0061299 0.3610551 0.9133355
0.0061630 0.3616642 0.9133129
0.0061960 0.3622451 0.9132859
0.0061974 0.3431270 0.9143249
0.0062046 0.3437370 0.9142651
0.0062056 0.3443524 0.9142083
0.0063466 0.3535925 0.9137086
0.0063625 0.3542359 0.9136870
0.0063736 0.3548741 0.9136654
0.0064355 0.3586822 0.9135214
0.0064527 0.3593104 0.9134976
0.0064708 0.3599297 0.9134739
0.0064931 0.3605296 0.9134510
0.0063249 0.3413152 0.9145499
0.0063331 0.3419214 0.9144792
0.0063338 0.3425317 0.9144107
0.0067630 0.3559555 0.9137255
0.0067779 0.3565382 0.9137056
0.0067851 0.3571339 0.9136822
0.0067911 0.3576841 0.9136609
0.0068133 0.3582810 0.9136377
0.0064068 0.3366005 0.9152597
0.0064354 0.3372212 0.9151585
0.0064510 0.3378311 0.9150622
0.0064717 0.3384403 0.9149724
0.0064863 0.3390372 0.9148840
0.0064947 0.3396141 0.9148028
0.0065021 0.3401838 0.9147249
0.0065044 0.3407511 0.9146527
0.0064588 0.3629524 0.9133111
0.0067332 0.3449587 0.9142752
0.0067486 0.3455497 0.9142324
0.0067554 0.3461396 0.9141903
0.0067536 0.3467420 0.9141458
0.0067510 0.3473480 0.9141066
0.0067452 0.3479683 0.9140677
0.0067426 0.3485905 0.9140308
0.0067384 0.3492215 0.9139964
0.0067361 0.3498422 0.9139650
0.0067288 0.3504629 0.9139365
0.0067246 0.3510900 0.9139086
0.0067172 0.3611263 0.9134771
0.0067539 0.3617319 0.9134528
0.0067884 0.3623114 0.9134268
0.0068313 0.3431639 0.9144523
0.0068391 0.3437698 0.9143974
0.0068413 0.3443797 0.9143454
0.0069154 0.3522839 0.9139097
0.0069339 0.3529266 0.9138898
0.0069485 0.3535657 0.9138689
0.0070401 0.3593500 0.9136464
0.0070593 0.3599728 0.9136214
0.0070831 0.3605758 0.9135967
0.0069517 0.3413425 0.9146678
0.0069605 0.3419462 0.9146008
0.0069633 0.3425518 0.9145367
0.0072834 0.3547681 0.9139149
0.0073146 0.3553709 0.9138974
0.0073441 0.3559551 0.9138813
0.0073570 0.3565471 0.9138610
0.0073688 0.3571458 0.9138372
0.0073762 0.3577004 0.9138160
0.0073987 0.3582974 0.9137914
0.0074200 0.3588886 0.9137685
0.0069887 0.3359999 0.9154521
0.0070199 0.3366243 0.9153477
0.0070443 0.3372404 0.9152509
0.0070602 0.3378466 0.9151584
0.0070800 0.3384515 0.9150731
0.0070913 0.3390504 0.9149869
0.0071016 0.3396262 0.9149086
0.0071120 0.3401942 0.9148352
0.0071179 0.3407583 0.9147668
0.0070454 0.3630516 0.9134426
0.0073765 0.3449965 0.9144146
0.0073887 0.3455798 0.9143765
0.0073945 0.3461594 0.9143380
0.0073908 0.3467545 0.9142962
0.0073892 0.3473539 0.9142594
0.0073813 0.3479643 0.9142249
0.0073766 0.3485755 0.9141907
0.0073730 0.3492009 0.9141587
0.0073705 0.3498102 0.9141289
0.0073638 0.3504212 0.9141032
0.0073633 0.3510408 0.9140783
0.0073040 0.3612098 0.9136177
0.0073432 0.3618177 0.9135909
0.0073802 0.3623936 0.9135630
0.0074727 0.3431998 0.9145854
0.0074762 0.3438007 0.9145358
0.0074764 0.3444052 0.9144860
0.0075276 0.3522567 0.9140746
0.0075447 0.3528921 0.9140548
0.0075568 0.3535235 0.9140340
0.0076258 0.3593996 0.9137948
0.0076467 0.3600275 0.9137681
0.0076714 0.3606366 0.9137406
0.0075795 0.3413706 0.9147879
0.0075857 0.3419712 0.9147257
0.0075867 0.3425723 0.9146660
0.0078680 0.3547557 0.9140725
0.0078957 0.3553576 0.9140560
0.0079238 0.3559468 0.9140391
0.0079366 0.3565487 0.9140177
0.0079507 0.3571539 0.9139926
0.0079614 0.3577234 0.9139696
0.0079814 0.3583248 0.9139426
0.0080023 0.3589212 0.9139166
0.0076003 0.3360253 0.9155369
0.0076285 0.3366456 0.9154377
0.0076489 0.3372593 0.9153440
0.0076629 0.3378630 0.9152549
0.0076798 0.3384644 0.9151724
0.0076912 0.3390597 0.9150904
0.0076993 0.3396371 0.9150144
0.0077099 0.3402034 0.9149460
0.0077171 0.3407654 0.9148806
0.0076282 0.3631540 0.9135732
0.0080218 0.3450350 0.9145613
0.0080270 0.3456072 0.9145241
0.0080279 0.3461758 0.9144881
0.0080210 0.3467647 0.9144483
0.0080165 0.3473563 0.9144150
0.0080060 0.3479574 0.9143812
0.0079982 0.3485605 0.9143494
0.0079940 0.3491817 0.9143194
0.0079904 0.3497863 0.9142912
0.0079832 0.3503870 0.9142668
0.0079798 0.3509950 0.9142429
0.0079682 0.3624841 0.9136977
0.0081135 0.3432341 0.9147302
0.0081138 0.3438312 0.9146795
0.0081113 0.3444305 0.9146307
0.0081471 0.3522237 0.9142434
0.0081600 0.3528501 0.9142249
0.0081668 0.3534741 0.9142036
0.0082583 0.3607046 0.9138829
0.0082943 0.3612893 0.9138555
0.0083315 0.3618402 0.9138273
0.0082131 0.3413982 0.9149153
0.0082160 0.3419976 0.9148597
0.0082143 0.3425952 0.9148034
0.0084778 0.3547306 0.9142413
0.0085006 0.3553385 0.9142230
0.0085217 0.3559391 0.9142030
0.0085341 0.3565474 0.9141803
0.0085483 0.3571624 0.9141533
0.0085621 0.3577502 0.9141287
0.0085785 0.3583585 0.9140985
0.0085990 0.3589634 0.9140690
0.0086194 0.3595730 0.9140398
0.0086435 0.3601526 0.9140119
0.0082271 0.3360549 0.9156247
0.0082525 0.3366704 0.9155304
0.0082688 0.3372812 0.9154405
0.0082824 0.3378826 0.9153555
0.0083121 0.3396520 0.9151258
0.0083211 0.3402179 0.9150615
0.0083274 0.3407781 0.9149991
0.0084159 0.3386801 0.9152708
0.0084314 0.3391483 0.9152111
0.0082208 0.3632669 0.9136985
0.0086705 0.3450704 0.9147107
0.0086660 0.3456302 0.9146745
0.0086593 0.3461897 0.9146402
0.0086493 0.3467723 0.9146027
0.0086450 0.3473580 0.9145714
0.0086332 0.3479520 0.9145413
0.0086249 0.3485486 0.9145127
0.0086192 0.3491598 0.9144849
0.0086157 0.3497589 0.9144585
0.0086092 0.3503467 0.9144352
0.0086021 0.3509393 0.9144135
0.0085557 0.3625811 0.9138298
0.0087608 0.3432676 0.9148650
0.0087556 0.3438607 0.9148165
0.0087482 0.3444545 0.9147699
0.0087664 0.3521764 0.9144141
0.0087756 0.3527955 0.9143954
0.0087787 0.3534131 0.9143740
0.0088806 0.3613658 0.9139952
0.0089194 0.3619185 0.9139640
0.0088491 0.3414258 0.9150415
0.0088486 0.3420233 0.9149860
0.0088431 0.3426179 0.9149328
0.0090778 0.3546939 0.9144092
0.0090966 0.3553068 0.9143902
0.0092034 0.3596240 0.9141939
0.0092262 0.3602114 0.9141631
0.0092583 0.3607644 0.9141340
0.0088490 0.3360784 0.9157186
0.0088711 0.3366932 0.9156278
0.0089306 0.3402326 0.9151773
0.0089355 0.3407927 0.9151166
0.0094888 0.3564030 0.9144524
0.0095142 0.3569344 0.9144298
0.0095333 0.3574420 0.9144110
0.0095452 0.3579888 0.9143864
0.0095662 0.3585612 0.9143544
0.0096006 0.3591213 0.9143302
0.0089543 0.3377053 0.9154985
0.0089600 0.3382045 0.9154325
0.0089819 0.3386981 0.9153701
0.0090067 0.3391577 0.9153158
0.0090111 0.3396779 0.9152544
0.0088104 0.3633896 0.9138205
0.0093113 0.3451000 0.9148621
0.0092999 0.3456532 0.9148269
0.0092855 0.3462042 0.9147945
0.0092703 0.3467775 0.9147603
0.0092664 0.3473563 0.9147310
0.0092520 0.3479382 0.9147035
0.0092397 0.3485179 0.9146764
0.0092345 0.3491209 0.9146522
0.0092318 0.3497107 0.9146287
0.0092267 0.3502862 0.9146067
0.0092199 0.3508682 0.9145859
0.0091418 0.3626882 0.9139611
0.0094047 0.3432978 0.9150106
0.0093927 0.3438881 0.9149651
0.0093794 0.3444773 0.9149213
0.0093848 0.3521168 0.9145914
0.0093925 0.3527259 0.9145729
0.0093932 0.3533380 0.9145518
0.0094650 0.3614588 0.9141379
0.0095041 0.3620117 0.9141043
0.0094870 0.3414540 0.9151738
0.0094808 0.3420492 0.9151209
0.0094709 0.3426423 0.9150733
0.0096768 0.3546442 0.9145803
0.0096924 0.3552609 0.9145603
0.0097883 0.3596858 0.9143438
0.0098109 0.3602784 0.9143108
0.0098412 0.3608367 0.9142786
0.0094688 0.3361024 0.9158149
0.0094920 0.3367127 0.9157280
0.0095417 0.3402533 0.9152981
0.0095448 0.3408136 0.9152425
0.0100743 0.3563912 0.9146183
0.0100965 0.3569334 0.9145948
0.0101141 0.3574620 0.9145713
0.0101207 0.3580157 0.9145432
0.0101430 0.3585942 0.9145079
0.0101745 0.3591613 0.9144805
0.0095276 0.3377363 0.9155919
0.0095348 0.3382347 0.9155303
0.0095567 0.3387237 0.9154722
0.0095823 0.3391752 0.9154228
0.0095891 0.3396943 0.9153652
0.0093828 0.3635092 0.9139451
0.0099312 0.3451259 0.9150145
0.0099155 0.3456735 0.9149814
0.0098948 0.3462155 0.9149497
0.0098754 0.3467792 0.9149178
0.0098727 0.3473509 0.9148910
0.0098558 0.3479202 0.9148649
0.0098384 0.3484879 0.9148395
0.0098333 0.3490861 0.9148167
0.0098258 0.3496588 0.9147944
0.0098246 0.3502354 0.9147743
0.0098116 0.3508035 0.9147533
0.0100398 0.3433256 0.9151570
0.0100242 0.3439162 0.9151136
0.0100083 0.3445043 0.9150719
0.0099926 0.3520547 0.9147674
0.0099946 0.3526564 0.9147472
0.0100403 0.3615549 0.9142748
0.0100893 0.3621148 0.9142403
0.0101409 0.3626290 0.9142024
0.0101158 0.3420772 0.9152633
0.0101046 0.3426714 0.9152167
0.0102658 0.3539728 0.9147776
0.0103665 0.3597537 0.9144914
0.0103962 0.3603553 0.9144570
0.0104332 0.3609240 0.9144226
0.0100988 0.3361306 0.9159121
0.0101215 0.3367366 0.9158288
0.0101684 0.3402800 0.9154295
0.0101737 0.3408452 0.9153779
0.0101750 0.3414150 0.9153312
0.0106210 0.3552330 0.9148290
0.0106482 0.3558087 0.9148113
0.0106780 0.3563717 0.9147924
0.0107178 0.3574868 0.9147370
0.0107249 0.3580517 0.9147049
0.0107461 0.3586359 0.9146691
0.0107744 0.3592201 0.9146363
0.0101290 0.3377733 0.9156941
0.0101377 0.3382661 0.9156358
0.0101561 0.3387548 0.9155837
0.0101917 0.3392022 0.9155407
0.0102038 0.3397244 0.9154888
0.0111152 0.3572866 0.9148604
0.0105523 0.3451509 0.9151680
0.0105313 0.3456936 0.9151363
0.0105025 0.3462265 0.9151049
0.0104799 0.3467834 0.9150751
0.0104741 0.3473439 0.9150500
0.0104550 0.3479001 0.9150264
0.0104316 0.3484554 0.9150024
0.0104288 0.3490470 0.9149832
0.0104167 0.3496053 0.9149623
0.0104166 0.3501756 0.9149440
0.0103572 0.3634565 0.9141810
0.0106778 0.3433542 0.9153031
0.0106578 0.3439451 0.9152598
0.0106372 0.3445317 0.9152210
0.0105909 0.3513845 0.9149591
0.0105987 0.3519828 0.9149449
0.0105958 0.3525764 0.9149238
0.0107278 0.3627398 0.9143358
0.0107526 0.3421051 0.9154026
0.0107389 0.3427008 0.9153581
0.0108691 0.3539006 0.9149559
0.0110153 0.3610138 0.9145646
0.0110592 0.3615498 0.9145295
0.0111049 0.3620489 0.9144905
0.0107248 0.3361515 0.9160195
0.0107467 0.3367555 0.9159422
0.0108040 0.3414478 0.9154652
0.0112233 0.3551818 0.9150039
0.0112436 0.3557657 0.9149828
0.0113533 0.3592786 0.9147916
0.0113826 0.3598622 0.9147521
0.0114112 0.3604084 0.9147166
0.0107239 0.3378012 0.9158076
0.0107365 0.3382946 0.9157484
0.0107525 0.3387849 0.9156992
0.0107962 0.3392297 0.9156578
0.0108154 0.3397541 0.9156100
0.0108347 0.3402744 0.9155692
0.0108469 0.3408223 0.9155240
0.0116654 0.3567915 0.9150502
0.0117087 0.3572887 0.9150286
0.0117306 0.3577600 0.9150049
0.0117441 0.3582641 0.9149726
0.0117631 0.3587683 0.9149423
0.0111616 0.3451661 0.9153227
0.0111339 0.3457049 0.9152917
0.0111017 0.3462327 0.9152613
0.0110753 0.3467824 0.9152333
0.0110682 0.3473322 0.9152114
0.0110498 0.3478811 0.9151904
0.0110230 0.3484265 0.9151680
0.0110230 0.3490096 0.9151514
0.0110125 0.3495594 0.9151338
0.0110048 0.3501141 0.9151162
0.0109406 0.3635815 0.9142953
0.0113026 0.3433737 0.9154561
0.0112780 0.3439653 0.9154146
0.0112550 0.3445525 0.9153770
0.0111910 0.3513140 0.9151386
0.0111974 0.3519057 0.9151234
0.0111901 0.3524924 0.9151012
0.0113094 0.3628585 0.9144642
0.0113835 0.3421261 0.9155515
0.0113676 0.3427244 0.9155112
0.0114682 0.3538209 0.9151342
0.0115929 0.3611065 0.9147053
0.0116414 0.3616561 0.9146673
0.0116928 0.3621615 0.9146242
0.0113776 0.3367713 0.9160544
0.0113876 0.3373720 0.9159836
0.0114002 0.3379650 0.9159167
0.0114371 0.3414761 0.9156101
0.0118187 0.3551210 0.9151829
0.0118335 0.3557122 0.9151582
0.0119322 0.3593421 0.9149429
0.0119623 0.3599389 0.9149012
0.0119955 0.3604955 0.9148620
0.0113673 0.3388044 0.9158227
0.0114159 0.3392498 0.9157834
0.0114406 0.3397779 0.9157424
0.0114662 0.3403014 0.9157090
0.0114819 0.3408494 0.9156682
0.0122604 0.3567763 0.9152239
0.0122958 0.3572973 0.9151978
0.0123202 0.3577892 0.9151678
0.0123307 0.3583052 0.9151319
0.0123462 0.3588254 0.9150961
0.0118064 0.3440640 0.9155429
0.0117703 0.3446349 0.9155044
0.0117372 0.3451847 0.9154745
0.0117004 0.3457171 0.9154457
0.0116609 0.3462338 0.9154145
0.0116345 0.3467730 0.9153880
0.0116329 0.3473142 0.9153696
0.0116093 0.3478513 0.9153483
0.0115865 0.3483930 0.9153290
0.0115767 0.3489631 0.9153114
0.0115580 0.3494976 0.9152939
0.0115444 0.3500393 0.9152761
0.0119132 0.3433975 0.9156075
0.0117716 0.3512365 0.9153137
0.0118894 0.3629828 0.9145811
0.0120130 0.3421520 0.9157032
0.0119969 0.3427544 0.9156662
0.0120434 0.3525378 0.9153529
0.0120516 0.3531341 0.9153334
0.0120526 0.3537281 0.9153115
0.0122174 0.3617662 0.9147976
0.0122768 0.3622865 0.9147548
0.0120118 0.3367837 0.9161766
0.0120229 0.3373828 0.9161106
0.0120382 0.3379773 0.9160494
0.0120498 0.3385718 0.9159930
0.0120676 0.3403516 0.9158443
0.0120756 0.3409290 0.9158015
0.0120790 0.3415088 0.9157612
0.0124130 0.3550444 0.9153631
0.0124211 0.3556441 0.9153353
0.0125393 0.3600135 0.9150461
0.0125767 0.3605850 0.9150024
0.0126238 0.3611155 0.9149609
0.0120678 0.3392859 0.9159266
0.0120949 0.3398110 0.9158909
0.0128589 0.3567511 0.9153998
0.0129188 0.3583464 0.9152938
0.0129292 0.3588904 0.9152526
0.0129676 0.3594714 0.9152078
0.0133300 0.3575799 0.9154734
0.0133318 0.3579956 0.9154432
0.0124015 0.3440787 0.9156967
0.0123550 0.3446501 0.9156597
0.0123108 0.3451971 0.9156294
0.0122667 0.3457250 0.9156013
0.0122232 0.3462352 0.9155696
0.0121953 0.3467684 0.9155448
0.0121958 0.3473002 0.9155295
0.0121667 0.3478223 0.9155100
0.0121470 0.3483597 0.9154934
0.0121273 0.3489118 0.9154741
0.0125260 0.3434208 0.9157589
0.0123508 0.3500007 0.9155191
0.0123500 0.3505867 0.9155044
0.0123397 0.3511563 0.9154878
0.0124731 0.3631070 0.9146985
0.0126435 0.3421802 0.9158513
0.0126257 0.3427868 0.9158174
0.0126331 0.3524481 0.9155346
0.0126368 0.3530383 0.9155145
0.0126318 0.3536328 0.9154902
0.0127960 0.3618735 0.9149249
0.0128575 0.3624016 0.9148768
0.0126463 0.3367918 0.9163021
0.0126591 0.3373903 0.9162394
0.0126769 0.3379870 0.9161816
0.0126900 0.3385822 0.9161288
0.0127091 0.3403766 0.9159870
0.0127153 0.3409590 0.9159464
0.0127182 0.3415443 0.9159090
0.0131991 0.3612126 0.9150904
0.0127164 0.3393223 0.9160677
0.0127423 0.3398442 0.9160320
0.0134004 0.3556199 0.9156288
0.0134185 0.3561772 0.9156022
0.0135669 0.3600839 0.9153073
0.0136020 0.3605942 0.9152589
0.0138841 0.3571333 0.9156624
0.0139114 0.3575912 0.9156351
0.0139075 0.3580202 0.9156017
0.0139225 0.3585235 0.9155590
0.0139411 0.3590418 0.9155170
0.0139791 0.3595566 0.9154731
0.0129744 0.3440823 0.9158511
0.0129184 0.3446537 0.9158144
0.0128729 0.3452014 0.9157864
0.0128251 0.3457298 0.9157555
0.0127762 0.3462310 0.9157246
0.0127394 0.3467519 0.9157026
0.0127339 0.3472704 0.9156875
0.0127122 0.3477900 0.9156701
0.0126880 0.3483117 0.9156513
0.0126607 0.3488494 0.9156333
0.0131205 0.3434372 0.9159166
0.0129196 0.3499336 0.9156942
0.0129091 0.3505082 0.9156776
0.0128985 0.3510718 0.9156604
0.0130705 0.3632265 0.9148120
0.0131497 0.3637254 0.9147616
0.0132630 0.3422042 0.9160085
0.0132437 0.3428162 0.9159786
0.0132140 0.3523504 0.9157177
0.0132097 0.3529375 0.9156940
0.0132016 0.3535318 0.9156670
0.0133863 0.3619726 0.9150503
0.0134455 0.3625079 0.9149948
0.0132809 0.3368018 0.9164293
0.0132952 0.3373977 0.9163710
0.0133149 0.3379937 0.9163167
0.0133282 0.3385891 0.9162682
0.0133388 0.3398030 0.9161764
0.0133462 0.3403989 0.9161372
0.0133522 0.3409876 0.9161000
0.0133528 0.3415783 0.9160677
0.0137778 0.3613000 0.9152207
0.0133642 0.3393526 0.9162125
0.0139863 0.3555422 0.9158077
0.0139998 0.3561122 0.9157769
0.0141319 0.3601414 0.9154487
0.0141657 0.3606632 0.9153976
0.0144573 0.3571042 0.9158327
0.0144815 0.3575796 0.9157991
0.0144753 0.3580263 0.9157587
0.0144875 0.3585408 0.9157120
0.0145038 0.3590629 0.9156633
0.0145371 0.3595943 0.9156122
0.0133875 0.3452033 0.9159347
0.0133463 0.3457352 0.9159072
0.0132888 0.3462268 0.9158771
0.0132581 0.3467426 0.9158557
0.0132386 0.3472456 0.9158382
0.0132199 0.3477555 0.9158233
0.0131924 0.3482665 0.9158068
0.0136890 0.3434513 0.9160703
0.0136530 0.3440550 0.9160393
0.0136198 0.3446462 0.9160119
0.0134657 0.3493010 0.9158724
0.0134556 0.3498660 0.9158589
0.0134432 0.3504326 0.9158435
0.0134341 0.3509922 0.9158263
0.0136729 0.3633455 0.9149192
0.0137551 0.3638432 0.9148608
0.0139345 0.3361821 0.9166316
0.0138700 0.3422302 0.9161707
0.0138544 0.3428530 0.9161441
0.0139347 0.3373974 0.9165148
0.0139545 0.3379940 0.9164685
0.0139685 0.3385922 0.9164219
0.0139800 0.3392029 0.9163767
0.0139799 0.3398173 0.9163370
0.0139867 0.3404225 0.9163014
0.0139924 0.3410221 0.9162671
0.0139952 0.3416244 0.9162363
0.0141475 0.3529823 0.9159806
0.0141514 0.3535731 0.9159546
0.0141544 0.3541700 0.9159284
0.0143635 0.3613865 0.9153483
0.0144141 0.3619021 0.9152908
0.0144669 0.3623803 0.9152325
0.0145695 0.3554499 0.9159904
0.0145756 0.3560336 0.9159535
0.0147086 0.3602055 0.9155848
0.0147440 0.3607372 0.9155287
0.0150403 0.3570559 0.9160093
0.0150603 0.3575574 0.9159720
0.0150516 0.3580315 0.9159247
0.0150621 0.3585597 0.9158710
0.0150704 0.3590993 0.9158174
0.0151041 0.3596408 0.9157593
0.0142177 0.3440690 0.9161963
0.0141866 0.3446650 0.9161716
0.0141615 0.3452479 0.9161497
0.0141415 0.3458293 0.9161314
0.0141057 0.3463982 0.9161111
0.0140829 0.3469695 0.9160955
0.0140595 0.3475238 0.9160803
0.0140406 0.3480997 0.9160658
0.0140187 0.3486560 0.9160502
0.0139988 0.3492367 0.9160362
0.0145333 0.3361716 0.9167670
0.0144721 0.3422539 0.9163313
0.0144548 0.3428839 0.9163071
0.0144352 0.3434992 0.9162787
0.0143426 0.3503968 0.9161266
0.0143359 0.3509852 0.9161101
0.0143269 0.3515608 0.9160912
0.0147079 0.3632072 0.9151578
0.0145687 0.3373960 0.9166613
0.0145915 0.3379939 0.9166152
0.0146048 0.3385948 0.9165725
0.0146159 0.3392122 0.9165280
0.0146181 0.3398319 0.9164903
0.0146248 0.3404467 0.9164575
0.0146296 0.3410584 0.9164264
0.0146338 0.3416696 0.9164001
0.0147201 0.3528753 0.9161617
0.0147209 0.3534668 0.9161382
0.0149604 0.3614706 0.9154755
0.0150042 0.3619968 0.9154088
0.0150508 0.3624769 0.9153455
0.0151391 0.3547710 0.9162024
0.0155786 0.3559607 0.9162571
0.0155930 0.3564925 0.9162256
0.0156639 0.3596903 0.9158973
0.0156858 0.3601953 0.9158331
0.0157109 0.3606619 0.9157754
0.0160387 0.3573453 0.9162731
0.0160436 0.3577493 0.9162351
0.0160341 0.3581863 0.9161829
0.0160143 0.3586466 0.9161222
0.0160419 0.3591637 0.9160723
0.0147544 0.3440853 0.9163509
0.0147299 0.3446848 0.9163281
0.0146975 0.3452634 0.9163077
0.0146726 0.3458361 0.9162890
0.0146386 0.3463974 0.9162729
0.0146092 0.3469513 0.9162572
0.0145787 0.3474844 0.9162421
0.0145570 0.3480407 0.9162275
0.0145349 0.3485887 0.9162130
0.0145151 0.3491640 0.9161993
0.0151210 0.3361422 0.9169064
0.0150555 0.3422806 0.9164926
0.0150400 0.3429175 0.9164702
0.0150225 0.3435399 0.9164449
0.0148845 0.3503072 0.9162986
0.0148683 0.3508912 0.9162792
0.0148564 0.3514635 0.9162603
0.0153195 0.3633198 0.9152657
0.0152058 0.3373782 0.9168200
0.0152287 0.3379848 0.9167727
0.0152419 0.3385956 0.9167312
0.0152509 0.3392207 0.9166917
0.0152556 0.3398479 0.9166558
0.0152606 0.3404732 0.9166259
0.0152631 0.3410969 0.9165972
0.0152666 0.3417173 0.9165732
0.0152766 0.3527635 0.9163400
0.0152735 0.3533571 0.9163148
0.0155644 0.3615594 0.9156028
0.0156039 0.3620988 0.9155280
0.0156442 0.3625779 0.9154589
0.0157087 0.3546647 0.9163846
0.0161517 0.3558733 0.9164379
0.0161591 0.3564262 0.9163982
0.0162343 0.3597358 0.9160376
0.0162526 0.3602459 0.9159669
0.0162790 0.3607192 0.9159013
0.0166056 0.3573117 0.9164367
0.0166132 0.3577408 0.9163907
0.0165957 0.3581914 0.9163341
0.0165684 0.3586628 0.9162659
0.0165969 0.3591867 0.9162092
0.0152502 0.3440857 0.9164972
0.0152218 0.3446870 0.9164765
0.0151902 0.3452657 0.9164584
0.0151613 0.3458316 0.9164402
0.0151309 0.3463875 0.9164244
0.0151010 0.3469308 0.9164103
0.0150711 0.3474477 0.9163957
0.0150473 0.3479880 0.9163820
0.0150250 0.3485302 0.9163698
0.0156879 0.3361078 0.9170490
0.0156065 0.3422994 0.9166514
0.0155912 0.3429403 0.9166303
0.0155760 0.3435708 0.9166093
0.0154194 0.3496509 0.9164812
0.0153984 0.3502237 0.9164634
0.0153779 0.3508053 0.9164422
0.0159370 0.3634252 0.9153661
0.0158372 0.3373538 0.9169832
0.0158541 0.3379650 0.9169360
0.0158652 0.3385858 0.9168953
0.0158710 0.3392210 0.9168589
0.0158762 0.3398606 0.9168283
0.0158790 0.3404985 0.9167989
0.0158810 0.3411361 0.9167710
0.0158842 0.3417685 0.9167499
0.0158144 0.3520664 0.9165441
0.0158081 0.3526573 0.9165133
0.0158019 0.3532566 0.9164867
0.0162494 0.3626744 0.9155640
0.0165359 0.3614624 0.9158354
0.0165716 0.3619284 0.9157619
0.0167275 0.3552044 0.9166590
0.0167217 0.3557808 0.9166171
0.0167217 0.3563568 0.9165707
0.0168162 0.3597794 0.9161739
0.0168440 0.3603020 0.9160988
0.0168700 0.3607784 0.9160275
0.0171893 0.3572625 0.9166075
0.0171813 0.3581913 0.9164967
0.0171486 0.3586763 0.9164212
0.0171792 0.3592104 0.9163587
0.0175631 0.3578009 0.9166497
0.0156744 0.3452499 0.9166081
0.0156403 0.3458069 0.9165899
0.0161189 0.3435885 0.9167711
0.0161130 0.3442158 0.9167574
0.0160941 0.3448354 0.9167436
0.0160263 0.3466362 0.9167073
0.0160120 0.3472380 0.9166991
0.0159948 0.3478233 0.9166887
0.0159745 0.3484022 0.9166763
0.0159565 0.3489922 0.9166638
0.0164365 0.3367117 0.9171885
0.0164522 0.3373190 0.9171449
0.0164629 0.3379369 0.9171002
0.0164695 0.3385684 0.9170591
0.0164718 0.3392153 0.9170239
0.0164747 0.3398683 0.9169951
0.0164757 0.3418097 0.9169229
0.0164741 0.3424452 0.9169074
0.0164756 0.3430843 0.9168934
0.0163877 0.3501767 0.9167828
0.0163705 0.3507749 0.9167634
0.0163568 0.3513726 0.9167403
0.0168620 0.3627619 0.9156682
0.0169013 0.3631967 0.9155920
0.0167779 0.3406994 0.9170457
0.0167926 0.3413100 0.9170276
0.0168256 0.3526599 0.9168368
0.0172932 0.3539448 0.9169212
0.0172852 0.3545204 0.9168847
0.0172871 0.3551037 0.9168362
0.0174464 0.3608348 0.9161548
0.0174686 0.3612828 0.9160734
0.0174870 0.3616912 0.9159980
0.0177391 0.3562178 0.9168844
0.0177328 0.3566976 0.9168340
0.0177115 0.3586940 0.9165705
0.0177376 0.3592299 0.9164995
0.0177600 0.3597222 0.9164220
0.0177698 0.3601665 0.9163447
0.0181770 0.3574209 0.9168695
0.0181227 0.3577697 0.9168051
0.0180666 0.3581970 0.9167400
0.0161544 0.3452434 0.9167578
0.0161257 0.3457969 0.9167433
0.0166413 0.3436089 0.9169313
0.0166320 0.3442351 0.9169187
0.0166083 0.3448515 0.9169069
0.0165345 0.3466234 0.9168720
0.0165182 0.3472082 0.9168634
0.0164988 0.3477781 0.9168530
0.0164766 0.3483407 0.9168401
0.0164585 0.3489265 0.9168280
0.0170428 0.3366537 0.9173437
0.0170521 0.3372669 0.9173019
0.0170549 0.3378952 0.9172633
0.0170566 0.3385456 0.9172200
0.0170560 0.3392080 0.9171846
0.0170563 0.3398778 0.9171593
0.0170563 0.3405414 0.9171317
0.0170566 0.3418565 0.9170917
0.0170534 0.3424976 0.9170781
0.0170453 0.3431353 0.9170646
0.0169091 0.3500873 0.9169543
0.0168902 0.3506783 0.9169345
0.0168688 0.3512762 0.9169092
0.0174793 0.3628493 0.9157657
0.0175192 0.3632776 0.9156803
0.0174146 0.3413787 0.9172077
0.0173582 0.3525478 0.9170108
0.0178466 0.3538217 0.9170987
0.0178382 0.3544101 0.9170577
0.0178365 0.3550035 0.9170093
0.0180395 0.3608967 0.9162733
0.0180602 0.3613418 0.9161911
0.0180808 0.3617579 0.9161120
0.0183022 0.3561259 0.9170569
0.0182985 0.3566438 0.9170042
0.0182918 0.3587148 0.9167176
0.0183177 0.3592537 0.9166340
0.0183442 0.3597566 0.9165513
0.0183567 0.3602117 0.9164686
0.0187383 0.3573792 0.9170329
0.0186932 0.3577518 0.9169655
0.0186504 0.3581927 0.9168936
0.0171370 0.3436212 0.9170863
0.0171238 0.3442504 0.9170741
0.0170977 0.3448614 0.9170617
0.0170758 0.3454532 0.9170507
0.0170561 0.3460400 0.9170414
0.0170278 0.3466119 0.9170299
0.0170086 0.3471788 0.9170217
0.0169891 0.3477318 0.9170114
0.0176265 0.3365936 0.9175119
0.0176309 0.3372142 0.9174712
0.0176268 0.3378486 0.9174327
0.0176195 0.3385134 0.9173861
0.0176065 0.3398761 0.9173244
0.0176054 0.3405505 0.9172982
0.0176019 0.3418903 0.9172599
0.0175937 0.3425355 0.9172469
0.0175847 0.3431787 0.9172315
0.0174583 0.3488166 0.9171558
0.0174365 0.3494105 0.9171396
0.0174131 0.3499996 0.9171194
0.0180980 0.3629327 0.9158622
0.0181425 0.3633637 0.9157712
0.0179945 0.3395648 0.9174446
0.0180118 0.3414417 0.9173902
0.0179046 0.3512376 0.9172469
0.0178873 0.3518419 0.9172137
0.0183404 0.3616912 0.9161730
0.0183830 0.3621585 0.9160815
0.0183972 0.3531129 0.9173093
0.0183808 0.3537067 0.9172731
0.0183711 0.3543099 0.9172311
0.0186426 0.3609506 0.9163876
0.0188629 0.3554724 0.9172850
0.0188752 0.3587475 0.9168565
0.0189097 0.3592865 0.9167643
0.0189425 0.3597900 0.9166782
0.0189671 0.3602525 0.9165923
0.0193342 0.3564180 0.9173215
0.0193069 0.3568599 0.9172585
0.0193218 0.3573396 0.9171930
0.0192865 0.3577418 0.9171213
0.0192526 0.3581984 0.9170460
0.0181855 0.3359267 0.9177235
0.0181911 0.3365248 0.9176821
0.0181896 0.3371476 0.9176385
0.0181785 0.3377927 0.9175990
0.0181207 0.3425579 0.9174128
0.0181105 0.3432073 0.9173987
0.0180998 0.3438460 0.9173897
0.0180912 0.3444824 0.9173840
0.0180760 0.3451106 0.9173759
0.0180635 0.3457345 0.9173703
0.0180408 0.3463463 0.9173613
0.0180225 0.3469583 0.9173550
0.0179984 0.3475605 0.9173435
0.0179840 0.3481537 0.9173333
0.0179624 0.3487446 0.9173209
0.0179392 0.3493230 0.9173062
0.0187280 0.3630103 0.9159576
0.0187702 0.3634466 0.9158514
0.0185661 0.3389418 0.9176447
0.0185705 0.3395708 0.9176207
0.0185752 0.3402090 0.9176000
0.0185777 0.3408481 0.9175814
0.0185793 0.3414900 0.9175677
0.0185815 0.3421377 0.9175605
0.0189542 0.3617634 0.9162698
0.0189968 0.3622302 0.9161764
0.0189726 0.3511812 0.9175943
0.0189554 0.3517935 0.9175583
0.0189363 0.3523976 0.9175236
0.0192396 0.3610093 0.9164985
0.0194439 0.3536423 0.9176059
0.0195227 0.3598262 0.9168059
0.0195522 0.3602954 0.9167146
0.0199296 0.3547798 0.9176628
0.0199188 0.3553229 0.9176033
0.0198983 0.3558526 0.9175420
0.0198856 0.3563543 0.9174846
0.0198612 0.3568144 0.9174176
0.0198732 0.3573117 0.9173452
0.0198471 0.3577414 0.9172709
0.0198232 0.3582095 0.9171904
0.0198313 0.3586911 0.9171052
0.0198507 0.3591639 0.9170179
0.0187345 0.3358520 0.9178845
0.0187385 0.3364522 0.9178450
0.0187320 0.3370807 0.9177997
0.0187200 0.3377342 0.9177593
0.0186375 0.3425736 0.9175719
0.0186243 0.3432255 0.9175614
0.0186108 0.3438654 0.9175531
0.0185968 0.3444992 0.9175462
0.0185775 0.3451210 0.9175391
0.0185641 0.3457379 0.9175341
0.0185382 0.3463332 0.9175251
0.0185181 0.3469280 0.9175176
0.0184951 0.3475175 0.9175066
0.0184821 0.3480972 0.9174986
0.0184572 0.3486749 0.9174851
0.0184329 0.3492436 0.9174716
0.0193677 0.3630865 0.9160436
0.0194016 0.3635230 0.9159399
0.0191280 0.3389163 0.9178183
0.0191280 0.3395641 0.9177936
0.0191286 0.3402159 0.9177743
0.0191277 0.3408706 0.9177567
0.0191259 0.3415245 0.9177447
0.0191230 0.3421798 0.9177380
0.0195691 0.3618371 0.9163718
0.0196092 0.3623009 0.9162709
0.0194900 0.3510758 0.9177623
0.0194719 0.3516840 0.9177260
0.0194562 0.3522860 0.9176910
0.0198364 0.3610707 0.9166049
0.0199692 0.3535247 0.9177758
0.0200994 0.3598615 0.9169266
0.0201330 0.3603310 0.9168281
0.0204592 0.3546695 0.9178307
0.0204478 0.3552225 0.9177677
0.0204332 0.3557692 0.9177069
0.0204223 0.3562894 0.9176396
0.0204079 0.3567752 0.9175680
0.0204141 0.3572873 0.9174893
0.0203950 0.3577367 0.9174117
0.0203849 0.3582189 0.9173276
0.0204046 0.3587059 0.9172364
0.0204154 0.3591704 0.9171426
0.0192625 0.3357761 0.9180438
0.0191007 0.3438841 0.9177151
0.0190854 0.3445158 0.9177081
0.0190663 0.3451322 0.9177012
0.0190525 0.3457417 0.9176966
0.0190258 0.3463234 0.9176863
0.0199994 0.3631515 0.9161278
0.0200364 0.3635890 0.9160206
0.0196855 0.3369894 0.9180884
0.0196862 0.3376058 0.9180561
0.0196828 0.3382375 0.9180245
0.0196451 0.3428668 0.9179008
0.0196369 0.3435187 0.9178944
0.0195530 0.3473365 0.9178581
0.0195342 0.3479522 0.9178477
0.0195134 0.3485539 0.9178334
0.0201553 0.3393309 0.9181269
0.0201610 0.3399396 0.9181145
0.0201645 0.3405669 0.9181001
0.0201637 0.3411982 0.9180873
0.0201644 0.3418380 0.9180784
0.0201651 0.3424856 0.9180744
0.0200426 0.3497472 0.9179837
0.0200209 0.3503641 0.9179573
0.0204373 0.3611193 0.9167067
0.0204769 0.3615506 0.9166091
0.0205179 0.3619568 0.9165109
0.0205495 0.3516140 0.9180672
0.0205289 0.3522224 0.9180253
0.0205083 0.3528217 0.9179830
0.0206875 0.3599031 0.9170435
0.0207278 0.3603724 0.9169454
0.0210011 0.3539970 0.9180519
0.0209787 0.3545605 0.9179983
0.0209682 0.3551182 0.9179294
0.0209592 0.3556852 0.9178671
0.0209514 0.3582368 0.9174605
0.0209749 0.3587214 0.9173622
0.0209932 0.3591858 0.9172640
0.0214119 0.3564666 0.9178867
0.0213948 0.3568911 0.9178167
0.0213584 0.3572787 0.9177382
0.0213397 0.3576800 0.9176614
0.0206781 0.3636471 0.9160917
0.0202291 0.3362980 0.9182971
0.0201407 0.3441930 0.9180585
0.0201262 0.3448290 0.9180534
0.0201149 0.3454619 0.9180500
0.0200932 0.3460788 0.9180420
0.0208913 0.3628045 0.9163474
0.0206938 0.3374957 0.9183754
0.0206994 0.3380944 0.9183471
0.0207043 0.3386971 0.9183245
0.0207040 0.3393130 0.9183038
0.0207034 0.3399412 0.9182895
0.0207035 0.3405822 0.9182745
0.0207008 0.3412258 0.9182621
0.0206984 0.3418753 0.9182534
0.0206961 0.3425252 0.9182476
0.0206929 0.3431797 0.9182429
0.0206889 0.3438349 0.9182396
0.0206348 0.3471376 0.9182160
0.0206158 0.3477851 0.9182045
0.0205952 0.3484213 0.9181897
0.0210494 0.3611724 0.9168015
0.0210884 0.3615966 0.9166994
0.0211254 0.3619934 0.9166025
0.0211285 0.3496458 0.9183309
0.0211052 0.3502764 0.9183021
0.0210860 0.3508970 0.9182644
0.0210664 0.3515085 0.9182263
0.0212780 0.3599442 0.9171520
0.0213081 0.3603920 0.9170518
0.0215719 0.3527349 0.9183113
0.0215471 0.3533153 0.9182568
0.0215672 0.3592144 0.9173794
0.0220152 0.3544098 0.9183038
0.0219911 0.3549347 0.9182398
0.0219744 0.3554409 0.9181733
0.0219620 0.3559563 0.9180931
0.0219036 0.3572612 0.9178639
0.0218926 0.3576752 0.9177859
0.0218980 0.3581201 0.9176999
0.0219018 0.3585478 0.9176063
0.0223639 0.3565257 0.9181123
0.0223050 0.3568486 0.9180402
0.0213231 0.3637019 0.9161612
0.0207691 0.3362080 0.9184702
0.0206517 0.3442107 0.9182274
0.0206335 0.3448406 0.9182212
0.0206215 0.3454664 0.9182185
0.0205979 0.3460672 0.9182094
0.0215163 0.3628610 0.9164256
0.0212449 0.3374176 0.9185510
0.0212449 0.3380288 0.9185223
0.0212443 0.3386504 0.9184974
0.0212406 0.3392865 0.9184780
0.0212355 0.3399346 0.9184613
0.0212324 0.3405889 0.9184457
0.0212274 0.3412470 0.9184338
0.0212222 0.3419058 0.9184244
0.0212189 0.3425591 0.9184190
0.0212124 0.3432156 0.9184138
0.0212047 0.3438702 0.9184107
0.0211374 0.3471070 0.9183807
0.0211202 0.3477368 0.9183667
0.0211026 0.3483561 0.9183528
0.0216543 0.3612317 0.9168937
0.0216963 0.3616468 0.9167891
0.0217319 0.3620289 0.9166904
0.0216370 0.3495570 0.9184962
0.0216171 0.3501789 0.9184675
0.0216005 0.3507951 0.9184321
0.0215843 0.3514024 0.9183958
0.0218652 0.3599889 0.9172565
0.0218934 0.3604334 0.9171523
0.0220852 0.3526213 0.9184718
0.0220640 0.3532063 0.9184190
0.0221362 0.3592426 0.9174896
0.0225280 0.3543034 0.9184580
0.0225041 0.3548373 0.9183964
0.0224887 0.3553537 0.9183230
0.0224902 0.3558934 0.9182402
0.0224521 0.3572590 0.9179922
0.0224549 0.3576823 0.9179134
0.0224633 0.3581312 0.9178184
0.0224524 0.3585482 0.9177219
0.0228961 0.3564860 0.9182523
0.0228344 0.3568108 0.9181744
0.0219660 0.3637558 0.9162320
0.0221497 0.3629062 0.9165027
0.0217871 0.3361071 0.9187865
0.0217880 0.3367174 0.9187561
0.0217873 0.3373333 0.9187256
0.0217212 0.3432444 0.9185831
0.0217107 0.3438999 0.9185790
0.0216994 0.3445483 0.9185745
0.0216872 0.3451912 0.9185709
0.0216696 0.3458265 0.9185622
0.0216519 0.3464562 0.9185525
0.0216330 0.3470752 0.9185426
0.0223133 0.3616931 0.9168753
0.0223520 0.3620633 0.9167778
0.0222998 0.3384951 0.9188423
0.0222977 0.3390922 0.9188265
0.0222969 0.3397046 0.9188098
0.0222974 0.3403320 0.9187996
0.0222962 0.3409660 0.9187881
0.0222922 0.3416085 0.9187803
0.0222891 0.3422568 0.9187739
0.0222854 0.3429092 0.9187701
0.0221893 0.3482100 0.9187069
0.0221678 0.3488457 0.9186850
0.0221483 0.3494691 0.9186585
0.0225387 0.3608797 0.9171479
0.0226700 0.3506970 0.9187642
0.0226447 0.3513116 0.9187230
0.0227201 0.3592715 0.9176005
0.0227526 0.3597003 0.9175002
0.0227758 0.3600849 0.9174008
0.0231227 0.3525115 0.9187786
0.0230942 0.3530873 0.9187242
0.0230653 0.3536476 0.9186715
0.0230121 0.3581327 0.9179333
0.0230136 0.3585510 0.9178370
0.0234831 0.3546301 0.9186801
0.0234726 0.3551256 0.9186048
0.0234593 0.3555961 0.9185350
0.0234495 0.3560322 0.9184532
0.0234317 0.3564379 0.9183858
0.0233691 0.3567680 0.9183085
0.0233595 0.3571751 0.9182204
0.0233409 0.3575648 0.9181411
0.0226144 0.3638051 0.9162987
0.0227870 0.3629467 0.9165710
0.0223194 0.3360160 0.9189583
0.0223193 0.3366293 0.9189285
0.0229347 0.3617366 0.9169597
0.0229755 0.3620977 0.9168594
0.0228329 0.3378245 0.9190396
0.0228332 0.3384357 0.9190160
0.0228293 0.3390535 0.9189987
0.0227987 0.3429416 0.9189380
0.0227911 0.3435999 0.9189334
0.0227852 0.3442559 0.9189303
0.0227752 0.3449153 0.9189261
0.0227636 0.3455747 0.9189194
0.0227471 0.3462297 0.9189103
0.0227309 0.3468782 0.9188976
0.0227137 0.3475194 0.9188821
0.0226955 0.3481526 0.9188681
0.0226768 0.3487742 0.9188436
0.0231439 0.3609114 0.9172372
0.0233631 0.3401097 0.9191505
0.0233661 0.3407230 0.9191427
0.0233662 0.3413387 0.9191343
0.0233608 0.3419761 0.9191272
0.0233591 0.3426195 0.9191223
0.0232074 0.3499815 0.9189536
0.0233300 0.3597253 0.9175975
0.0233551 0.3601053 0.9174997
0.0236897 0.3512044 0.9190327
0.0236549 0.3518072 0.9189861
0.0236281 0.3524008 0.9189314
0.0235783 0.3589629 0.9178413
0.0240399 0.3534853 0.9189507
0.0240076 0.3540090 0.9188926
0.0239903 0.3545401 0.9188156
0.0238546 0.3575385 0.9182509
0.0238419 0.3579281 0.9181646
0.0238617 0.3583172 0.9180686
0.0244040 0.3553162 0.9187947
0.0243875 0.3557501 0.9187232
0.0243346 0.3560283 0.9186557
0.0243098 0.3563932 0.9185889
0.0242378 0.3566739 0.9185200
0.0241985 0.3570325 0.9184348
0.0232689 0.3638538 0.9163606
0.0234228 0.3629860 0.9166396
0.0228489 0.3359246 0.9191265
0.0228537 0.3365395 0.9190997
0.0235569 0.3617835 0.9170374
0.0235906 0.3621335 0.9169345
0.0233669 0.3377466 0.9192129
0.0233648 0.3383720 0.9191898
0.0233604 0.3390079 0.9191725
0.0233178 0.3429668 0.9191073
0.0233094 0.3436270 0.9191023
0.0233008 0.3442807 0.9190992
0.0232884 0.3449305 0.9190937
0.0232755 0.3455770 0.9190842
0.0232603 0.3462171 0.9190731
0.0232454 0.3468508 0.9190584
0.0232301 0.3474755 0.9190421
0.0232137 0.3480940 0.9190284
0.0232007 0.3487037 0.9190020
0.0237428 0.3609450 0.9173202
0.0238787 0.3400988 0.9193192
0.0238783 0.3407261 0.9193107
0.0238758 0.3413565 0.9193021
0.0238692 0.3420007 0.9192950
0.0238648 0.3426493 0.9192897
0.0237188 0.3498940 0.9191172
0.0239169 0.3597613 0.9176893
0.0239368 0.3601365 0.9175881
0.0241908 0.3511002 0.9191850
0.0241611 0.3517027 0.9191395
0.0241382 0.3522949 0.9190829
0.0241536 0.3589898 0.9179347
0.0245470 0.3533897 0.9190876
0.0245146 0.3539127 0.9190267
0.0245063 0.3544630 0.9189519
0.0244073 0.3575570 0.9183547
0.0243893 0.3579365 0.9182637
0.0243970 0.3583209 0.9181619
0.0249010 0.3552413 0.9189248
0.0248876 0.3556815 0.9188526
0.0248265 0.3559785 0.9187844
0.0247911 0.3563462 0.9187058
0.0247429 0.3566554 0.9186345
0.0247136 0.3570221 0.9185466
0.0239260 0.3638977 0.9164176
0.0240625 0.3630286 0.9167099
0.0241822 0.3618271 0.9171125
0.0242090 0.3621702 0.9170077
0.0239041 0.3364136 0.9194333
0.0239035 0.3370375 0.9194100
0.0243450 0.3609824 0.9173987
0.0244149 0.3382223 0.9195314
0.0244133 0.3388377 0.9195152
0.0244098 0.3394544 0.9194999
0.0244042 0.3400802 0.9194881
0.0244010 0.3407192 0.9194788
0.0243962 0.3413621 0.9194696
0.0243887 0.3420138 0.9194622
0.0243831 0.3426693 0.9194569
0.0243768 0.3433286 0.9194515
0.0243705 0.3439889 0.9194466
0.0243629 0.3446536 0.9194393
0.0243540 0.3453183 0.9194285
0.0243411 0.3459830 0.9194156
0.0243253 0.3466415 0.9194013
0.0243109 0.3472915 0.9193821
0.0242944 0.3479356 0.9193622
0.0242763 0.3485680 0.9193348
0.0242574 0.3491917 0.9193043
0.0245055 0.3597925 0.9177768
0.0245180 0.3601664 0.9176730
0.0247352 0.3503944 0.9193787
0.0247081 0.3510057 0.9193310
0.0246846 0.3516100 0.9192812
0.0247177 0.3590113 0.9180300
0.0250910 0.3527479 0.9192935
0.0250638 0.3532996 0.9192235
0.0250376 0.3538375 0.9191620
0.0249292 0.3579470 0.9183571
0.0249355 0.3583316 0.9182532
0.0254103 0.3547527 0.9191212
0.0253944 0.3551709 0.9190474
0.0253683 0.3556003 0.9189695
0.0253197 0.3559341 0.9188904
0.0252935 0.3563104 0.9188129
0.0252460 0.3566324 0.9187370
0.0252167 0.3570026 0.9186478
0.0252067 0.3573860 0.9185497
0.0245870 0.3639373 0.9164630
0.0247044 0.3630708 0.9167809
0.0248132 0.3618710 0.9171838
0.0248311 0.3622107 0.9170758
0.0249511 0.3610175 0.9174735
0.0249469 0.3369047 0.9197404
0.0249443 0.3375299 0.9197195
0.0249433 0.3381537 0.9196992
0.0248982 0.3440061 0.9196072
0.0248895 0.3446624 0.9195990
0.0248803 0.3453164 0.9195873
0.0248681 0.3459668 0.9195766
0.0248546 0.3466102 0.9195591
0.0248417 0.3472463 0.9195394
0.0250886 0.3598210 0.9178599
0.0250893 0.3601894 0.9177529
0.0254199 0.3392807 0.9198234
0.0254223 0.3398813 0.9198141
0.0254235 0.3404893 0.9198058
0.0254249 0.3411064 0.9197977
0.0254208 0.3417359 0.9197890
0.0254152 0.3423833 0.9197823
0.0254130 0.3430365 0.9197744
0.0254091 0.3436986 0.9197676
0.0253291 0.3484177 0.9196411
0.0253090 0.3490605 0.9196032
0.0252851 0.3496907 0.9195662
0.0252490 0.3590195 0.9181152
0.0257017 0.3508945 0.9195985
0.0256701 0.3514988 0.9195413
0.0256488 0.3520983 0.9194834
0.0256153 0.3526638 0.9194255
0.0254511 0.3579634 0.9184511
0.0254371 0.3583345 0.9183470
0.0259552 0.3536852 0.9193941
0.0259367 0.3541924 0.9193203
0.0259025 0.3546842 0.9192375
0.0258866 0.3551163 0.9191614
0.0258558 0.3555413 0.9190809
0.0257249 0.3566074 0.9188362
0.0256951 0.3569781 0.9187424
0.0256754 0.3573574 0.9186355
0.0260605 0.3559136 0.9190442
0.0260103 0.3562606 0.9189667
0.0252435 0.3636164 0.9166509
0.0252563 0.3639720 0.9165212
0.0254486 0.3619045 0.9172569
0.0254497 0.3622403 0.9171450
0.0255554 0.3610479 0.9175504
0.0254924 0.3368120 0.9199117
0.0254916 0.3374450 0.9198908
0.0254911 0.3380800 0.9198714
0.0254416 0.3440157 0.9197729
0.0254331 0.3446652 0.9197627
0.0254247 0.3453112 0.9197506
0.0254148 0.3459494 0.9197392
0.0254014 0.3465808 0.9197225
0.0253903 0.3472051 0.9197005
0.0256718 0.3598462 0.9179444
0.0256662 0.3602109 0.9178323
0.0259650 0.3392308 0.9199969
0.0259622 0.3398489 0.9199849
0.0259586 0.3404736 0.9199742
0.0259566 0.3411057 0.9199644
0.0259505 0.3417482 0.9199551
0.0259456 0.3423998 0.9199473
0.0259409 0.3430553 0.9199379
0.0259350 0.3437162 0.9199293
0.0258587 0.3483578 0.9197924
0.0258429 0.3489938 0.9197540
0.0258217 0.3496161 0.9197178
0.0257995 0.3590328 0.9182002
0.0262190 0.3508111 0.9197377
0.0261904 0.3514150 0.9196830
0.0261705 0.3520103 0.9196171
0.0261490 0.3525849 0.9195592
0.0259756 0.3579790 0.9185392
0.0259526 0.3583331 0.9184349
0.0264551 0.3536069 0.9195201
0.0264232 0.3541135 0.9194412
0.0263947 0.3546168 0.9193545
0.0263773 0.3550651 0.9192766
0.0263371 0.3554849 0.9191887
0.0262061 0.3565861 0.9189324
0.0261742 0.3569611 0.9188357
0.0261551 0.3573408 0.9187288
0.0265156 0.3558700 0.9191429
0.0264594 0.3562194 0.9190577
0.0259267 0.3636627 0.9167123
0.0259216 0.3640065 0.9165813
0.0260892 0.3619377 0.9173288
0.0260772 0.3622727 0.9172128
0.0261751 0.3610795 0.9176258
0.0260356 0.3360902 0.9201036
0.0260356 0.3367279 0.9200829
0.0260368 0.3373672 0.9200634
0.0262805 0.3598745 0.9180220
0.0262624 0.3602375 0.9179068
0.0265168 0.3385476 0.9201815
0.0265131 0.3391778 0.9201672
