-0.0008568 0.3619385 0.9449260
0.0002085 0.3394841 0.9476803
0.0001673 0.3401365 0.9476349
0.0001248 0.3408001 0.9475921
0.0000815 0.3414742 0.9475494
-0.0000816 0.3442347 0.9473694
-0.0001152 0.3449215 0.9473211
-0.0001487 0.3456053 0.9472720
-0.0001822 0.3462867 0.9472226
-0.0002148 0.3469658 0.9471720
-0.0002469 0.3476417 0.9471201
-0.0002787 0.3483173 0.9470664
-0.0003104 0.3489931 0.9470098
-0.0003423 0.3496675 0.9469517
-0.0003745 0.3503397 0.9468915
-0.0004074 0.3510148 0.9468272
-0.0004408 0.3516871 0.9467608
-0.0004754 0.3523563 0.9466889
-0.0005118 0.3530241 0.9466130
-0.0005493 0.3536862 0.9465348
-0.0005907 0.3543395 0.9464524
-0.0006316 0.3549858 0.9463688
-0.0006752 0.3556251 0.9462796
-0.0007200 0.3562581 0.9461891
-0.0007656 0.3568799 0.9460968
-0.0008164 0.3574892 0.9459997
-0.0008682 0.3580876 0.9459004
-0.0009208 0.3586674 0.9458004
-0.0009678 0.3592384 0.9456965
-0.0010188 0.3597876 0.9455920
-0.0010743 0.3603331 0.9454840
-0.0011265 0.3608651 0.9453764
-0.0001458 0.3376184 0.9480468
-0.0001929 0.3382675 0.9480072
-0.0002442 0.3389294 0.9479687
0.0015635 0.3678188 0.9416657
0.0014301 0.3683132 0.9415715
0.0012670 0.3666060 0.9422489
0.0011432 0.3671066 0.9421546
0.0008520 0.3659010 0.9427266
0.0005655 0.3647099 0.9432743
0.0004652 0.3652301 0.9431695
0.0003657 0.3629796 0.9439194
0.0002804 0.3635279 0.9438018
0.0001937 0.3640665 0.9436909
0.0016333 0.3416704 0.9467105
0.0015980 0.3422992 0.9466639
0.0015650 0.3429171 0.9466169
0.0015276 0.3435574 0.9465701
0.0014890 0.3442155 0.9465214
0.0014507 0.3448785 0.9464734
0.0001513 0.3612582 0.9445399
0.0000774 0.3618098 0.9444291
0.0000002 0.3623534 0.9443184
0.0011866 0.3399366 0.9471287
0.0011531 0.3405687 0.9470816
0.0011134 0.3412133 0.9470361
0.0008423 0.3459203 0.9466985
0.0008082 0.3465975 0.9466472
0.0007741 0.3472751 0.9465949
0.0007404 0.3479513 0.9465412
0.0007072 0.3486276 0.9464860
0.0006733 0.3493041 0.9464279
0.0006386 0.3499789 0.9463682
0.0006033 0.3506516 0.9463069
0.0005664 0.3513232 0.9462416
0.0005289 0.3519930 0.9461743
0.0004902 0.3526572 0.9461047
0.0004475 0.3533165 0.9460301
0.0004044 0.3539718 0.9459544
0.0003586 0.3546221 0.9458748
0.0003099 0.3552677 0.9457919
0.0002587 0.3559075 0.9457058
-0.0002088 0.3607186 0.9448928
0.0007935 0.3380906 0.9475252
0.0007508 0.3387287 0.9474824
0.0007036 0.3393782 0.9474402
-0.0002676 0.3568968 0.9458140
-0.0003147 0.3574850 0.9457192
-0.0003666 0.3580671 0.9456232
-0.0004139 0.3586250 0.9455265
-0.0004550 0.3591730 0.9454243
-0.0004995 0.3596965 0.9453211
-0.0005524 0.3602192 0.9452210
0.0003604 0.3374963 0.9478006
0.0020340 0.3675918 0.9414653
0.0018966 0.3680901 0.9413736
0.0017483 0.3663831 0.9420428
0.0016221 0.3668787 0.9419519
0.0013386 0.3656782 0.9425134
0.0010665 0.3644996 0.9430477
0.0009589 0.3650054 0.9429511
0.0008800 0.3628034 0.9436747
0.0007890 0.3633385 0.9435635
0.0006974 0.3638619 0.9434591
0.0021194 0.3416094 0.9464583
0.0020772 0.3422517 0.9464120
0.0020354 0.3428943 0.9463664
0.0019949 0.3435525 0.9463190
0.0019550 0.3442195 0.9462696
0.0019164 0.3448887 0.9462202
0.0006663 0.3611176 0.9442875
0.0005939 0.3616535 0.9441775
0.0005166 0.3621842 0.9440713
0.0016797 0.3398274 0.9468823
0.0016317 0.3404775 0.9468381
0.0015820 0.3411396 0.9467925
0.0012898 0.3459331 0.9464523
0.0012546 0.3466110 0.9464001
0.0012197 0.3472869 0.9463467
0.0011855 0.3479611 0.9462923
0.0011529 0.3486372 0.9462351
0.0011207 0.3493139 0.9461757
0.0010874 0.3499889 0.9461142
0.0010549 0.3506645 0.9460509
0.0010216 0.3513411 0.9459833
0.0009868 0.3520175 0.9459122
0.0009495 0.3526883 0.9458374
0.0009123 0.3533517 0.9457599
0.0008727 0.3540107 0.9456786
0.0008314 0.3546604 0.9455960
0.0007886 0.3553028 0.9455110
0.0007435 0.3559392 0.9454219
0.0003051 0.3605978 0.9446309
0.0012947 0.3379659 0.9472801
0.0012406 0.3386083 0.9472410
0.0011833 0.3392683 0.9472019
0.0002208 0.3569181 0.9455349
0.0001794 0.3574893 0.9454394
0.0001305 0.3580528 0.9453449
0.0000902 0.3585869 0.9452503
0.0000571 0.3591114 0.9451493
0.0000137 0.3596092 0.9450523
-0.0000337 0.3601082 0.9449571
0.0008540 0.3373654 0.9475680
0.0029177 0.3680860 0.9407796
0.0027751 0.3663906 0.9414458
0.0026418 0.3668745 0.9413576
0.0025048 0.3673637 0.9412677
0.0023553 0.3656630 0.9419266
0.0020612 0.3644494 0.9424878
0.0019478 0.3649544 0.9423943
0.0016706 0.3637790 0.9429205
0.0013914 0.3626259 0.9434337
0.0012960 0.3631466 0.9433289
0.0027720 0.3390263 0.9464034
0.0027273 0.3396397 0.9463563
0.0026798 0.3402649 0.9463101
0.0026322 0.3408981 0.9462635
0.0025831 0.3415461 0.9462185
0.0025339 0.3422062 0.9461719
0.0024864 0.3428748 0.9461239
0.0024437 0.3435506 0.9460752
0.0024017 0.3442264 0.9460245
0.0023622 0.3449014 0.9459729
0.0023237 0.3455751 0.9459208
0.0022866 0.3462482 0.9458683
0.0022502 0.3469224 0.9458151
0.0022145 0.3475961 0.9457600
0.0021796 0.3482697 0.9457036
0.0021452 0.3489450 0.9456443
0.0021109 0.3496192 0.9455840
0.0020754 0.3502934 0.9455210
0.0020402 0.3509664 0.9454562
0.0020031 0.3516383 0.9453880
0.0019651 0.3523069 0.9453174
0.0019252 0.3529683 0.9452431
0.0018827 0.3536235 0.9451665
0.0018395 0.3542726 0.9450870
0.0017931 0.3549206 0.9450063
0.0017419 0.3555627 0.9449220
0.0016879 0.3562022 0.9448358
0.0016286 0.3568399 0.9447480
0.0013856 0.3593096 0.9443436
0.0013206 0.3598894 0.9442383
0.0012504 0.3604439 0.9441367
0.0011778 0.3609749 0.9440327
0.0011053 0.3614965 0.9439309
0.0010258 0.3620117 0.9438270
0.0010816 0.3577838 0.9448649
0.0010290 0.3583592 0.9447688
0.0009820 0.3589097 0.9446705
0.0017801 0.3378329 0.9470472
0.0017173 0.3384811 0.9470086
0.0040770 0.3676693 0.9402580
0.0039362 0.3681193 0.9401780
0.0037860 0.3685891 0.9400933
0.0033793 0.3656832 0.9413349
0.0032536 0.3661657 0.9412475
0.0031250 0.3666405 0.9411604
0.0030853 0.3644509 0.9418993
0.0029649 0.3649501 0.9418082
0.0026666 0.3637277 0.9423623
0.0023720 0.3625394 0.9428938
0.0022776 0.3630583 0.9427900
0.0037818 0.3394941 0.9458206
0.0037314 0.3400852 0.9457756
0.0036855 0.3406884 0.9457279
0.0036366 0.3413086 0.9456813
0.0035862 0.3419409 0.9456337
0.0035383 0.3425834 0.9455845
0.0034927 0.3432359 0.9455349
0.0034478 0.3438972 0.9454830
0.0034057 0.3445612 0.9454310
0.0033645 0.3452260 0.9453772
0.0033251 0.3458931 0.9453221
0.0032873 0.3465619 0.9452673
0.0032504 0.3472327 0.9452125
0.0032141 0.3479041 0.9451561
0.0031778 0.3485759 0.9450979
0.0031411 0.3492476 0.9450371
0.0031042 0.3499200 0.9449760
0.0030659 0.3505887 0.9449137
0.0030267 0.3512552 0.9448492
0.0029860 0.3519197 0.9447833
0.0029433 0.3525764 0.9447161
0.0028966 0.3532270 0.9446450
0.0028489 0.3538732 0.9445723
0.0027994 0.3545187 0.9444960
0.0021490 0.3608622 0.9435073
0.0020752 0.3613998 0.9434000
0.0019936 0.3619232 0.9432946
0.0033042 0.3382871 0.9462144
0.0032514 0.3389018 0.9461703
0.0022141 0.3556118 0.9446412
0.0021669 0.3562425 0.9445526
0.0021166 0.3568639 0.9444637
0.0020618 0.3574788 0.9443720
0.0019442 0.3586766 0.9441729
0.0018849 0.3592394 0.9440764
0.0018252 0.3597903 0.9439773
0.0017596 0.3603196 0.9438761
0.0015332 0.3583369 0.9444851
0.0045337 0.3674369 0.9400825
0.0043984 0.3678894 0.9399979
0.0042535 0.3683556 0.9399066
0.0038651 0.3654587 0.9411323
0.0037417 0.3659335 0.9410449
0.0036162 0.3664009 0.9409604
0.0035752 0.3642342 0.9416869
0.0034599 0.3647225 0.9415989
0.0031663 0.3635153 0.9421409
0.0028807 0.3623498 0.9426615
0.0027876 0.3628564 0.9425594
0.0042506 0.3393604 0.9455918
0.0041939 0.3399698 0.9455450
0.0041390 0.3405942 0.9454960
0.0040843 0.3412345 0.9454486
0.0040300 0.3418885 0.9453994
0.0039791 0.3425535 0.9453479
0.0039315 0.3432250 0.9452953
0.0038874 0.3438973 0.9452414
0.0038443 0.3445709 0.9451858
0.0038031 0.3452412 0.9451294
0.0037619 0.3459098 0.9450742
0.0037225 0.3465791 0.9450191
0.0036847 0.3472470 0.9449638
0.0036482 0.3479170 0.9449058
0.0036131 0.3485893 0.9448461
0.0035784 0.3492625 0.9447838
0.0035435 0.3499352 0.9447217
0.0035085 0.3506090 0.9446559
0.0034721 0.3512824 0.9445880
0.0034349 0.3519529 0.9445182
0.0033959 0.3526192 0.9444460
0.0033539 0.3532779 0.9443708
0.0033111 0.3539289 0.9442955
0.0032661 0.3545750 0.9442164
0.0026584 0.3607262 0.9432523
0.0025842 0.3612474 0.9431519
0.0025082 0.3617522 0.9430494
0.0037831 0.3381448 0.9459851
0.0037207 0.3387672 0.9459412
0.0026867 0.3556757 0.9443577
0.0026463 0.3562968 0.9442656
0.0026045 0.3569016 0.9441727
0.0025477 0.3574999 0.9440857
0.0024358 0.3586379 0.9439008
0.0023855 0.3591712 0.9438060
0.0023314 0.3596948 0.9437076
0.0022714 0.3602042 0.9436138
0.0020272 0.3583301 0.9442050
0.0054934 0.3675204 0.9395202
0.0053715 0.3679637 0.9394283
0.0052508 0.3684157 0.9393301
0.0052672 0.3663013 0.9400690
0.0051384 0.3667539 0.9399858
0.0048776 0.3655211 0.9405460
0.0045880 0.3642523 0.9411106
0.0044735 0.3647491 0.9410178
0.0036744 0.3632932 0.9419192
0.0053362 0.3392284 0.9450423
0.0052693 0.3398111 0.9450001
0.0052042 0.3404075 0.9449535
0.0051458 0.3410187 0.9449060
0.0050895 0.3416431 0.9448571
0.0050343 0.3422829 0.9448061
0.0049811 0.3429300 0.9447560
0.0049326 0.3435849 0.9447024
0.0048869 0.3442428 0.9446481
0.0048426 0.3449037 0.9445931
0.0048005 0.3455639 0.9445362
0.0047598 0.3462267 0.9444778
0.0047209 0.3468897 0.9444204
0.0046830 0.3475546 0.9443620
0.0046459 0.3482210 0.9443016
0.0046098 0.3488890 0.9442400
0.0045739 0.3495565 0.9441760
0.0045385 0.3502248 0.9441115
0.0045022 0.3508927 0.9440448
0.0044649 0.3515560 0.9439773
0.0044265 0.3522158 0.9439080
0.0043855 0.3528668 0.9438369
0.0034809 0.3616644 0.9425207
0.0033939 0.3621566 0.9424278
0.0033023 0.3626406 0.9423321
0.0047812 0.3386212 0.9454068
0.0037679 0.3539975 0.9440187
0.0037287 0.3546445 0.9439359
0.0036876 0.3552815 0.9438520
0.0031700 0.3605903 0.9429943
0.0030991 0.3610908 0.9428998
0.0042481 0.3380032 0.9457622
0.0031239 0.3563548 0.9439818
0.0030876 0.3569414 0.9438904
0.0030327 0.3575154 0.9438042
0.0029790 0.3580681 0.9437157
0.0029271 0.3586046 0.9436263
0.0028814 0.3591060 0.9435371
0.0028376 0.3595994 0.9434428
0.0027802 0.3600814 0.9433559
0.0062001 0.3664080 0.9395280
0.0060863 0.3668557 0.9394369
0.0059736 0.3672976 0.9393438
0.0058615 0.3677360 0.9392399
0.0057501 0.3681881 0.9391385
0.0058464 0.3656172 0.9399803
0.0050740 0.3640462 0.9409066
0.0049755 0.3645291 0.9408109
0.0046851 0.3633023 0.9413459
0.0062494 0.3402303 0.9444253
0.0061859 0.3408201 0.9443794
0.0061305 0.3414240 0.9443240
0.0060784 0.3420392 0.9442694
0.0060283 0.3426669 0.9442134
0.0059786 0.3433028 0.9441572
0.0059317 0.3439446 0.9441003
0.0058867 0.3445909 0.9440432
0.0058440 0.3452393 0.9439870
0.0058020 0.3458911 0.9439276
0.0057618 0.3465434 0.9438684
0.0057233 0.3472010 0.9438088
0.0056865 0.3478596 0.9437484
0.0056500 0.3485169 0.9436865
0.0056146 0.3491776 0.9436235
0.0055786 0.3498355 0.9435600
0.0055430 0.3504929 0.9434954
0.0055063 0.3511453 0.9434297
0.0054690 0.3517964 0.9433619
0.0054274 0.3524385 0.9432964
0.0043877 0.3621035 0.9418799
0.0043001 0.3625877 0.9417809
0.0058522 0.3385040 0.9448691
0.0057781 0.3390946 0.9448247
0.0057100 0.3396945 0.9447800
0.0047867 0.3535827 0.9434944
0.0047452 0.3542279 0.9434166
0.0047006 0.3548679 0.9433380
0.0040048 0.3614757 0.9422786
0.0041155 0.3559868 0.9434804
0.0040759 0.3565944 0.9433902
0.0040264 0.3571901 0.9433033
0.0039722 0.3577846 0.9432107
0.0039196 0.3583581 0.9431169
0.0038553 0.3589145 0.9430263
0.0038078 0.3594403 0.9429290
0.0037570 0.3599564 0.9428274
0.0036997 0.3604493 0.9427335
0.0036382 0.3609251 0.9426393
0.0066506 0.3661842 0.9393640
0.0065579 0.3666318 0.9392614
0.0064664 0.3670705 0.9391578
0.0063729 0.3675087 0.9390495
0.0062767 0.3679523 0.9389431
0.0063178 0.3653955 0.9397998
0.0055831 0.3638314 0.9406904
0.0055001 0.3642990 0.9405927
0.0052122 0.3630835 0.9411206
0.0066901 0.3401319 0.9442065
0.0066251 0.3407396 0.9441542
0.0065671 0.3413632 0.9440992
0.0065098 0.3419953 0.9440404
0.0064541 0.3426386 0.9439834
0.0064022 0.3432853 0.9439249
0.0063517 0.3439362 0.9438667
0.0063036 0.3445886 0.9438070
0.0062581 0.3452424 0.9437502
0.0062151 0.3458968 0.9436912
0.0061745 0.3465509 0.9436315
0.0061350 0.3472087 0.9435716
0.0060977 0.3478703 0.9435106
0.0060617 0.3485340 0.9434472
0.0060260 0.3491998 0.9433836
0.0059923 0.3498651 0.9433174
0.0059590 0.3505314 0.9432490
0.0059252 0.3511949 0.9431791
0.0058912 0.3518533 0.9431082
0.0058554 0.3525037 0.9430379
0.0049149 0.3619050 0.9416427
0.0048410 0.3623689 0.9415478
0.0062978 0.3383594 0.9446558
0.0062262 0.3389625 0.9446103
0.0061560 0.3395794 0.9445631
0.0052348 0.3536714 0.9432229
0.0051989 0.3543184 0.9431416
0.0051603 0.3549552 0.9430597
0.0045323 0.3612865 0.9420313
0.0045961 0.3560775 0.9431855
0.0045657 0.3566639 0.9430947
0.0045163 0.3572354 0.9430136
0.0044620 0.3578043 0.9429259
0.0044149 0.3583372 0.9428366
0.0043557 0.3588597 0.9427537
0.0043149 0.3593547 0.9426594
0.0042787 0.3598440 0.9425613
0.0042336 0.3603057 0.9424698
0.0041786 0.3607682 0.9423779
0.0072844 0.3676335 0.9385202
0.0072115 0.3680737 0.9383968
0.0071393 0.3659626 0.9391819
0.0070594 0.3664086 0.9390735
0.0069811 0.3668440 0.9389631
0.0068195 0.3651705 0.9396059
0.0065578 0.3639050 0.9401392
0.0064746 0.3643845 0.9400378
0.0061942 0.3631320 0.9405671
0.0077004 0.3399697 0.9436904
0.0076443 0.3405570 0.9436333
0.0075876 0.3411563 0.9435754
0.0075359 0.3417670 0.9435144
0.0074864 0.3423916 0.9434524
0.0074358 0.3430226 0.9433909
0.0073874 0.3436579 0.9433301
0.0073401 0.3442966 0.9432697
0.0072949 0.3449363 0.9432090
0.0072525 0.3455795 0.9431480
0.0072112 0.3462244 0.9430859
0.0071720 0.3468699 0.9430242
0.0071334 0.3475207 0.9429613
0.0070969 0.3481745 0.9428982
0.0070618 0.3488276 0.9428343
0.0070290 0.3494789 0.9427684
0.0069952 0.3501324 0.9427032
0.0069614 0.3507855 0.9426361
0.0069264 0.3514312 0.9425681
0.0068898 0.3520722 0.9425006
0.0059015 0.3619077 0.9410967
0.0058275 0.3623951 0.9409908
0.0072670 0.3388332 0.9440868
0.0071994 0.3394252 0.9440348
0.0062539 0.3532411 0.9426971
0.0062170 0.3538848 0.9426200
0.0061762 0.3545202 0.9425426
0.0055236 0.3612406 0.9414935
0.0055835 0.3556831 0.9426895
0.0055465 0.3562941 0.9426017
0.0055074 0.3568884 0.9425137
0.0051905 0.3602026 0.9419584
0.0051327 0.3606645 0.9418679
0.0049655 0.3578234 0.9426345
0.0049265 0.3583192 0.9425494
0.0048757 0.3588057 0.9424704
0.0048345 0.3592808 0.9423820
0.0048038 0.3597467 0.9422904
0.0078609 0.3669857 0.9384643
0.0078056 0.3674232 0.9383333
0.0077518 0.3678585 0.9382063
0.0076992 0.3652880 0.9391154
0.0076378 0.3657506 0.9389958
0.0075788 0.3661919 0.9388793
0.0070689 0.3637005 0.9399308
0.0070047 0.3641655 0.9398243
0.0086256 0.3403965 0.9431368
0.0085795 0.3409742 0.9430719
0.0085330 0.3415687 0.9430072
0.0084864 0.3421735 0.9429410
0.0084438 0.3427864 0.9428731
0.0083990 0.3434059 0.9428055
0.0083575 0.3440274 0.9427402
0.0083161 0.3446545 0.9426755
0.0082758 0.3452864 0.9426110
0.0082373 0.3459214 0.9425465
0.0081995 0.3465536 0.9424825
0.0081625 0.3471880 0.9424191
0.0081269 0.3478263 0.9423555
0.0080904 0.3484671 0.9422917
0.0080560 0.3491030 0.9422284
0.0080217 0.3497413 0.9421635
0.0079876 0.3503772 0.9420988
0.0079530 0.3510035 0.9420344
0.0079148 0.3516314 0.9419702
0.0067257 0.3629260 0.9403426
0.0082493 0.3387095 0.9435928
0.0081920 0.3392900 0.9435344
0.0081383 0.3398789 0.9434734
0.0072793 0.3527951 0.9421693
0.0072413 0.3534287 0.9420993
0.0071942 0.3540605 0.9420294
0.0064330 0.3617214 0.9408562
0.0063814 0.3621897 0.9407507
0.0065951 0.3552572 0.9421827
0.0065490 0.3558800 0.9421020
0.0065010 0.3564996 0.9420214
0.0060723 0.3610629 0.9412388
0.0059625 0.3575241 0.9421298
0.0058970 0.3580876 0.9420522
0.0058586 0.3586048 0.9419639
0.0058190 0.3590990 0.9418723
0.0057784 0.3595906 0.9417790
0.0057403 0.3600681 0.9416842
0.0057003 0.3605076 0.9415957
0.0083858 0.3667770 0.9382788
0.0083482 0.3672166 0.9381440
0.0083088 0.3676510 0.9380061
0.0082106 0.3650688 0.9389291
0.0081641 0.3655338 0.9388031
0.0081195 0.3659763 0.9386798
0.0076060 0.3634891 0.9397089
0.0075542 0.3639471 0.9396009
0.0090599 0.3403255 0.9429160
0.0090132 0.3409171 0.9428490
0.0089672 0.3415227 0.9427795
0.0089221 0.3421358 0.9427087
0.0088759 0.3427581 0.9426396
0.0088284 0.3433838 0.9425702
0.0087833 0.3440122 0.9425043
0.0087390 0.3446439 0.9424391
0.0086970 0.3452747 0.9423743
0.0086569 0.3459093 0.9423102
0.0086181 0.3465453 0.9422455
0.0085798 0.3471847 0.9421808
0.0085423 0.3478309 0.9421170
0.0085048 0.3484791 0.9420519
0.0084706 0.3491301 0.9419858
0.0084390 0.3497789 0.9419180
0.0084074 0.3504281 0.9418504
0.0083767 0.3510695 0.9417824
0.0083428 0.3517044 0.9417151
0.0072796 0.3627212 0.9401116
0.0087075 0.3385866 0.9433756
0.0086537 0.3391812 0.9433129
0.0085976 0.3397861 0.9432477
0.0077216 0.3528997 0.9419015
0.0076871 0.3535396 0.9418256
0.0076474 0.3541725 0.9417514
0.0069922 0.3615330 0.9406111
0.0069476 0.3619894 0.9405056
0.0070664 0.3553746 0.9418932
0.0070255 0.3559868 0.9418107
0.0069854 0.3565886 0.9417301
0.0066362 0.3608872 0.9409787
0.0064599 0.3575671 0.9418439
0.0063923 0.3580962 0.9417737
0.0063677 0.3585676 0.9416909
0.0063463 0.3590208 0.9415991
0.0063125 0.3594815 0.9415097
0.0062805 0.3599376 0.9414182
0.0062485 0.3603581 0.9413304
0.0089313 0.3665649 0.9380808
0.0089042 0.3670137 0.9379422
0.0088819 0.3674497 0.9378032
0.0087515 0.3648503 0.9387173
0.0087135 0.3653199 0.9385923
0.0086773 0.3657662 0.9384686
0.0101910 0.3453967 0.9415231
0.0101644 0.3460122 0.9414487
0.0101378 0.3466114 0.9413797
0.0101089 0.3472142 0.9413121
0.0100791 0.3478228 0.9412458
0.0100514 0.3484210 0.9411798
0.0100264 0.3490071 0.9411160
0.0100004 0.3495973 0.9410519
0.0099695 0.3501871 0.9409910
0.0085255 0.3635749 0.9392132
0.0084767 0.3640669 0.9390960
0.0099062 0.3413600 0.9422996
0.0098692 0.3419524 0.9422255
0.0098332 0.3425569 0.9421504
0.0097976 0.3431666 0.9420758
0.0097622 0.3437777 0.9420027
0.0097285 0.3443923 0.9419301
0.0096935 0.3450110 0.9418582
0.0093637 0.3512578 0.9411934
0.0096029 0.3390729 0.9428312
0.0095535 0.3396563 0.9427627
0.0095051 0.3402514 0.9426925
0.0094628 0.3408571 0.9426188
0.0087451 0.3524341 0.9413821
0.0087095 0.3530666 0.9413113
0.0078440 0.3625263 0.9398731
0.0081060 0.3542960 0.9414719
0.0080713 0.3549190 0.9413959
0.0080312 0.3555348 0.9413186
0.0075454 0.3613594 0.9403613
0.0075100 0.3618030 0.9402567
0.0074669 0.3566815 0.9414402
0.0074320 0.3572444 0.9413588
0.0073932 0.3578080 0.9412719
0.0072321 0.3598258 0.9409250
0.0072102 0.3602901 0.9408235
0.0071876 0.3607241 0.9407245
0.0068650 0.3585338 0.9414182
0.0068503 0.3589548 0.9413347
0.0068259 0.3593910 0.9412480
0.0094883 0.3663719 0.9378903
0.0094796 0.3668212 0.9377442
0.0094798 0.3672566 0.9375993
0.0110508 0.3469594 0.9408201
0.0110313 0.3475360 0.9407503
0.0110109 0.3481265 0.9406809
0.0109897 0.3486752 0.9406198
0.0109626 0.3492406 0.9405602
0.0109346 0.3498090 0.9405002
0.0092980 0.3646535 0.9385193
0.0092740 0.3651213 0.9383900
0.0092528 0.3655644 0.9382628
0.0107790 0.3411970 0.9418639
0.0107544 0.3417946 0.9417779
0.0107349 0.3423879 0.9416903
0.0107107 0.3429828 0.9416078
0.0106854 0.3435878 0.9415263
0.0106630 0.3441839 0.9414469
0.0106384 0.3447853 0.9413697
0.0106130 0.3453932 0.9412931
0.0105887 0.3460067 0.9412165
0.0105607 0.3466103 0.9411463
0.0103585 0.3508290 0.9406884
0.0103264 0.3514173 0.9406285
0.0102926 0.3519998 0.9405704
0.0090673 0.3633826 0.9389954
0.0090296 0.3638668 0.9388758
0.0104500 0.3395416 0.9423133
0.0104120 0.3401275 0.9422338
0.0103724 0.3407177 0.9421544
0.0096829 0.3531972 0.9407432
0.0100623 0.3389664 0.9426127
0.0090835 0.3544389 0.9408963
0.0090382 0.3550566 0.9408265
0.0084946 0.3614042 0.9398517
0.0084617 0.3618761 0.9397397
0.0084261 0.3623308 0.9396278
0.0084652 0.3562683 0.9409509
0.0081469 0.3607460 0.9402044
0.0079251 0.3573188 0.9410683
0.0078829 0.3578520 0.9409919
0.0078379 0.3583633 0.9409123
0.0078026 0.3588322 0.9408358
0.0077894 0.3592615 0.9407462
0.0077706 0.3597139 0.9406612
0.0077728 0.3601537 0.9405546
0.0100631 0.3666448 0.9375523
0.0114720 0.3469608 0.9405851
0.0114511 0.3475408 0.9405136
0.0114274 0.3481356 0.9404452
0.0114044 0.3487011 0.9403824
0.0113786 0.3492826 0.9403193
0.0113517 0.3498624 0.9402574
0.0098831 0.3644658 0.9383029
0.0098546 0.3649364 0.9381783
0.0098304 0.3653822 0.9380567
0.0098119 0.3658158 0.9379330
0.0112017 0.3411553 0.9416461
0.0111855 0.3417573 0.9415531
0.0111642 0.3423595 0.9414638
0.0111441 0.3429582 0.9413767
0.0111223 0.3435645 0.9412916
0.0111027 0.3441613 0.9412086
0.0110796 0.3447653 0.9411284
0.0110518 0.3453718 0.9410511
0.0110236 0.3459865 0.9409762
0.0109948 0.3465945 0.9409046
0.0107883 0.3509049 0.9404352
0.0107568 0.3515066 0.9403741
0.0107243 0.3521032 0.9403148
0.0096384 0.3631958 0.9387696
0.0096056 0.3636819 0.9386519
0.0109077 0.3394522 0.9420920
0.0108713 0.3400485 0.9420091
0.0108404 0.3406443 0.9419247
0.0101352 0.3533245 0.9404722
0.0105454 0.3388662 0.9423787
0.0095545 0.3545795 0.9406121
0.0095145 0.3551912 0.9405417
0.0090521 0.3612456 0.9396041
0.0090207 0.3617105 0.9394946
0.0089975 0.3621601 0.9393806
0.0089495 0.3563839 0.9406627
0.0087028 0.3606107 0.9399454
0.0084241 0.3573944 0.9407767
0.0083805 0.3578923 0.9407086
0.0083471 0.3583649 0.9406323
0.0083199 0.3587884 0.9405615
0.0083233 0.3591713 0.9404757
0.0083056 0.3596086 0.9403913
0.0083022 0.3600494 0.9402906
0.0106431 0.3664837 0.9373654
0.0119458 0.3446030 0.9406802
0.0119322 0.3452010 0.9405952
0.0119171 0.3458043 0.9405120
0.0119087 0.3463892 0.9404299
0.0118937 0.3469721 0.9403543
0.0118731 0.3475579 0.9402811
0.0118517 0.3481522 0.9402102
0.0118311 0.3487301 0.9401433
0.0118066 0.3493224 0.9400774
0.0117821 0.3499169 0.9400111
0.0117598 0.3504907 0.9399482
0.0104767 0.3642848 0.9380885
0.0104379 0.3647618 0.9379707
0.0104070 0.3652173 0.9378535
0.0103869 0.3656568 0.9377331
0.0116590 0.3399326 0.9416150
0.0116437 0.3405232 0.9415209
0.0116275 0.3411149 0.9414271
0.0116146 0.3417227 0.9413286
0.0116017 0.3423255 0.9412338
0.0115924 0.3429267 0.9411390
0.0115755 0.3435317 0.9410497
0.0115538 0.3441367 0.9409650
0.0112039 0.3516064 0.9401087
0.0111723 0.3522179 0.9400453
0.0102281 0.3630212 0.9385429
0.0101829 0.3635078 0.9384279
0.0113698 0.3393636 0.9418670
0.0106026 0.3534566 0.9401959
0.0099133 0.3622761 0.9388980
0.0110521 0.3387606 0.9421372
0.0100310 0.3547197 0.9403282
0.0099961 0.3553239 0.9402572
0.0099564 0.3559315 0.9401814
0.0096057 0.3611110 0.9393548
0.0095710 0.3615681 0.9392522
0.0093972 0.3570449 0.9403056
0.0093686 0.3575794 0.9402317
0.0093226 0.3581276 0.9401504
0.0092419 0.3596064 0.9398986
0.0092305 0.3600526 0.9398020
0.0092332 0.3604974 0.9396973
0.0088147 0.3587462 0.9403072
0.0088131 0.3591111 0.9402313
0.0127637 0.3462276 0.9399864
0.0127704 0.3467839 0.9399002
0.0127672 0.3473332 0.9398212
0.0127516 0.3479104 0.9397472
0.0127415 0.3484567 0.9396785
0.0127235 0.3489972 0.9396150
0.0127139 0.3495439 0.9395493
0.0126908 0.3501004 0.9394886
0.0123887 0.3445843 0.9404415
0.0123880 0.3451686 0.9403506
0.0123755 0.3457705 0.9402650
0.0121760 0.3511542 0.9396337
0.0121468 0.3517417 0.9395727
0.0121130 0.3523283 0.9395144
0.0110595 0.3641223 0.9378781
0.0110203 0.3646079 0.9377649
0.0109919 0.3650681 0.9376489
0.0109761 0.3655159 0.9375299
0.0120897 0.3398692 0.9414057
0.0120874 0.3404649 0.9413024
0.0120843 0.3410589 0.9411983
0.0120840 0.3416697 0.9410923
0.0120791 0.3422697 0.9409922
0.0120717 0.3428721 0.9408946
0.0120583 0.3434786 0.9408009
0.0120405 0.3440860 0.9407119
0.0115607 0.3535642 0.9396502
0.0115204 0.3541740 0.9395871
0.0108016 0.3628679 0.9383192
0.0107579 0.3633590 0.9382112
0.0118712 0.3386774 0.9417289
0.0118507 0.3392770 0.9416331
0.0104808 0.3621379 0.9386666
0.0104451 0.3560588 0.9398970
0.0104063 0.3566461 0.9398253
0.0103715 0.3572284 0.9397472
0.0101775 0.3605369 0.9392040
0.0101670 0.3609918 0.9391023
0.0101455 0.3614437 0.9390027
0.0098259 0.3581552 0.9398793
0.0098001 0.3586271 0.9398042
0.0097922 0.3590758 0.9397171
0.0097697 0.3595487 0.9396278
0.0097757 0.3599714 0.9395363
0.0132035 0.3462161 0.9397491
0.0132100 0.3467765 0.9396624
0.0132064 0.3473327 0.9395833
0.0131895 0.3479166 0.9395084
0.0131844 0.3484727 0.9394348
0.0131685 0.3490332 0.9393681
0.0131583 0.3495890 0.9393013
0.0131370 0.3501556 0.9392389
0.0128620 0.3445500 0.9401949
0.0128631 0.3451368 0.9401016
0.0128503 0.3457400 0.9400143
0.0126398 0.3512486 0.9393689
0.0126110 0.3518521 0.9393060
0.0125790 0.3524508 0.9392472
0.0116346 0.3639650 0.9376581
0.0115912 0.3644578 0.9375496
0.0115577 0.3649297 0.9374373
0.0115407 0.3653909 0.9373165
0.0125571 0.3397915 0.9411778
0.0125633 0.3403961 0.9410659
0.0125707 0.3409970 0.9409540
0.0125770 0.3416063 0.9408432
0.0125817 0.3422064 0.9407359
0.0125832 0.3428084 0.9406317
0.0125762 0.3434143 0.9405325
0.0125643 0.3440193 0.9404391
0.0120409 0.3537061 0.9393736
0.0120015 0.3543194 0.9393113
0.0113695 0.3627215 0.9380984
0.0113198 0.3632220 0.9379932
0.0123748 0.3385763 0.9414924
0.0123656 0.3391794 0.9413884
0.0110360 0.3620235 0.9384375
0.0109372 0.3561819 0.9396152
0.0108955 0.3567510 0.9395492
0.0108637 0.3573013 0.9394747
0.0107091 0.3604590 0.9389579
0.0107044 0.3609076 0.9388572
0.0106866 0.3613580 0.9387602
0.0103160 0.3581814 0.9396139
0.0102880 0.3586315 0.9395467
0.0102902 0.3590547 0.9394619
0.0102830 0.3595180 0.9393737
0.0103048 0.3599210 0.9392788
0.0136116 0.3444871 0.9398038
0.0136415 0.3450620 0.9396934
0.0136714 0.3462063 0.9394963
0.0136827 0.3467640 0.9394060
0.0136815 0.3473259 0.9393257
0.0136668 0.3479160 0.9392487
0.0136588 0.3484908 0.9391741
0.0136386 0.3490745 0.9391062
0.0136280 0.3496484 0.9390373
0.0136064 0.3502322 0.9389731
0.0135815 0.3508141 0.9389133
0.0135570 0.3513923 0.9388554
0.0133381 0.3433341 0.9401434
0.0133589 0.3439167 0.9400340
0.0133773 0.3456741 0.9397391
0.0130645 0.3525814 0.9389705
0.0122038 0.3638375 0.9374512
0.0121548 0.3643398 0.9373476
0.0121107 0.3648289 0.9372413
0.0120817 0.3653117 0.9371262
0.0130373 0.3390896 0.9410604
0.0130498 0.3397065 0.9409412
0.0130665 0.3403159 0.9408220
0.0130860 0.3409215 0.9407021
0.0131050 0.3415283 0.9405833
0.0131221 0.3421257 0.9404685
0.0131333 0.3427235 0.9403584
0.0125285 0.3538496 0.9390904
0.0124915 0.3544638 0.9390282
0.0119750 0.3620855 0.9379843
0.0119176 0.3626078 0.9378775
0.0118657 0.3631113 0.9377765
0.0128989 0.3384681 0.9412433
0.0119356 0.3557089 0.9391538
0.0116319 0.3609306 0.9384005
0.0116021 0.3614287 0.9383057
0.0113657 0.3568437 0.9392831
0.0113379 0.3573738 0.9392189
0.0112984 0.3579061 0.9391528
0.0112676 0.3584459 0.9390746
0.0112542 0.3589083 0.9389982
0.0112333 0.3594076 0.9389165
0.0112196 0.3599084 0.9388287
0.0112140 0.3603966 0.9387254
0.0144252 0.3467031 0.9390230
0.0144590 0.3472295 0.9389286
0.0144712 0.3477569 0.9388442
0.0144922 0.3482690 0.9387617
0.0145008 0.3487953 0.9386847
0.0144783 0.3493511 0.9386243
0.0144772 0.3498925 0.9385568
0.0140657 0.3444702 0.9395654
0.0141093 0.3450395 0.9394495
0.0141363 0.3456047 0.9393433
0.0141534 0.3461756 0.9392452
0.0140637 0.3509003 0.9386452
0.0140371 0.3514955 0.9385856
0.0140168 0.3520881 0.9385235
0.0137997 0.3426874 0.9400113
0.0138419 0.3432738 0.9398860
0.0138751 0.3438526 0.9397692
0.0135196 0.3533282 0.9386360
0.0134856 0.3539430 0.9385745
0.0128999 0.3626400 0.9374481
0.0128383 0.3632021 0.9373461
0.0127757 0.3637349 0.9372493
0.0127170 0.3642524 0.9371511
0.0126691 0.3647566 0.9370477
0.0126356 0.3652714 0.9369319
0.0135243 0.3390021 0.9408280
0.0135436 0.3396220 0.9407025
0.0135721 0.3402341 0.9405745
0.0136072 0.3408403 0.9404451
0.0136412 0.3414439 0.9403177
0.0136719 0.3420402 0.9401943
0.0129479 0.3552183 0.9386911
0.0129116 0.3558315 0.9386224
0.0128797 0.3564594 0.9385525
0.0126219 0.3608769 0.9379535
0.0125838 0.3614376 0.9378606
0.0125295 0.3619881 0.9377635
0.0134345 0.3383665 0.9409913
0.0123223 0.3575706 0.9386852
0.0121852 0.3603512 0.9382654
0.0117538 0.3584681 0.9388191
0.0117449 0.3589069 0.9387457
0.0117301 0.3593870 0.9386651
0.0117262 0.3598767 0.9385770
0.0149504 0.3466686 0.9387524
0.0149836 0.3471991 0.9386567
0.0149987 0.3477320 0.9385715
0.0150083 0.3482673 0.9384917
0.0150136 0.3488084 0.9384143
0.0149945 0.3493817 0.9383510
0.0149929 0.3499434 0.9382821
0.0146011 0.3444194 0.9392958
0.0146521 0.3449807 0.9391766
0.0146842 0.3455410 0.9390687
0.0147034 0.3461093 0.9389680
0.0145765 0.3509876 0.9383679
0.0145461 0.3515984 0.9383083
0.0145189 0.3522098 0.9382486
0.0143465 0.3426125 0.9397408
0.0143988 0.3431938 0.9396109
0.0144414 0.3437637 0.9394899
0.0140164 0.3534626 0.9383544
0.0139798 0.3540816 0.9382966
0.0134534 0.3625437 0.9372327
0.0133821 0.3631070 0.9371338
0.0133166 0.3636481 0.9370420
0.0132518 0.3641797 0.9369458
0.0131977 0.3647083 0.9368434
0.0131612 0.3652618 0.9367275
0.0140394 0.3389031 0.9405814
0.0140743 0.3395292 0.9404467
0.0141142 0.3401426 0.9403116
0.0141634 0.3407482 0.9401736
0.0142093 0.3413467 0.9400395
0.0142499 0.3419372 0.9399122
0.0134393 0.3553470 0.9384188
0.0134031 0.3559509 0.9383594
0.0133682 0.3565604 0.9382920
0.0131379 0.3608088 0.9377254
0.0130963 0.3613649 0.9376395
0.0130434 0.3619176 0.9375451
0.0139930 0.3382569 0.9407260
0.0127994 0.3576261 0.9384307
0.0126837 0.3603173 0.9380348
0.0122422 0.3584971 0.9385774
0.0122309 0.3589072 0.9385128
0.0122132 0.3593730 0.9384374
0.0122076 0.3598573 0.9383521
0.0154601 0.3461087 0.9385716
0.0155076 0.3466233 0.9384675
0.0155346 0.3471579 0.9383751
0.0155471 0.3476988 0.9382898
0.0155485 0.3482552 0.9382114
0.0155498 0.3488170 0.9381332
0.0155317 0.3494060 0.9380665
0.0155210 0.3499897 0.9379983
0.0155049 0.3505715 0.9379358
0.0154893 0.3511521 0.9378725
0.0151616 0.3443632 0.9390141
0.0152107 0.3449188 0.9388948
0.0152387 0.3454739 0.9387882
0.0150287 0.3523233 0.9379770
0.0150010 0.3529422 0.9379201
0.0149751 0.3535600 0.9378596
0.0143502 0.3636788 0.9366549
0.0142715 0.3642589 0.9365671
0.0141976 0.3648293 0.9364751
0.0141311 0.3653942 0.9363778
0.0149159 0.3425329 0.9394624
0.0149699 0.3431066 0.9393317
0.0150131 0.3436692 0.9392108
0.0144419 0.3548293 0.9379723
0.0140631 0.3618883 0.9371274
0.0139958 0.3624784 0.9370309
0.0139268 0.3630494 0.9369397
0.0145901 0.3387914 0.9403239
0.0146367 0.3394276 0.9401801
0.0146841 0.3400465 0.9400395
0.0147386 0.3406522 0.9398982
0.0147888 0.3412461 0.9397622
0.0148330 0.3418285 0.9396322
0.0138795 0.3560513 0.9380990
0.0138442 0.3566466 0.9380372
0.0138151 0.3572448 0.9379731
0.0137857 0.3578441 0.9379088
0.0137603 0.3584453 0.9378342
0.0136823 0.3601824 0.9375916
0.0136439 0.3607688 0.9375013
0.0136120 0.3613208 0.9374233
0.0145730 0.3381527 0.9404538
0.0131891 0.3592641 0.9379833
0.0131781 0.3597762 0.9379007
0.0163521 0.3476470 0.9378789
0.0163793 0.3481298 0.9377965
0.0163858 0.3486511 0.9377214
0.0164106 0.3491371 0.9376453
0.0164103 0.3496600 0.9375795
0.0164019 0.3502139 0.9375167
0.0163932 0.3507586 0.9374565
0.0160133 0.3460567 0.9382930
0.0160552 0.3465736 0.9381913
0.0160772 0.3471128 0.9380989
0.0159843 0.3518382 0.9375418
0.0157245 0.3442937 0.9387345
0.0157786 0.3448365 0.9386146
0.0158072 0.3453849 0.9385094
0.0155002 0.3530575 0.9376453
0.0154719 0.3536823 0.9375898
0.0154457 0.3543104 0.9375306
0.0150433 0.3623771 0.9366382
0.0149768 0.3629980 0.9365586
0.0149039 0.3636047 0.9364721
0.0148321 0.3641965 0.9363867
0.0147638 0.3647838 0.9363016
0.0147023 0.3653790 0.9362077
0.0155452 0.3430110 0.9390522
0.0155904 0.3435641 0.9389306
0.0149034 0.3555619 0.9376575
0.0148776 0.3561828 0.9375965
0.0148510 0.3568168 0.9375305
0.0147187 0.3599974 0.9371654
0.0146780 0.3606154 0.9370857
0.0146352 0.3612306 0.9370071
0.0145791 0.3618390 0.9369186
0.0152006 0.3393243 0.9399130
0.0152572 0.3399486 0.9397650
0.0153191 0.3405529 0.9396193
0.0153756 0.3411403 0.9394809
0.0154262 0.3417113 0.9393493
0.0154658 0.3422678 0.9392266
0.0142730 0.3578849 0.9376701
0.0142503 0.3584668 0.9376009
0.0142231 0.3590375 0.9375336
0.0142040 0.3596018 0.9374605
0.0151580 0.3380505 0.9401777
0.0152080 0.3386720 0.9400339
0.0168988 0.3476095 0.9376028
0.0169215 0.3481064 0.9375223
0.0169303 0.3486357 0.9374451
0.0169474 0.3491511 0.9373704
0.0169442 0.3496944 0.9373051
0.0169358 0.3502606 0.9372416
0.0169230 0.3508278 0.9371814
0.0165794 0.3459860 0.9380127
0.0166159 0.3465027 0.9379134
0.0166329 0.3470474 0.9378222
0.0164949 0.3519380 0.9372690
0.0163018 0.3442106 0.9384509
0.0163523 0.3447406 0.9383347
0.0163800 0.3452803 0.9382319
0.0160070 0.3531661 0.9373823
0.0159705 0.3537970 0.9373284
0.0159396 0.3544288 0.9372734
0.0155781 0.3623153 0.9364417
0.0155107 0.3629366 0.9363573
0.0154420 0.3635468 0.9362785
0.0153751 0.3641494 0.9361953
0.0153096 0.3647524 0.9361140
0.0152518 0.3653574 0.9360141
0.0161320 0.3429031 0.9387704
0.0161737 0.3434455 0.9386504
0.0153863 0.3556613 0.9374047
0.0153574 0.3562698 0.9373477
0.0153269 0.3568879 0.9372867
0.0152034 0.3599735 0.9369437
0.0151705 0.3605852 0.9368669
0.0151324 0.3611963 0.9367939
0.0150812 0.3618020 0.9367161
0.0159096 0.3404489 0.9393389
0.0159681 0.3410281 0.9392000
0.0160192 0.3415884 0.9390686
0.0160628 0.3421334 0.9389456
0.0147495 0.3579214 0.9374443
0.0147256 0.3584850 0.9373766
0.0146987 0.3590429 0.9373092
0.0146819 0.3595950 0.9372409
0.0158656 0.3391713 0.9396058
0.0159167 0.3397483 0.9394694
0.0158458 0.3379631 0.9398483
0.0158909 0.3385223 0.9397180
0.0174819 0.3475496 0.9373154
0.0174961 0.3480590 0.9372369
0.0174961 0.3486060 0.9371634
0.0175002 0.3491541 0.9370923
0.0174889 0.3497232 0.9370279
0.0174766 0.3503069 0.9369655
0.0174625 0.3508959 0.9369046
0.0171636 0.3458944 0.9377281
0.0171903 0.3464137 0.9376319
0.0171994 0.3469597 0.9375433
0.0170030 0.3520242 0.9370034
0.0169792 0.3526571 0.9369508
0.0169583 0.3532875 0.9368977
0.0168951 0.3441049 0.9381667
0.0169345 0.3446283 0.9380562
0.0169524 0.3451632 0.9379568
0.0164269 0.3545310 0.9370258
0.0164002 0.3551617 0.9369706
0.0163798 0.3557936 0.9369136
0.0163608 0.3564350 0.9368539
0.0162284 0.3603409 0.9364609
0.0161903 0.3609928 0.9363940
0.0161485 0.3616343 0.9363242
0.0160935 0.3622685 0.9362464
0.0160369 0.3628953 0.9361738
0.0159771 0.3635108 0.9361003
0.0159214 0.3641272 0.9360245
0.0158661 0.3647478 0.9359465
0.0158180 0.3653866 0.9358489
0.0167243 0.3427806 0.9384884
0.0167608 0.3433129 0.9383737
0.0157778 0.3575454 0.9369962
0.0157579 0.3581466 0.9369347
0.0157391 0.3587593 0.9368729
0.0157138 0.3593637 0.9368019
0.0156965 0.3599666 0.9367338
0.0165085 0.3403402 0.9390551
0.0165638 0.3409079 0.9389192
0.0166117 0.3414584 0.9387912
0.0166527 0.3419935 0.9386699
0.0164620 0.3390611 0.9393250
0.0165118 0.3396256 0.9391909
0.0164468 0.3378694 0.9395633
0.0164943 0.3384157 0.9394335
0.0183312 0.3480522 0.9368182
0.0183648 0.3484790 0.9367431
0.0183772 0.3489757 0.9366734
0.0184003 0.3494685 0.9366012
0.0183961 0.3500034 0.9365400
0.0183984 0.3505305 0.9364810
0.0180437 0.3474787 0.9370418
0.0179699 0.3515641 0.9365781
0.0179499 0.3521837 0.9365247
0.0179372 0.3528019 0.9364696
0.0177460 0.3457837 0.9374518
0.0177667 0.3463047 0.9373576
0.0177673 0.3468607 0.9372730
0.0174349 0.3540203 0.9365897
0.0174167 0.3546589 0.9365373
0.0173998 0.3553045 0.9364792
0.0173878 0.3559608 0.9364231
0.0172062 0.3613835 0.9359294
0.0171629 0.3620455 0.9358637
0.0171154 0.3626995 0.9358027
0.0170604 0.3633438 0.9357411
0.0170025 0.3639827 0.9356758
0.0169457 0.3646203 0.9356079
0.0168920 0.3652605 0.9355319
0.0175204 0.3444996 0.9377805
0.0175332 0.3450318 0.9376851
0.0168271 0.3571328 0.9365661
0.0168088 0.3577692 0.9365057
0.0167943 0.3584112 0.9364493
0.0167707 0.3590564 0.9363840
0.0167492 0.3596942 0.9363156
0.0167246 0.3603276 0.9362494
0.0166926 0.3609679 0.9361837
0.0173179 0.3426462 0.9382123
0.0173508 0.3431702 0.9381006
0.0173649 0.3437017 0.9379985
0.0171572 0.3407818 0.9386421
0.0172022 0.3413211 0.9385167
0.0172411 0.3418471 0.9383984
0.0171412 0.3400400 0.9387926
0.0170454 0.3377769 0.9392800
0.0170952 0.3383104 0.9391510
0.0171433 0.3388355 0.9390246
0.0171947 0.3393597 0.9388958
0.0189289 0.3479867 0.9365301
0.0189444 0.3484395 0.9364604
0.0189510 0.3489513 0.9363911
0.0189575 0.3494728 0.9363256
0.0189457 0.3500222 0.9362658
0.0189377 0.3505765 0.9362112
0.0186175 0.3473851 0.9367678
0.0184829 0.3516303 0.9363202
0.0184627 0.3522638 0.9362678
0.0184450 0.3528899 0.9362154
0.0183267 0.3456546 0.9371793
0.0183333 0.3461800 0.9370915
0.0183242 0.3467365 0.9370114
0.0179285 0.3541118 0.9363470
0.0179042 0.3547508 0.9362936
0.0178854 0.3553889 0.9362412
0.0178719 0.3560355 0.9361893
0.0177152 0.3613434 0.9357357
0.0176807 0.3620035 0.9356762
0.0176421 0.3626557 0.9356188
0.0175991 0.3633025 0.9355592
0.0175524 0.3639449 0.9354968
0.0175058 0.3645892 0.9354291
0.0174639 0.3652420 0.9353527
0.0181026 0.3443577 0.9375115
0.0181077 0.3448861 0.9374183
0.0173165 0.3571824 0.9363318
0.0173004 0.3578005 0.9362757
0.0172894 0.3584308 0.9362212
0.0172694 0.3590653 0.9361577
0.0172527 0.3596974 0.9360965
0.0172344 0.3603255 0.9360370
0.0172110 0.3609598 0.9359772
0.0179078 0.3425046 0.9379396
0.0179357 0.3430191 0.9378324
0.0179483 0.3435390 0.9377327
0.0178161 0.3416968 0.9381369
0.0177131 0.3399075 0.9385278
0.0177495 0.3404222 0.9384105
0.0177783 0.3409375 0.9382980
0.0176157 0.3376870 0.9390101
0.0176622 0.3382152 0.9388838
0.0177068 0.3387300 0.9387597
0.0177582 0.3392389 0.9386347
0.0195252 0.3478903 0.9362531
0.0195216 0.3483743 0.9361884
0.0195104 0.3489153 0.9361226
0.0195021 0.3494704 0.9360620
0.0194855 0.3500364 0.9360030
0.0194677 0.3506178 0.9359499
0.0194577 0.3512073 0.9358948
0.0191922 0.3462449 0.9366559
0.0191918 0.3467513 0.9365777
0.0191823 0.3472813 0.9365036
0.0189654 0.3523364 0.9360192
0.0189443 0.3529723 0.9359688
0.0189262 0.3536109 0.9359210
0.0189116 0.3542499 0.9358721
0.0188997 0.3548952 0.9358214
0.0187223 0.3616923 0.9353170
0.0186923 0.3623622 0.9352652
0.0186559 0.3630264 0.9352144
0.0186178 0.3636908 0.9351618
0.0185743 0.3643523 0.9351055
0.0185308 0.3650062 0.9350524
0.0188848 0.3445095 0.9370912
0.0189057 0.3450054 0.9369982
0.0189084 0.3455103 0.9369142
0.0183616 0.3561013 0.9359630
0.0183475 0.3567401 0.9359113
0.0183357 0.3573859 0.9358602
0.0183240 0.3580387 0.9358101
0.0183101 0.3586923 0.9357550
0.0182923 0.3593498 0.9357002
0.0182778 0.3600069 0.9356492
0.0182564 0.3606627 0.9355946
0.0182345 0.3613186 0.9355403
0.0186677 0.3436984 0.9373424
0.0184847 0.3423582 0.9376760
0.0184983 0.3428656 0.9375761
0.0183681 0.3415461 0.9378858
0.0182679 0.3397777 0.9382739
0.0182970 0.3402843 0.9381615
0.0183157 0.3407898 0.9380552
0.0181570 0.3376086 0.9387530
0.0181990 0.3381200 0.9386318
0.0182414 0.3386196 0.9385123
0.0182838 0.3391154 0.9383948
0.0200833 0.3472969 0.9360619
0.0200881 0.3477904 0.9359912
0.0200752 0.3483018 0.9359291
0.0199662 0.3512582 0.9356466
0.0199462 0.3518793 0.9355944
0.0199287 0.3524991 0.9355478
0.0199156 0.3531210 0.9355014
0.0197726 0.3456085 0.9364709
0.0197738 0.3461073 0.9363912
0.0197570 0.3466227 0.9363205
0.0194092 0.3543316 0.9356307
0.0193926 0.3549743 0.9355845
0.0193800 0.3556197 0.9355373
0.0193688 0.3562752 0.9354893
0.0193601 0.3569391 0.9354460
0.0193479 0.3576084 0.9353989
0.0193374 0.3582841 0.9353545
0.0193212 0.3589648 0.9353076
0.0193032 0.3596400 0.9352614
0.0192805 0.3603144 0.9352090
0.0192611 0.3609874 0.9351643
0.0192399 0.3616606 0.9351158
0.0192143 0.3623273 0.9350678
0.0191845 0.3629914 0.9350188
0.0191532 0.3636557 0.9349699
0.0191184 0.3643178 0.9349182
0.0190848 0.3649771 0.9348649
0.0194848 0.3443546 0.9368234
0.0194901 0.3448455 0.9367375
0.0192482 0.3435336 0.9370820
0.0190544 0.3421996 0.9374208
0.0190548 0.3427012 0.9373286
0.0188798 0.3403845 0.9378506
0.0189009 0.3408945 0.9377421
0.0189097 0.3413859 0.9376446
0.0188094 0.3396452 0.9380281
0.0186826 0.3375281 0.9385048
0.0187164 0.3380284 0.9383902
0.0187502 0.3385112 0.9382785
0.0187838 0.3389897 0.9381683
0.0206601 0.3471635 0.9357994
0.0206450 0.3476757 0.9357354
0.0206129 0.3482193 0.9356799
0.0204721 0.3513030 0.9354012
0.0204518 0.3519426 0.9353508
0.0204347 0.3525728 0.9353054
0.0204184 0.3532008 0.9352600
0.0203601 0.3454549 0.9362100
0.0203441 0.3459547 0.9361363
0.0203138 0.3464757 0.9360708
0.0199131 0.3544082 0.9353976
0.0198957 0.3550470 0.9353545
0.0198826 0.3556848 0.9353096
0.0198716 0.3563273 0.9352652
0.0198652 0.3569803 0.9352254
0.0198557 0.3576367 0.9351835
0.0198464 0.3582991 0.9351414
0.0198348 0.3589658 0.9350965
0.0198217 0.3596345 0.9350513
0.0198038 0.3603021 0.9350033
0.0197899 0.3609701 0.9349625
0.0197741 0.3616379 0.9349193
0.0197536 0.3623031 0.9348751
0.0197315 0.3629681 0.9348308
0.0197081 0.3636332 0.9347851
0.0196829 0.3642975 0.9347354
0.0196579 0.3649623 0.9346814
0.0200723 0.3441841 0.9365632
0.0200585 0.3446785 0.9364864
0.0198151 0.3433607 0.9368321
0.0196103 0.3420388 0.9371732
0.0195997 0.3425319 0.9370880
0.0194286 0.3402467 0.9376023
0.0194369 0.3407489 0.9375024
0.0194340 0.3412282 0.9374129
0.0192079 0.3379455 0.9381593
0.0192304 0.3384122 0.9380565
0.0192504 0.3388695 0.9379578
0.0192660 0.3393354 0.9378597
0.0191843 0.3374791 0.9382621
0.0212834 0.3460199 0.9356716
0.0212568 0.3465105 0.9356105
0.0212219 0.3470217 0.9355525
0.0209038 0.3539087 0.9349835
0.0208925 0.3545487 0.9349425
0.0208833 0.3551912 0.9349021
0.0208759 0.3558415 0.9348627
0.0208671 0.3565047 0.9348246
0.0208575 0.3571729 0.9347858
0.0208479 0.3578498 0.9347513
0.0208361 0.3585368 0.9347161
0.0208220 0.3592182 0.9346828
0.0208061 0.3599009 0.9346446
0.0207917 0.3605831 0.9346070
0.0207802 0.3612620 0.9345719
0.0207664 0.3619426 0.9345379
0.0207484 0.3626170 0.9345028
0.0207264 0.3632884 0.9344677
0.0207019 0.3639601 0.9344311
0.0206738 0.3646310 0.9343929
0.0206480 0.3652878 0.9343601
0.0209368 0.3452807 0.9359579
0.0206430 0.3440020 0.9363119
0.0206085 0.3444993 0.9362434
0.0203601 0.3431821 0.9365958
0.0201429 0.3418643 0.9369406
0.0201155 0.3423564 0.9368643
0.0199601 0.3401027 0.9373644
0.0199549 0.3405944 0.9372731
0.0199334 0.3410667 0.9371947
0.0196663 0.3378777 0.9379421
0.0196795 0.3383282 0.9378475
0.0196921 0.3387648 0.9377564
0.0196989 0.3392127 0.9376670
0.0196001 0.3374391 0.9380607
0.0218538 0.3458545 0.9354268
0.0218104 0.3463533 0.9353685
0.0213690 0.3572105 0.9345668
0.0213614 0.3578748 0.9345353
0.0213530 0.3585467 0.9345040
0.0213431 0.3592196 0.9344761
0.0213292 0.3598951 0.9344415
0.0213173 0.3605707 0.9344073
0.0213084 0.3612436 0.9343754
0.0212987 0.3619188 0.9343456
0.0212853 0.3625894 0.9343157
0.0212703 0.3632609 0.9342849
0.0212532 0.3639329 0.9342527
0.0212327 0.3646054 0.9342175
0.0215740 0.3441424 0.9358380
0.0215320 0.3446153 0.9357785
0.0214897 0.3451080 0.9357182
0.0209661 0.3420225 0.9365071
0.0209353 0.3425077 0.9364344
0.0208957 0.3429914 0.9363671
0.0204892 0.3399594 0.9371289
0.0204690 0.3404358 0.9370487
0.0204414 0.3408943 0.9369758
0.0203021 0.3392685 0.9373546
0.0201362 0.3373479 0.9378098
0.0201449 0.3378069 0.9377160
0.0201487 0.3382443 0.9376285
0.0201616 0.3386629 0.9375409
0.0224080 0.3456786 0.9351869
0.0223497 0.3461889 0.9351363
0.0219057 0.3572524 0.9343379
0.0219005 0.3579060 0.9343087
0.0218943 0.3585649 0.9342781
0.0218868 0.3592316 0.9342518
0.0218761 0.3599021 0.9342211
0.0218664 0.3605722 0.9341910
0.0218582 0.3612416 0.9341629
0.0218501 0.3619124 0.9341363
0.0218400 0.3625821 0.9341081
0.0218288 0.3632528 0.9340790
0.0218162 0.3639234 0.9340484
0.0218017 0.3645944 0.9340158
0.0221447 0.3439440 0.9355970
0.0220846 0.3444220 0.9355452
0.0220245 0.3449250 0.9354924
0.0215075 0.3418288 0.9362768
0.0214600 0.3423087 0.9362135
0.0214046 0.3427925 0.9361543
0.0209896 0.3398063 0.9369101
0.0209602 0.3402710 0.9368361
0.0209032 0.3407141 0.9367801
0.0207836 0.3391305 0.9371419
0.0205803 0.3373061 0.9375936
0.0205862 0.3377315 0.9375091
0.0205896 0.3381533 0.9374257
0.0205826 0.3385595 0.9373506
0.0230116 0.3449954 0.9350078
0.0229406 0.3455010 0.9349630
0.0228650 0.3460328 0.9349149
0.0224442 0.3599174 0.9339947
0.0224376 0.3605822 0.9339676
0.0224306 0.3612490 0.9339419
0.0224248 0.3619154 0.9339201
0.0224188 0.3625842 0.9338973
0.0224119 0.3632535 0.9338742
0.0224041 0.3639219 0.9338497
0.0223957 0.3645895 0.9338225
0.0226873 0.3437300 0.9353719
0.0226106 0.3442216 0.9353257
0.0223082 0.3429163 0.9356953
0.0220274 0.3416295 0.9360599
0.0219626 0.3421075 0.9360051
0.0217039 0.3408531 0.9363595
0.0214546 0.3396598 0.9367070
0.0214080 0.3401002 0.9366458
0.0211976 0.3389988 0.9369607
0.0209971 0.3372621 0.9373922
0.0210008 0.3376622 0.9373142
0.0209866 0.3380662 0.9372428
0.0209687 0.3384737 0.9371739
0.0236973 0.3438256 0.9348756
0.0236132 0.3443029 0.9348366
0.0235350 0.3448014 0.9347921
0.0230029 0.3645931 0.9336168
0.0232893 0.3430332 0.9352040
0.0229584 0.3417249 0.9355914
0.0228875 0.3422158 0.9355387
0.0221828 0.3406656 0.9361605
0.0219683 0.3390434 0.9365691
0.0219157 0.3394875 0.9365109
0.0218584 0.3399205 0.9364565
0.0216878 0.3380459 0.9368951
0.0216579 0.3384541 0.9368333
0.0214063 0.3372180 0.9371958
0.0214158 0.3375846 0.9371213
0.0242191 0.3436050 0.9346651
0.0241315 0.3441011 0.9346252
0.0240443 0.3446168 0.9345821
0.0236096 0.3646108 0.9333947
0.0237975 0.3428146 0.9350012
0.0234674 0.3415221 0.9353828
0.0233886 0.3420061 0.9353340
0.0226336 0.3404777 0.9359746
0.0224017 0.3389009 0.9363804
0.0223403 0.3393314 0.9363315
0.0222758 0.3397553 0.9362832
0.0220969 0.3379590 0.9367072
0.0220583 0.3383399 0.9366556
0.0217996 0.3371735 0.9370060
0.0217966 0.3375345 0.9369393
0.0247303 0.3433914 0.9344624
0.0246326 0.3438988 0.9344236
0.0242824 0.3425944 0.9348069
0.0239504 0.3413137 0.9351864
0.0238558 0.3417970 0.9351484
0.0235367 0.3405652 0.9355201
0.0232111 0.3394015 0.9358900
0.0231366 0.3398569 0.9358421
0.0229222 0.3379066 0.9363080
0.0228690 0.3383421 0.9362535
0.0228145 0.3387541 0.9362039
0.0225507 0.3370473 0.9366536
0.0225278 0.3374574 0.9365877
0.0253244 0.3426779 0.9343025
0.0249711 0.3413930 0.9346861
0.0248646 0.3418848 0.9346520
0.0245124 0.3406224 0.9350370
0.0241579 0.3394302 0.9354194
0.0240783 0.3399076 0.9353726
0.0237195 0.3387894 0.9357527
0.0233926 0.3373700 0.9361702
0.0233413 0.3378069 0.9361157
0.0232805 0.3382209 0.9360719
0.0258075 0.3424581 0.9341125
0.0254372 0.3411714 0.9345021
0.0253287 0.3416612 0.9344708
0.0249789 0.3404190 0.9348487
0.0246140 0.3392561 0.9352295
0.0245242 0.3397224 0.9351897
0.0241521 0.3386359 0.9355649
0.0238094 0.3372795 0.9359770
0.0237539 0.3376931 0.9359303
0.0236984 0.3380920 0.9358877
0.0264937 0.3412167 0.9339961
0.0263849 0.3417298 0.9339624
0.0260020 0.3404589 0.9343529
0.0256095 0.3392450 0.9347486
0.0255146 0.3397428 0.9347089
0.0251227 0.3386250 0.9350939
0.0247802 0.3371720 0.9355128
0.0247068 0.3376197 0.9354709
0.0246385 0.3380694 0.9354257
0.0270633 0.3404805 0.9338454
0.0266556 0.3392223 0.9342452
0.0265603 0.3397450 0.9342052
0.0261459 0.3385699 0.9346005
0.0257198 0.3375172 0.9349860
0.0256384 0.3380077 0.9349451
0.0275255 0.3402721 0.9336642
0.0271088 0.3390391 0.9340576
0.0270142 0.3395454 0.9340182
0.0265922 0.3384069 0.9344113
0.0261614 0.3374060 0.9347857
0.0260793 0.3378613 0.9347507
0.0279807 0.3400626 0.9334808
0.0276452 0.3383504 0.9339154
0.0275534 0.3388561 0.9338766
0.0274617 0.3393492 0.9338405
0.0271908 0.3372786 0.9343021
0.0271133 0.3377803 0.9342598
0.0287158 0.3382695 0.9334113
0.0286307 0.3388175 0.9333665
0.0285416 0.3393441 0.9333276
0.0281803 0.3376678 0.9337626
0.0291771 0.3381093 0.9332172
0.0290957 0.3386325 0.9331760
0.0290132 0.3391431 0.9331376
0.0286451 0.3375181 0.9335589
0.0297257 0.3374153 0.9330601
0.0296482 0.3379442 0.9330191
0.0302257 0.3372604 0.9328424
0.0307375 0.3371066 0.9326223
-0.1462546 0.2946649 1.0186256
-0.1455887 0.2931983 1.0185498
-0.1456070 0.2938987 1.0184674
-0.1456151 0.2945921 1.0183874
-0.1449423 0.2931347 1.0183160
-0.1449564 0.2938317 1.0182316
-0.1449607 0.2945224 1.0181494
-0.1442909 0.2930733 1.0180827
-0.1442980 0.2937675 1.0179937
-0.1442972 0.2944561 1.0179082
-0.1436007 0.2909377 1.0181510
-0.1436089 0.2916207 1.0180454
-0.1436210 0.2923210 1.0179434
-0.1436279 0.2930129 1.0178453
-0.1436300 0.2937060 1.0177526
-0.1436251 0.2943942 1.0176661
-0.1429284 0.2908766 1.0179217
-0.1429390 0.2915607 1.0178152
-0.1429489 0.2922599 1.0177101
-0.1429528 0.2929528 1.0176101
-0.1429478 0.2943343 1.0174253
-0.1422533 0.2908140 1.0176937
