0.1136634 0.3217242 0.9281666
0.1136853 0.3222993 0.9280582
0.1137028 0.3228874 0.9279477
0.1135983 0.3110816 0.9301749
0.1136217 0.3116943 0.9300730
0.1136492 0.3123125 0.9299683
0.1136721 0.3129424 0.9298585
0.1138886 0.3198959 0.9285524
0.1139116 0.3204506 0.9284462
0.1139327 0.3210078 0.9283406
0.1136038 0.3314920 0.9265412
0.1136211 0.3321181 0.9264671
0.1136365 0.3327452 0.9263955
0.1136478 0.3333778 0.9263250
0.1136590 0.3340121 0.9262585
0.1136680 0.3346489 0.9261963
0.1136765 0.3352850 0.9261370
0.1136824 0.3359280 0.9260754
0.1136896 0.3365641 0.9260215
0.1136948 0.3372029 0.9259689
0.1136991 0.3378432 0.9259176
0.1137000 0.3384860 0.9258701
0.1136936 0.3391267 0.9258140
0.1136886 0.3397501 0.9257643
0.1136817 0.3403758 0.9257155
0.1136315 0.3261474 0.9273401
0.1136553 0.3267205 0.9272439
0.1136790 0.3273059 0.9271479
0.1137011 0.3279121 0.9270520
0.1137221 0.3285271 0.9269578
0.1137394 0.3291514 0.9268644
0.1137552 0.3297821 0.9267738
0.1137687 0.3304179 0.9266859
0.1137807 0.3310564 0.9266014
0.1138052 0.3416041 0.9256130
0.1137907 0.3422435 0.9255621
0.1137741 0.3428827 0.9255121
0.1137556 0.3435196 0.9254629
0.1138338 0.3243482 0.9276894
0.1138548 0.3249198 0.9275833
0.1138753 0.3255007 0.9274794
0.1138433 0.3446476 0.9253640
0.1138149 0.3452541 0.9253158
0.1140477 0.3224904 0.9280631
0.1140679 0.3230627 0.9279553
0.1140879 0.3236387 0.9278470
0.1143068 0.3217655 0.9282333
0.1142487 0.3110994 0.9302399
0.1142726 0.3117061 0.9301397
0.1143007 0.3123187 0.9300373
0.1143262 0.3129410 0.9299312
0.1145189 0.3199351 0.9286198
0.1145403 0.3204924 0.9285117
0.1145633 0.3210502 0.9284048
0.1142873 0.3327598 0.9264148
0.1143007 0.3333899 0.9263398
0.1143132 0.3340225 0.9262695
0.1143246 0.3346567 0.9262049
0.1143328 0.3352918 0.9261415
0.1143378 0.3359346 0.9260737
0.1143456 0.3365697 0.9260155
0.1143513 0.3372078 0.9259585
0.1143562 0.3378476 0.9259037
0.1143571 0.3384898 0.9258525
0.1143504 0.3391292 0.9257879
0.1143449 0.3397521 0.9257351
0.1143371 0.3403772 0.9256830
0.1142709 0.3261846 0.9273932
0.1142974 0.3267538 0.9272943
0.1143235 0.3273343 0.9271966
0.1143485 0.3279373 0.9270979
0.1143734 0.3285487 0.9270006
0.1143954 0.3291680 0.9269053
0.1144139 0.3297949 0.9268123
0.1144289 0.3304279 0.9267220
0.1144405 0.3310647 0.9266330
0.1144507 0.3317023 0.9265483
0.1144584 0.3323479 0.9264669
0.1144668 0.3416046 0.9255733
0.1144505 0.3422428 0.9255191
0.1144322 0.3428816 0.9254656
0.1144140 0.3435198 0.9254127
0.1144848 0.3243870 0.9277498
0.1145048 0.3249573 0.9276436
0.1145272 0.3255346 0.9275364
0.1144973 0.3446341 0.9253106
0.1144586 0.3452332 0.9252616
0.1147026 0.3225292 0.9281290
0.1147212 0.3231044 0.9280188
0.1147413 0.3236798 0.9279088
0.1149546 0.3218075 0.9282987
0.1148954 0.3111184 0.9303010
0.1149217 0.3117216 0.9302030
0.1149520 0.3123303 0.9301028
0.1149797 0.3129482 0.9299976
0.1151517 0.3199742 0.9286874
0.1151718 0.3205367 0.9285769
0.1151986 0.3210967 0.9284681
0.1149402 0.3327748 0.9264348
0.1149554 0.3334026 0.9263558
0.1149693 0.3340333 0.9262820
0.1149818 0.3346658 0.9262122
0.1149894 0.3353001 0.9261428
0.1149936 0.3359423 0.9260688
0.1150028 0.3365755 0.9260074
0.1150099 0.3372122 0.9259466
0.1150155 0.3378511 0.9258869
0.1150163 0.3384930 0.9258302
0.1150097 0.3391312 0.9257642
0.1149171 0.3262231 0.9274463
0.1149440 0.3267884 0.9273456
0.1149703 0.3273639 0.9272465
0.1149950 0.3279635 0.9271458
0.1150224 0.3285719 0.9270459
0.1150475 0.3291876 0.9269480
0.1150691 0.3298111 0.9268520
0.1150867 0.3304398 0.9267585
0.1150994 0.3310743 0.9266657
0.1151108 0.3317094 0.9265767
0.1151188 0.3323529 0.9264901
0.1151532 0.3403161 0.9256494
0.1151420 0.3409625 0.9255915
0.1151282 0.3416038 0.9255343
0.1151113 0.3422414 0.9254762
0.1150925 0.3428798 0.9254191
0.1151414 0.3244256 0.9278101
0.1151578 0.3249951 0.9277022
0.1151799 0.3255690 0.9275940
0.1151718 0.3440251 0.9253095
0.1151386 0.3446102 0.9252584
0.1150919 0.3452037 0.9252073
0.1153638 0.3225661 0.9281954
0.1153778 0.3231446 0.9280823
0.1153953 0.3237207 0.9279719
0.1156035 0.3218482 0.9283639
0.1155420 0.3111396 0.9303577
0.1155705 0.3117395 0.9302612
0.1156029 0.3123445 0.9301633
0.1156327 0.3129586 0.9300607
0.1157856 0.3200109 0.9287528
0.1158014 0.3205784 0.9286409
0.1158294 0.3211403 0.9285306
0.1155899 0.3327939 0.9264559
0.1156083 0.3334184 0.9263739
0.1156238 0.3340457 0.9262949
0.1156379 0.3346772 0.9262201
0.1156468 0.3353087 0.9261465
0.1156520 0.3359482 0.9260689
0.1156618 0.3365802 0.9260027
0.1156698 0.3372162 0.9259375
0.1156761 0.3378544 0.9258726
0.1156785 0.3384963 0.9258090
0.1156720 0.3391320 0.9257396
0.1155568 0.3262528 0.9275012
0.1155850 0.3268171 0.9273968
0.1156129 0.3273900 0.9272956
0.1156388 0.3279891 0.9271923
0.1156683 0.3285962 0.9270897
0.1156968 0.3292081 0.9269893
0.1157217 0.3298280 0.9268904
0.1157429 0.3304523 0.9267938
0.1157577 0.3310829 0.9266987
0.1157691 0.3317166 0.9266059
0.1157783 0.3323566 0.9265156
0.1158138 0.3403172 0.9256186
0.1158020 0.3409619 0.9255568
0.1157878 0.3416022 0.9254958
0.1157702 0.3422388 0.9254331
0.1157515 0.3428768 0.9253732
0.1157956 0.3244566 0.9278689
0.1158091 0.3250268 0.9277594
0.1158299 0.3255998 0.9276502
0.1158169 0.3440048 0.9252594
0.1157810 0.3445830 0.9252063
0.1157296 0.3451696 0.9251538
0.1160234 0.3225953 0.9282594
0.1160326 0.3231780 0.9281439
0.1160491 0.3237567 0.9280324
0.1162560 0.3218839 0.9284269
0.1162048 0.3111647 0.9304132
0.1162307 0.3117635 0.9303178
0.1162610 0.3123670 0.9302216
0.1164313 0.3200449 0.9288166
0.1164483 0.3206201 0.9287027
0.1164761 0.3211873 0.9285910
0.1161889 0.3315801 0.9266468
0.1162172 0.3321963 0.9265592
0.1162419 0.3328124 0.9264740
0.1162612 0.3334365 0.9263899
0.1162793 0.3340608 0.9263072
0.1162950 0.3346894 0.9262283
0.1163049 0.3353178 0.9261508
0.1163114 0.3359540 0.9260692
0.1163217 0.3365848 0.9259990
0.1163300 0.3372197 0.9259305
0.1163357 0.3378563 0.9258606
0.1163385 0.3384968 0.9257913
0.1163329 0.3391300 0.9257182
0.1162505 0.3274142 0.9273442
0.1162796 0.3280124 0.9272386
0.1163119 0.3286207 0.9271332
0.1163432 0.3292302 0.9270302
0.1163715 0.3298480 0.9269286
0.1163955 0.3304680 0.9268292
0.1164139 0.3310939 0.9267318
0.1164757 0.3403168 0.9255883
0.1164628 0.3409599 0.9255232
0.1164473 0.3415990 0.9254580
0.1164284 0.3422361 0.9253914
0.1164087 0.3428746 0.9253264
0.1164764 0.3256281 0.9277048
0.1165020 0.3262179 0.9275929
0.1165313 0.3268174 0.9274815
0.1164611 0.3439782 0.9252105
0.1164179 0.3445444 0.9251551
0.1163664 0.3451281 0.9250998
0.1167022 0.3237907 0.9280914
0.1167235 0.3243730 0.9279764
0.1167525 0.3249625 0.9278612
0.1169106 0.3219170 0.9284895
0.1169277 0.3225012 0.9283724
0.1169517 0.3230852 0.9282565
0.1168846 0.3111850 0.9304670
0.1169042 0.3117863 0.9303723
0.1169285 0.3123903 0.9302765
0.1170803 0.3200771 0.9288787
0.1170971 0.3206593 0.9287637
0.1171239 0.3212315 0.9286505
0.1168363 0.3316089 0.9266741
0.1168658 0.3322239 0.9265829
0.1168927 0.3328369 0.9264945
0.1169150 0.3334561 0.9264067
0.1169352 0.3340771 0.9263198
0.1169519 0.3347023 0.9262366
0.1169631 0.3353272 0.9261553
0.1169708 0.3359598 0.9260704
0.1169815 0.3365893 0.9259956
0.1169906 0.3372234 0.9259224
0.1169966 0.3378594 0.9258485
0.1170007 0.3384995 0.9257736
0.1169956 0.3391292 0.9256962
0.1169248 0.3280355 0.9272853
0.1169586 0.3286461 0.9271770
0.1169909 0.3292538 0.9270714
0.1170219 0.3298697 0.9269670
0.1170482 0.3304859 0.9268650
0.1170688 0.3311077 0.9267647
0.1171370 0.3403155 0.9255591
0.1171233 0.3409577 0.9254895
0.1171068 0.3415972 0.9254208
0.1170884 0.3422357 0.9253506
0.1170662 0.3428732 0.9252819
0.1171268 0.3256544 0.9277599
0.1171517 0.3262441 0.9276461
0.1171808 0.3268427 0.9275327
0.1172123 0.3274513 0.9274197
0.1170851 0.3439424 0.9251645
0.1170359 0.3444996 0.9251090
0.1169812 0.3450808 0.9250494
0.1173580 0.3238226 0.9281493
0.1173763 0.3244067 0.9280334
0.1174039 0.3249962 0.9279167
0.1175661 0.3219471 0.9285513
0.1175805 0.3225365 0.9284325
0.1176032 0.3231233 0.9283147
0.1177291 0.3201073 0.9289396
0.1177443 0.3206966 0.9288230
0.1177678 0.3212726 0.9287089
0.1174833 0.3316426 0.9267002
0.1175168 0.3322541 0.9266059
0.1175461 0.3328641 0.9265139
0.1175708 0.3334801 0.9264223
0.1175917 0.3340964 0.9263323
0.1176083 0.3347178 0.9262450
0.1176218 0.3353371 0.9261601
0.1176311 0.3359655 0.9260722
0.1176428 0.3365931 0.9259929
0.1176525 0.3372265 0.9259155
0.1176588 0.3378619 0.9258350
0.1176639 0.3385016 0.9257537
0.1176616 0.3391306 0.9256747
0.1175628 0.3280586 0.9273308
0.1175996 0.3286739 0.9272190
0.1176339 0.3292807 0.9271108
0.1176694 0.3298943 0.9270038
0.1176997 0.3305059 0.9268991
0.1177236 0.3311234 0.9267959
0.1177959 0.3403134 0.9255303
0.1177816 0.3409547 0.9254567
0.1177643 0.3415946 0.9253841
0.1177425 0.3422321 0.9253092
0.1177184 0.3428694 0.9252373
0.1177728 0.3256763 0.9278136
0.1177981 0.3262679 0.9276984
0.1178278 0.3268668 0.9275830
0.1178599 0.3274713 0.9274688
0.1177052 0.3438981 0.9251210
0.1176525 0.3444493 0.9250639
0.1175938 0.3450294 0.9250010
0.1180108 0.3238508 0.9282060
0.1180275 0.3244378 0.9280879
0.1180547 0.3250292 0.9279701
0.1182236 0.3219736 0.9286110
0.1182371 0.3225704 0.9284901
0.1182602 0.3231620 0.9283707
0.1183811 0.3201345 0.9289989
0.1183981 0.3207325 0.9288807
0.1184224 0.3213168 0.9287649
0.1181938 0.3328898 0.9265326
0.1182204 0.3335029 0.9264377
0.1182435 0.3341160 0.9263436
0.1182617 0.3347342 0.9262517
0.1182794 0.3353477 0.9261640
0.1182908 0.3359718 0.9260740
0.1183035 0.3365975 0.9259912
0.1183144 0.3372295 0.9259092
0.1183219 0.3378641 0.9258243
0.1183282 0.3385039 0.9257370
0.1183281 0.3391315 0.9256530
0.1182718 0.3293108 0.9271498
0.1183129 0.3299228 0.9270406
0.1183483 0.3305300 0.9269340
0.1183768 0.3311437 0.9268283
0.1183982 0.3317614 0.9267241
0.1184134 0.3323865 0.9266212
0.1184543 0.3403107 0.9255037
0.1184384 0.3409518 0.9254252
0.1184196 0.3415913 0.9253477
0.1183961 0.3422284 0.9252692
0.1183712 0.3428658 0.9251945
0.1184374 0.3262941 0.9277486
0.1184688 0.3268925 0.9276312
0.1185023 0.3274924 0.9275157
0.1185404 0.3281086 0.9273990
0.1185791 0.3287224 0.9272840
0.1183199 0.3438474 0.9250799
0.1182614 0.3443912 0.9250221
0.1182098 0.3449805 0.9249526
0.1186583 0.3238741 0.9282620
0.1186751 0.3244662 0.9281420
0.1187028 0.3250596 0.9280224
0.1187398 0.3256591 0.9279035
0.1188790 0.3219953 0.9286693
0.1188933 0.3226001 0.9285465
0.1189183 0.3231980 0.9284255
0.1190343 0.3189212 0.9292985
0.1190334 0.3195449 0.9291770
0.1190422 0.3201612 0.9290558
0.1190629 0.3207683 0.9289363
0.1190903 0.3213616 0.9288191
0.1188431 0.3329166 0.9265535
0.1188714 0.3335272 0.9264556
0.1188963 0.3341367 0.9263579
0.1189151 0.3347513 0.9262605
0.1189360 0.3353591 0.9261697
0.1189512 0.3359777 0.9260777
0.1189654 0.3366017 0.9259909
0.1189773 0.3372324 0.9259041
0.1189855 0.3378658 0.9258129
0.1189922 0.3385044 0.9257220
0.1189569 0.3299541 0.9270768
0.1189961 0.3305570 0.9269683
0.1190288 0.3311659 0.9268606
0.1190527 0.3317796 0.9267537
0.1190708 0.3324002 0.9266479
0.1191219 0.3396621 0.9255625
0.1191084 0.3403081 0.9254771
0.1190916 0.3409495 0.9253954
0.1190708 0.3415902 0.9253143
0.1190454 0.3422267 0.9252325
0.1190167 0.3428626 0.9251545
0.1191448 0.3275112 0.9275645
0.1191843 0.3281298 0.9274449
0.1192257 0.3287432 0.9273280
0.1192600 0.3293522 0.9272128
0.1189221 0.3437862 0.9250439
0.1188630 0.3443322 0.9249815
0.1188096 0.3449242 0.9249073
0.1193875 0.3256853 0.9279553
0.1194279 0.3262944 0.9278343
0.1194726 0.3269148 0.9277112
0.1195359 0.3220122 0.9287278
0.1195483 0.3226248 0.9286028
0.1195722 0.3232297 0.9284798
0.1196054 0.3238340 0.9283572
0.1196474 0.3244424 0.9282343
0.1196948 0.3250567 0.9281111
0.1197138 0.3163274 0.9298387
0.1197117 0.3169923 0.9297194
0.1197078 0.3176497 0.9295988
0.1197019 0.3182964 0.9294776
0.1196924 0.3189353 0.9293549
0.1196908 0.3195638 0.9292330
0.1196997 0.3201854 0.9291111
0.1197206 0.3208003 0.9289904
0.1197468 0.3214023 0.9288715
0.1194924 0.3329436 0.9265748
0.1195202 0.3335494 0.9264739
0.1195454 0.3341556 0.9263739
0.1195651 0.3347665 0.9262688
0.1195899 0.3353685 0.9261746
0.1196091 0.3359822 0.9260803
0.1196265 0.3366041 0.9259883
0.1196399 0.3372337 0.9258965
0.1196491 0.3378669 0.9258023
0.1196570 0.3385064 0.9257042
0.1196009 0.3299833 0.9271152
0.1196424 0.3305845 0.9270041
0.1196790 0.3311896 0.9268938
0.1197065 0.3317996 0.9267842
0.1197282 0.3324164 0.9266760
0.1197795 0.3396597 0.9255413
0.1197652 0.3403034 0.9254534
0.1197468 0.3409438 0.9253676
0.1197215 0.3415836 0.9252829
0.1196929 0.3422187 0.9251979
0.1196594 0.3428510 0.9251155
0.1197922 0.3275330 0.9276121
0.1198302 0.3281521 0.9274905
0.1198717 0.3287658 0.9273715
0.1199085 0.3293740 0.9272546
0.1195252 0.3437143 0.9250122
0.1194605 0.3442631 0.9249422
0.1194158 0.3448622 0.9248672
0.1200358 0.3257089 0.9280073
0.1200734 0.3263187 0.9278842
0.1201159 0.3269368 0.9277601
0.1201983 0.3220257 0.9287855
0.1202067 0.3226451 0.9286589
0.1202269 0.3232565 0.9285339
0.1202562 0.3238653 0.9284096
0.1202945 0.3244762 0.9282852
0.1203383 0.3250898 0.9281610
0.1203731 0.3163465 0.9298872
0.1203709 0.3170071 0.9297704
0.1203670 0.3176617 0.9296516
0.1203603 0.3183080 0.9295313
0.1203514 0.3189485 0.9294094
0.1203489 0.3195814 0.9292876
0.1203564 0.3202081 0.9291655
0.1203746 0.3208288 0.9290437
0.1203979 0.3214384 0.9289232
0.1201653 0.3335732 0.9264914
0.1201920 0.3341759 0.9263897
0.1202140 0.3347812 0.9262792
0.1202426 0.3353772 0.9261845
0.1202642 0.3359868 0.9260891
0.1202843 0.3366063 0.9259926
0.1202988 0.3372358 0.9258958
0.1203089 0.3378686 0.9257971
0.1203174 0.3385108 0.9256931
0.1203238 0.3391389 0.9256005
0.1203276 0.3312159 0.9269254
0.1203586 0.3318222 0.9268134
0.1203844 0.3324344 0.9267020
0.1204036 0.3330529 0.9265926
0.1204210 0.3403001 0.9254313
0.1203985 0.3409399 0.9253409
0.1203697 0.3415781 0.9252538
0.1203362 0.3422106 0.9251650
0.1202982 0.3428367 0.9250798
0.1204768 0.3281752 0.9275350
0.1205175 0.3287901 0.9274137
0.1205558 0.3293980 0.9272947
0.1205910 0.3300039 0.9271764
0.1206189 0.3306134 0.9270583
0.1201464 0.3436580 0.9249740
0.1200779 0.3442121 0.9249048
0.1200226 0.3447989 0.9248307
0.1207210 0.3263416 0.9279335
0.1207600 0.3269582 0.9278080
0.1207978 0.3275754 0.9276832
0.1208628 0.3220356 0.9288423
0.1208667 0.3226622 0.9287140
0.1208822 0.3232803 0.9285871
0.1209069 0.3238940 0.9284611
0.1209402 0.3245077 0.9283352
0.1209798 0.3251219 0.9282096
0.1210178 0.3257368 0.9280841
0.1210197 0.3150700 0.9301484
0.1210274 0.3157161 0.9300427
0.1210326 0.3163648 0.9299334
0.1210303 0.3170210 0.9298188
0.1210264 0.3176729 0.9297020
0.1210192 0.3183190 0.9295828
0.1210113 0.3189611 0.9294619
0.1210081 0.3195979 0.9293403
0.1210139 0.3202293 0.9292181
0.1210290 0.3208556 0.9290956
0.1210490 0.3214722 0.9289735
0.1208115 0.3335989 0.9265106
0.1208387 0.3341977 0.9264056
0.1208619 0.3347984 0.9262956
0.1208923 0.3353898 0.9261933
0.1209169 0.3359967 0.9260952
0.1209413 0.3366136 0.9259952
0.1209581 0.3372411 0.9258939
0.1209701 0.3378731 0.9257910
0.1209791 0.3385168 0.9256828
0.1209902 0.3391514 0.9255860
0.1209761 0.3312435 0.9269575
0.1210090 0.3318463 0.9268437
0.1210379 0.3324546 0.9267304
0.1210610 0.3330689 0.9266195
0.1210742 0.3403004 0.9254070
0.1210444 0.3409384 0.9253150
0.1210134 0.3415725 0.9252244
0.1212028 0.3294241 0.9273347
0.1212391 0.3300274 0.9272145
0.1212707 0.3306332 0.9270947
0.1209066 0.3425047 0.9250950
0.1208373 0.3430534 0.9250194
0.1207545 0.3435941 0.9249468
0.1206802 0.3441506 0.9248731
0.1206180 0.3447227 0.9248011
0.1213724 0.3263626 0.9279826
0.1214055 0.3269784 0.9278551
0.1214405 0.3275942 0.9277281
0.1214766 0.3281967 0.9276048
0.1215109 0.3287964 0.9274827
0.1215317 0.3226752 0.9287688
0.1215418 0.3232998 0.9286402
0.1215604 0.3239189 0.9285124
0.1215873 0.3245357 0.9283849
0.1216208 0.3251511 0.9282579
0.1216552 0.3257666 0.9281305
0.1216762 0.3151001 0.9301882
0.1216837 0.3157395 0.9300835
0.1216893 0.3163832 0.9299765
0.1216894 0.3170332 0.9298648
0.1216861 0.3176828 0.9297498
0.1216798 0.3183296 0.9296324
0.1216728 0.3189731 0.9295126
0.1216690 0.3196134 0.9293910
0.1216732 0.3202490 0.9292684
0.1216854 0.3208801 0.9291454
0.1217019 0.3215028 0.9290225
0.1217263 0.3221203 0.9288993
0.1214552 0.3336225 0.9265313
0.1214824 0.3342188 0.9264229
0.1215065 0.3348149 0.9263115
0.1215384 0.3354024 0.9262047
0.1215658 0.3360071 0.9261039
0.1215938 0.3366214 0.9260006
0.1216123 0.3372467 0.9258956
0.1216275 0.3378793 0.9257870
0.1216374 0.3385241 0.9256746
0.1216518 0.3391652 0.9255724
0.1216262 0.3312711 0.9269882
0.1216600 0.3318726 0.9268723
0.1216905 0.3324775 0.9267570
0.1217175 0.3330882 0.9266425
0.1217320 0.3402921 0.9253904
0.1216944 0.3409272 0.9252954
0.1216580 0.3415576 0.9252013
0.1216156 0.3421789 0.9251089
0.1215652 0.3427864 0.9250212
0.1213865 0.3445406 0.9247733
0.1218532 0.3294504 0.9273735
0.1218880 0.3300531 0.9272516
0.1219211 0.3306565 0.9271304
0.1213667 0.3435224 0.9249224
0.1212889 0.3440679 0.9248513
0.1220273 0.3263800 0.9280323
0.1220557 0.3269981 0.9279026
0.1220872 0.3276158 0.9277735
0.1221214 0.3282212 0.9276479
0.1221542 0.3288205 0.9275243
0.1221955 0.3226855 0.9288226
0.1222027 0.3233154 0.9286931
0.1222176 0.3239396 0.9285641
0.1222401 0.3245606 0.9284350
0.1222692 0.3251786 0.9283065
0.1223010 0.3257962 0.9281778
0.1223327 0.3151293 0.9302244
0.1223396 0.3157620 0.9301232
0.1223455 0.3164004 0.9300178
0.1223473 0.3170446 0.9299087
0.1223438 0.3176928 0.9297956
0.1223383 0.3183400 0.9296794
0.1223323 0.3189846 0.9295607
0.1223294 0.3196271 0.9294399
0.1223334 0.3202663 0.9293177
0.1223441 0.3209014 0.9291946
0.1223588 0.3215289 0.9290713
0.1223804 0.3221519 0.9289474
0.1220975 0.3336515 0.9265503
0.1221268 0.3342424 0.9264389
0.1221531 0.3348318 0.9263262
0.1221858 0.3354169 0.9262183
0.1222164 0.3360193 0.9261116
0.1222462 0.3366324 0.9260056
0.1222672 0.3372540 0.9258966
0.1222838 0.3378852 0.9257852
0.1222950 0.3385312 0.9256699
0.1223115 0.3319000 0.9269002
0.1223434 0.3325019 0.9267823
0.1223733 0.3331088 0.9266648
0.1224158 0.3396369 0.9254836
0.1223877 0.3402820 0.9253768
0.1223457 0.3409116 0.9252792
0.1223047 0.3415369 0.9251824
0.1222558 0.3421507 0.9250872
0.1222007 0.3427472 0.9249986
0.1221374 0.3433355 0.9249105
0.1220736 0.3439043 0.9248270
0.1219985 0.3444701 0.9247446
0.1225370 0.3300806 0.9272880
0.1225711 0.3306812 0.9271655
0.1226020 0.3312879 0.9270422
0.1227365 0.3276351 0.9278198
0.1227698 0.3282438 0.9276920
0.1228021 0.3288434 0.9275667
0.1228338 0.3294407 0.9274419
0.1228542 0.3226919 0.9288756
0.1228612 0.3233281 0.9287452
0.1228749 0.3239577 0.9286150
0.1229535 0.3258219 0.9282258
0.1229879 0.3264374 0.9280967
0.1230270 0.3270488 0.9279685
0.1229834 0.3151531 0.9302593
0.1229918 0.3157804 0.9301606
0.1229997 0.3164149 0.9300575
0.1230043 0.3170546 0.9299509
0.1230019 0.3177018 0.9298395
0.1229979 0.3183495 0.9297248
0.1229942 0.3189957 0.9296074
0.1229936 0.3196411 0.9294876
0.1229988 0.3202848 0.9293655
0.1230095 0.3209242 0.9292426
0.1230251 0.3215578 0.9291190
0.1230456 0.3221849 0.9289949
0.1231702 0.3246399 0.9284951
0.1232142 0.3252542 0.9283686
0.1227488 0.3336803 0.9265712
0.1227772 0.3342669 0.9264561
0.1228065 0.3348515 0.9263416
0.1228402 0.3354350 0.9262314
0.1228731 0.3360362 0.9261207
0.1229048 0.3366469 0.9260119
0.1229289 0.3372653 0.9258991
0.1229493 0.3378983 0.9257834
0.1229639 0.3385472 0.9256644
0.1230269 0.3331316 0.9266901
0.1230711 0.3396270 0.9254797
0.1230396 0.3402711 0.9253688
0.1229924 0.3408935 0.9252661
0.1229471 0.3415132 0.9251664
0.1228921 0.3421196 0.9250728
0.1228329 0.3427043 0.9249782
0.1227626 0.3432847 0.9248897
0.1226935 0.3438475 0.9248045
0.1226126 0.3444025 0.9247229
0.1231876 0.3301101 0.9273265
0.1232204 0.3307082 0.9272017
0.1232520 0.3313110 0.9270768
0.1232812 0.3319210 0.9269507
0.1233086 0.3325420 0.9268233
0.1233869 0.3276540 0.9278671
0.1234169 0.3282664 0.9277367
0.1234476 0.3288681 0.9276091
0.1234789 0.3294655 0.9274822
0.1236037 0.3258451 0.9282738
0.1236346 0.3264614 0.9281435
0.1236668 0.3270714 0.9280140
0.1233964 0.3337114 0.9265907
0.1234264 0.3342939 0.9264733
0.1234593 0.3348725 0.9263575
0.1234951 0.3354541 0.9262447
0.1235295 0.3360541 0.9261290
0.1235639 0.3366638 0.9260175
0.1235901 0.3372789 0.9259022
0.1236135 0.3379132 0.9257833
0.1236297 0.3385630 0.9256626
0.1234035 0.3449500 0.9245919
0.1236361 0.3151755 0.9302930
0.1236457 0.3157977 0.9301966
0.1236554 0.3164285 0.9300958
0.1236626 0.3170644 0.9299916
0.1236618 0.3177107 0.9298820
0.1236596 0.3183588 0.9297688
0.1236583 0.3190066 0.9296527
0.1236598 0.3196545 0.9295339
0.1236651 0.3203023 0.9294123
0.1236757 0.3209450 0.9292894
0.1236904 0.3215838 0.9291657
0.1237096 0.3222143 0.9290416
0.1237327 0.3228392 0.9289169
0.1237573 0.3234587 0.9287914
0.1237884 0.3240765 0.9286642
0.1238199 0.3246805 0.9285395
0.1238555 0.3252905 0.9284130
0.1236791 0.3331533 0.9267154
0.1237288 0.3396123 0.9254790
0.1236915 0.3402587 0.9253638
0.1236403 0.3408739 0.9252614
0.1235910 0.3414878 0.9251583
0.1235301 0.3420826 0.9250595
0.1234671 0.3426599 0.9249632
0.1233943 0.3432346 0.9248727
0.1233167 0.3437847 0.9247873
0.1232327 0.3443286 0.9247020
0.1238401 0.3301382 0.9273641
0.1238716 0.3307347 0.9272383
0.1239040 0.3313345 0.9271114
0.1239351 0.3319416 0.9269836
0.1239652 0.3325585 0.9268544
0.1240409 0.3276725 0.9279139
0.1240677 0.3282884 0.9277813
0.1240966 0.3288921 0.9276516
0.1241272 0.3294901 0.9275229
0.1241755 0.3226946 0.9289811
0.1241825 0.3233423 0.9288492
0.1241940 0.3239815 0.9287176
0.1242543 0.3258656 0.9283221
0.1242825 0.3264826 0.9281910
0.1243107 0.3270909 0.9280606
0.1240478 0.3337397 0.9266124
0.1240810 0.3343210 0.9264927
0.1241182 0.3348919 0.9263766
0.1241538 0.3354732 0.9262613
0.1241890 0.3360727 0.9261430
0.1242238 0.3366807 0.9260279
0.1242516 0.3372930 0.9259097
0.1242374 0.3431399 0.9248605
0.1241740 0.3437384 0.9247609
0.1241017 0.3443182 0.9246652
0.1240227 0.3448866 0.9245748
0.1242915 0.3151949 0.9303268
0.1243017 0.3158125 0.9302324
0.1243128 0.3164402 0.9301336
0.1243219 0.3170731 0.9300315
0.1243226 0.3177189 0.9299234
0.1243218 0.3183676 0.9298116
0.1243222 0.3190168 0.9296967
0.1243249 0.3196670 0.9295787
0.1243305 0.3203172 0.9294580
0.1243393 0.3209631 0.9293356
0.1243527 0.3216055 0.9292118
0.1243702 0.3222390 0.9290877
0.1244665 0.3247121 0.9285852
0.1244976 0.3253213 0.9284582
0.1243332 0.3331750 0.9267425
0.1244511 0.3382965 0.9257189
0.1244261 0.3389544 0.9255970
0.1243894 0.3395970 0.9254799
0.1243475 0.3402451 0.9253633
0.1242933 0.3408516 0.9252567
0.1242416 0.3414584 0.9251507
0.1241763 0.3420427 0.9250497
0.1241129 0.3426125 0.9249535
0.1244953 0.3301640 0.9274026
0.1245245 0.3307601 0.9272746
0.1245562 0.3313576 0.9271459
0.1245872 0.3319624 0.9270167
0.1246186 0.3325758 0.9268863
0.1246966 0.3276894 0.9279607
0.1247211 0.3283095 0.9278257
0.1247484 0.3289158 0.9276938
0.1247777 0.3295151 0.9275635
0.1248291 0.3220385 0.9291629
0.1248345 0.3226973 0.9290319
0.1248426 0.3233493 0.9289001
0.1248542 0.3239920 0.9287683
0.1248690 0.3246306 0.9286355
0.1248872 0.3252610 0.9285030
0.1249092 0.3258851 0.9283706
0.1249356 0.3265033 0.9282386
0.1249614 0.3271125 0.9281075
0.1248180 0.3354999 0.9262777
0.1248563 0.3361010 0.9261565
0.1248910 0.3367060 0.9260382
0.1249221 0.3373176 0.9259166
0.1248690 0.3431139 0.9248503
0.1248033 0.3436968 0.9247493
0.1247323 0.3442648 0.9246555
0.1246576 0.3448204 0.9245632
0.1249367 0.3146018 0.9304493
0.1249488 0.3152149 0.9303600
0.1249593 0.3158281 0.9302673
0.1249717 0.3164524 0.9301698
0.1249821 0.3170825 0.9300694
0.1249847 0.3177267 0.9299633
0.1249854 0.3183755 0.9298531
0.1249864 0.3190257 0.9297395
0.1249895 0.3196771 0.9296229
0.1249954 0.3203285 0.9295033
0.1250033 0.3209756 0.9293819
0.1250155 0.3216194 0.9292589
0.1249914 0.3331987 0.9267712
0.1250204 0.3337994 0.9266445
0.1250496 0.3344090 0.9265158
0.1250766 0.3350303 0.9263825
0.1251086 0.3382866 0.9257297
0.1250840 0.3389429 0.9256050
0.1250457 0.3395819 0.9254851
0.1250011 0.3402291 0.9253651
0.1249465 0.3408256 0.9252565
0.1248933 0.3414252 0.9251483
0.1248276 0.3419982 0.9250462
0.1247604 0.3425613 0.9249482
0.1252093 0.3313809 0.9271824
0.1252387 0.3319837 0.9270512
0.1252688 0.3325925 0.9269194
0.1253766 0.3283301 0.9278723
0.1254010 0.3289397 0.9277382
0.1254275 0.3295404 0.9276058
0.1254548 0.3301368 0.9274741
0.1254834 0.3307377 0.9273413
0.1255201 0.3449160 0.9245297
0.1254924 0.3220398 0.9292131
0.1254983 0.3227009 0.9290826
0.1255059 0.3233555 0.9289510
0.1255163 0.3240009 0.9288191
0.1255305 0.3246423 0.9286861
0.1255462 0.3252758 0.9285530
0.1255649 0.3259026 0.9284200
0.1255877 0.3265226 0.9282871
0.1256114 0.3271341 0.9281548
0.1256345 0.3277360 0.9280234
0.1254849 0.3355319 0.9262941
0.1255231 0.3361323 0.9261719
0.1255563 0.3367330 0.9260505
0.1255888 0.3373435 0.9259249
0.1256523 0.3405710 0.9253017
0.1256394 0.3412324 0.9251797
0.1255036 0.3430852 0.9248449
0.1254374 0.3436571 0.9247456
0.1253677 0.3442135 0.9246523
0.1255937 0.3146223 0.9304781
0.1256074 0.3152331 0.9303904
0.1256187 0.3158436 0.9302999
0.1256321 0.3164645 0.9302044
0.1256436 0.3170917 0.9301062
0.1256481 0.3177341 0.9300022
0.1256502 0.3183830 0.9298938
0.1256518 0.3190341 0.9297816
0.1256552 0.3196866 0.9296662
0.1256612 0.3203391 0.9295479
0.1256680 0.3209872 0.9294276
0.1256784 0.3216320 0.9293054
0.1256500 0.3332222 0.9268009
0.1256787 0.3338194 0.9266722
0.1257075 0.3344252 0.9265416
0.1257346 0.3350412 0.9264073
0.1257645 0.3382772 0.9257436
0.1257398 0.3389314 0.9256166
0.1257003 0.3395673 0.9254944
0.1256532 0.3402123 0.9253706
0.1254731 0.3419609 0.9250469
0.1254072 0.3425132 0.9249481
0.1258638 0.3314039 0.9272188
0.1258932 0.3320046 0.9270863
0.1259228 0.3326098 0.9269535
0.1260306 0.3283493 0.9279187
0.1260540 0.3289618 0.9277827
0.1260797 0.3295643 0.9276485
0.1261070 0.3301605 0.9275153
0.1261358 0.3307588 0.9273815
0.1262026 0.3443025 0.9246279
0.1261359 0.3448720 0.9245294
0.1261545 0.3220391 0.9292626
0.1261583 0.3227023 0.9291328
0.1261664 0.3233597 0.9290017
0.1261768 0.3240076 0.9288702
0.1261901 0.3246525 0.9287370
0.1262049 0.3252895 0.9286034
0.1262218 0.3259187 0.9284697
0.1262425 0.3265405 0.9283362
0.1262650 0.3271541 0.9282029
0.1262880 0.3277582 0.9280704
0.1263100 0.3405853 0.9253040
0.1262908 0.3412380 0.9251809
0.1262032 0.3424691 0.9249523
0.1261439 0.3430564 0.9248449
0.1260804 0.3436140 0.9247454
0.1262552 0.3146425 0.9305061
0.1262693 0.3152517 0.9304198
0.1262811 0.3158596 0.9303309
0.1262944 0.3164769 0.9302382
0.1263060 0.3171010 0.9301421
0.1263116 0.3177412 0.9300402
0.1263146 0.3183897 0.9299336
0.1263160 0.3190413 0.9298229
0.1263193 0.3196945 0.9297091
0.1263247 0.3203473 0.9295920
0.1263313 0.3209967 0.9294730
0.1263413 0.3216435 0.9293518
0.1263424 0.3338423 0.9267016
0.1263686 0.3344434 0.9265696
0.1263945 0.3350540 0.9264352
0.1264140 0.3356767 0.9263014
0.1264267 0.3363103 0.9261671
0.1264315 0.3369557 0.9260318
0.1264264 0.3376107 0.9258976
0.1264144 0.3382709 0.9257606
0.1263914 0.3389217 0.9256317
0.1263520 0.3395535 0.9255058
0.1263055 0.3401949 0.9253800
0.1261270 0.3419242 0.9250514
0.1265194 0.3314272 0.9272572
0.1265475 0.3320250 0.9271232
0.1265757 0.3326263 0.9269891
0.1266000 0.3332395 0.9268521
0.1266880 0.3283680 0.9279662
0.1267091 0.3289829 0.9278285
0.1267327 0.3295864 0.9276928
0.1267585 0.3301817 0.9275585
0.1267851 0.3307766 0.9274239
0.1268258 0.3442725 0.9246301
0.1267660 0.3448311 0.9245340
0.1268211 0.3220358 0.9293131
0.1268208 0.3227017 0.9291836
0.1268270 0.3233635 0.9290526
0.1268371 0.3240141 0.9289213
0.1268501 0.3246619 0.9287882
0.1268645 0.3253019 0.9286543
0.1268804 0.3259336 0.9285201
0.1268995 0.3265573 0.9283860
0.1269198 0.3271727 0.9282520
0.1269406 0.3277774 0.9281187
0.1269614 0.3405969 0.9253111
0.1269373 0.3412402 0.9251872
0.1268522 0.3424506 0.9249580
0.1268035 0.3430290 0.9248510
0.1267549 0.3435753 0.9247521
0.1269256 0.3146666 0.9305333
0.1269389 0.3152725 0.9304486
0.1269497 0.3158775 0.9303617
0.1269613 0.3164903 0.9302713
0.1269711 0.3171110 0.9301773
0.1269762 0.3177490 0.9300775
0.1269792 0.3183970 0.9299725
0.1269802 0.3190490 0.9298634
0.1269828 0.3197033 0.9297510
0.1269876 0.3203568 0.9296354
0.1269938 0.3210076 0.9295176
0.1270027 0.3216566 0.9293972
0.1270112 0.3338647 0.9267338
0.1270347 0.3344626 0.9266010
0.1270581 0.3350675 0.9264655
0.1270755 0.3356867 0.9263306
0.1270857 0.3363165 0.9261939
0.1270888 0.3369584 0.9260568
0.1270850 0.3376092 0.9259199
0.1270740 0.3382644 0.9257828
0.1270511 0.3389128 0.9256495
0.1270146 0.3395435 0.9255213
0.1269714 0.3401839 0.9253926
0.1268207 0.3418926 0.9250619
0.1272054 0.3320457 0.9271625
0.1272298 0.3326430 0.9270271
0.1272498 0.3332520 0.9268889
0.1275038 0.3449872 0.9245167
0.1274530 0.3455582 0.9244199
0.1273876 0.3296075 0.9277388
0.1274093 0.3302019 0.9276030
0.1274313 0.3307933 0.9274675
0.1274505 0.3313911 0.9273301
0.1274648 0.3442485 0.9246440
0.1275560 0.3265731 0.9284370
0.1275734 0.3271903 0.9283022
0.1275913 0.3277960 0.9281681
0.1276102 0.3283852 0.9280363
0.1276313 0.3289704 0.9279045
0.1276364 0.3393145 0.9255823
0.1276296 0.3399625 0.9254511
0.1276139 0.3406061 0.9253233
0.1275883 0.3412427 0.9251992
0.1275500 0.3418516 0.9250811
0.1275129 0.3424365 0.9249709
0.1274751 0.3430085 0.9248646
0.1274426 0.3435502 0.9247669
0.1276078 0.3146970 0.9305592
0.1276210 0.3152964 0.9304770
0.1276297 0.3158975 0.9303924
0.1276373 0.3165052 0.9303037
0.1276426 0.3171220 0.9302121
0.1276445 0.3177576 0.9301144
0.1276448 0.3184053 0.9300111
0.1276444 0.3190578 0.9299035
0.1276455 0.3197140 0.9297922
0.1276492 0.3203686 0.9296780
0.1276545 0.3210210 0.9295613
0.1276622 0.3216717 0.9294423
0.1276734 0.3223177 0.9293230
0.1276884 0.3229577 0.9292008
0.1277067 0.3235890 0.9290761
0.1277266 0.3242183 0.9289498
0.1277493 0.3248347 0.9288245
0.1277685 0.3254478 0.9286968
0.1277907 0.3260542 0.9285685
0.1276851 0.3338869 0.9267685
0.1277053 0.3344811 0.9266349
0.1277240 0.3350819 0.9264999
0.1277378 0.3356972 0.9263617
0.1277441 0.3363237 0.9262233
0.1277447 0.3369631 0.9260849
0.1277393 0.3376113 0.9259451
0.1277274 0.3382640 0.9258053
0.1277081 0.3389112 0.9256697
0.1278661 0.3320670 0.9272030
0.1278864 0.3326603 0.9270664
0.1279022 0.3332653 0.9269274
0.1280917 0.3449803 0.9245325
0.1280500 0.3455473 0.9244368
0.1280455 0.3296282 0.9277863
0.1280639 0.3302223 0.9276491
0.1280823 0.3308111 0.9275125
0.1280975 0.3314050 0.9273741
0.1281792 0.3430642 0.9248737
0.1281440 0.3436621 0.9247664
0.1281122 0.3442343 0.9246631
0.1282149 0.3265878 0.9284892
0.1282318 0.3272075 0.9283538
0.1282489 0.3278153 0.9282191
0.1282643 0.3284076 0.9280858
0.1282814 0.3289951 0.9279522
0.1283030 0.3386849 0.9257385
0.1282964 0.3393278 0.9256049
0.1282841 0.3399726 0.9254713
0.1282675 0.3406142 0.9253427
0.1282421 0.3412460 0.9252184
0.1282082 0.3418497 0.9251012
0.1281798 0.3424287 0.9249913
0.1282834 0.3147239 0.9305854
0.1282963 0.3153178 0.9305057
0.1283029 0.3159154 0.9304224
0.1283072 0.3165182 0.9303358
0.1283097 0.3171316 0.9302464
0.1283102 0.3177650 0.9301510
0.1283096 0.3184125 0.9300494
0.1283086 0.3190654 0.9299432
0.1283088 0.3197230 0.9298329
0.1283121 0.3203778 0.9297198
0.1283171 0.3210313 0.9296049
0.1283251 0.3216827 0.9294876
0.1283367 0.3223296 0.9293707
0.1283515 0.3229714 0.9292502
0.1283697 0.3236050 0.9291262
0.1283906 0.3242348 0.9290005
0.1284124 0.3248545 0.9288747
0.1284325 0.3254695 0.9287472
0.1284565 0.3260788 0.9286189
0.1283937 0.3350985 0.9265346
0.1284021 0.3357089 0.9263958
0.1284032 0.3363316 0.9262558
0.1283983 0.3369691 0.9261142
0.1283897 0.3376154 0.9259728
0.1283759 0.3382659 0.9258316
0.1285277 0.3320899 0.9272460
0.1285454 0.3326783 0.9271078
0.1285577 0.3332765 0.9269682
0.1285618 0.3338842 0.9268266
0.1285587 0.3345096 0.9266815
0.1286839 0.3449708 0.9245554
0.1286576 0.3455365 0.9244585
0.1287025 0.3296488 0.9278356
0.1287211 0.3302430 0.9276974
0.1287379 0.3308290 0.9275603
0.1287508 0.3314185 0.9274214
0.1288141 0.3430608 0.9248967
0.1287873 0.3436533 0.9247881
0.1287681 0.3442228 0.9246871
0.1288720 0.3266011 0.9285430
0.1288918 0.3272243 0.9284070
0.1289109 0.3278348 0.9282716
0.1289264 0.3284287 0.9281375
0.1289416 0.3290163 0.9280032
0.1289683 0.3387015 0.9257653
0.1289546 0.3393419 0.9256314
0.1289374 0.3399841 0.9254962
0.1289190 0.3406239 0.9253660
0.1288942 0.3412496 0.9252410
0.1288666 0.3418463 0.9251252
0.1288509 0.3424198 0.9250161
0.1289583 0.3147472 0.9306127
0.1289707 0.3153349 0.9305341
0.1289754 0.3159297 0.9304530
0.1289773 0.3165307 0.9303678
0.1289771 0.3171410 0.9302815
0.1289760 0.3177722 0.9301872
0.1289745 0.3184199 0.9300873
0.1289736 0.3190730 0.9299825
0.1289739 0.3197318 0.9298738
0.1289766 0.3203867 0.9297626
0.1289818 0.3210416 0.9296496
0.1289902 0.3216935 0.9295338
0.1290021 0.3223415 0.9294196
0.1290171 0.3229849 0.9293007
0.1290360 0.3236204 0.9291775
0.1290578 0.3242521 0.9290526
0.1290811 0.3248755 0.9289262
0.1291028 0.3254940 0.9287991
0.1291286 0.3261074 0.9286705
0.1290646 0.3351173 0.9265722
0.1290664 0.3357225 0.9264324
0.1290604 0.3363403 0.9262909
0.1290488 0.3369763 0.9261474
0.1290356 0.3376206 0.9260045
0.1290184 0.3382688 0.9258617
0.1291923 0.3321151 0.9272911
0.1292062 0.3326986 0.9271523
0.1292135 0.3332901 0.9270122
0.1292111 0.3338909 0.9268700
0.1292002 0.3345076 0.9267245
0.1292871 0.3449662 0.9245870
0.1292767 0.3455371 0.9244921
0.1293610 0.3296708 0.9278867
0.1293787 0.3302643 0.9277476
0.1293928 0.3308478 0.9276098
0.1294019 0.3314322 0.9274706
0.1294505 0.3430587 0.9249284
0.1294351 0.3436530 0.9248206
0.1294303 0.3442251 0.9247210
0.1295278 0.3266133 0.9285981
0.1295489 0.3272396 0.9284623
0.1295684 0.3278507 0.9283266
0.1295855 0.3284468 0.9281921
0.1295985 0.3290342 0.9280569
0.1296262 0.3387188 0.9257967
0.1296075 0.3393567 0.9256623
0.1295875 0.3399971 0.9255261
0.1295691 0.3406356 0.9253981
0.1295492 0.3412577 0.9252730
0.1295340 0.3418534 0.9251574
0.1295312 0.3424255 0.9250492
0.1296322 0.3147715 0.9306392
0.1296438 0.3153526 0.9305640
0.1296481 0.3159420 0.9304841
0.1296493 0.3165399 0.9304012
0.1296469 0.3171490 0.9303169
0.1296437 0.3177787 0.9302238
0.1296404 0.3184273 0.9301256
0.1296390 0.3190808 0.9300229
0.1296395 0.3197417 0.9299157
0.1296425 0.3203959 0.9298065
0.1296485 0.3210509 0.9296952
0.1296569 0.3217033 0.9295811
0.1296687 0.3223522 0.9294692
0.1296832 0.3229970 0.9293512
0.1297017 0.3236345 0.9292302
0.1297234 0.3242674 0.9291064
0.1297463 0.3248936 0.9289795
0.1297685 0.3255131 0.9288528
0.1297949 0.3261281 0.9287251
0.1297354 0.3351378 0.9266127
0.1297301 0.3357370 0.9264722
0.1297176 0.3363495 0.9263297
0.1296996 0.3369839 0.9261845
0.1296826 0.3376263 0.9260403
0.1296635 0.3382730 0.9258961
0.1298614 0.3321419 0.9273386
0.1298702 0.3327213 0.9271991
0.1298719 0.3333057 0.9270588
0.1298635 0.3338984 0.9269163
0.1298456 0.3345060 0.9267706
0.1298798 0.3449635 0.9246245
0.1298771 0.3455449 0.9245296
0.1300205 0.3296945 0.9279404
0.1300372 0.3302879 0.9278012
0.1300484 0.3308688 0.9276625
0.1300527 0.3314479 0.9275231
0.1301862 0.3404390 0.9254732
0.1301613 0.3410977 0.9253407
0.1301037 0.3424307 0.9250831
0.1300857 0.3430579 0.9249666
0.1300806 0.3436594 0.9248597
0.1300864 0.3442396 0.9247604
0.1301856 0.3266251 0.9286537
0.1302070 0.3272550 0.9285184
0.1302255 0.3278669 0.9283828
0.1302436 0.3284642 0.9282485
0.1302547 0.3290494 0.9281133
0.1303174 0.3374996 0.9261106
0.1302994 0.3381118 0.9259716
0.1302792 0.3387344 0.9258323
0.1302582 0.3393713 0.9256977
0.1302369 0.3400109 0.9255624
0.1302016 0.3418647 0.9251941
0.1303045 0.3147944 0.9306663
0.1303146 0.3153695 0.9305935
0.1303190 0.3159542 0.9305152
0.1303194 0.3165488 0.9304354
0.1303156 0.3171567 0.9303526
0.1303109 0.3177847 0.9302603
0.1303050 0.3184339 0.9301638
0.1303028 0.3190877 0.9300634
0.1303020 0.3197502 0.9299581
0.1303054 0.3204044 0.9298516
0.1303113 0.3210593 0.9297417
0.1303199 0.3217126 0.9296292
0.1303312 0.3223626 0.9295189
0.1303444 0.3230090 0.9294007
0.1303610 0.3236497 0.9292811
0.1303807 0.3242853 0.9291592
0.1304033 0.3249117 0.9290328
0.1304271 0.3255283 0.9289095
0.1304533 0.3261424 0.9287818
0.1304025 0.3351583 0.9266566
0.1303898 0.3357514 0.9265152
0.1303711 0.3363587 0.9263721
0.1303466 0.3369932 0.9262248
0.1305299 0.3333209 0.9271086
0.1305163 0.3339063 0.9269659
0.1304928 0.3345069 0.9268196
0.1304645 0.3449569 0.9246718
0.1304672 0.3455512 0.9245766
0.1306777 0.3297227 0.9279933
0.1306962 0.3303134 0.9278542
0.1307071 0.3308875 0.9277164
0.1307095 0.3314595 0.9275782
0.1306983 0.3320294 0.9274389
0.1306800 0.3326100 0.9272962
0.1308303 0.3404441 0.9255155
0.1308006 0.3410969 0.9253844
0.1307360 0.3424270 0.9251284
0.1307221 0.3430571 0.9250144
0.1307225 0.3436669 0.9249086
0.1307396 0.3442584 0.9248073
0.1308825 0.3278847 0.9284396
0.1309008 0.3284813 0.9283053
0.1309134 0.3290644 0.9281705
0.1309794 0.3375218 0.9261532
0.1309555 0.3381311 0.9260149
0.1309302 0.3387517 0.9258744
0.1309069 0.3393863 0.9257386
0.1308851 0.3400250 0.9256029
0.1308683 0.3418807 0.9252380
0.1309786 0.3148145 0.9306945
0.1309875 0.3153850 0.9306230
0.1309918 0.3159657 0.9305474
0.1309903 0.3165562 0.9304695
0.1309845 0.3171631 0.9303882
0.1309779 0.3177900 0.9302979
0.1309694 0.3184400 0.9302028
0.1309667 0.3190937 0.9301042
0.1309649 0.3197579 0.9300006
0.1309685 0.3204114 0.9298962
0.1309746 0.3210657 0.9297885
0.1309833 0.3217199 0.9296777
0.1309947 0.3223708 0.9295692
0.1310082 0.3230188 0.9294533
0.1310243 0.3236617 0.9293351
0.1310429 0.3242991 0.9292157
0.1310651 0.3249262 0.9290902
0.1310895 0.3255420 0.9289683
0.1311153 0.3261564 0.9288410
0.1311327 0.3267429 0.9287178
0.1311499 0.3273179 0.9285939
0.1310662 0.3351785 0.9267042
0.1310466 0.3357660 0.9265623
0.1310216 0.3363686 0.9264181
0.1309894 0.3370048 0.9262688
0.1311887 0.3333386 0.9271609
0.1311687 0.3339166 0.9270180
0.1311396 0.3345099 0.9268715
0.1310497 0.3449459 0.9247179
0.1310585 0.3455598 0.9246210
0.1313567 0.3303418 0.9279104
0.1313666 0.3309101 0.9277735
0.1313661 0.3314750 0.9276362
0.1313504 0.3320383 0.9274969
0.1313243 0.3326124 0.9273532
0.1314768 0.3404474 0.9255654
0.1314439 0.3410941 0.9254331
0.1313738 0.3424236 0.9251756
0.1313630 0.3430591 0.9250606
0.1313687 0.3436801 0.9249547
0.1313916 0.3442864 0.9248510
0.1315613 0.3170794 0.9304316
0.1315603 0.3176290 0.9303551
0.1315592 0.3181918 0.9302749
0.1315428 0.3279058 0.9284999
0.1315595 0.3285020 0.9283651
0.1315718 0.3290828 0.9282307
0.1315730 0.3296470 0.9280973
0.1316834 0.3358239 0.9266009
0.1316690 0.3363881 0.9264656
0.1316492 0.3369617 0.9263311
0.1316301 0.3375422 0.9261999
0.1316023 0.3381490 0.9260631
0.1315753 0.3387695 0.9259251
0.1315537 0.3394022 0.9257867
0.1315340 0.3400421 0.9256528
0.1315425 0.3419093 0.9252874
0.1316568 0.3148288 0.9307240
0.1316638 0.3153946 0.9306540
0.1316658 0.3159732 0.9305801
0.1316611 0.3165620 0.9305038
0.1316315 0.3190991 0.9301455
0.1316287 0.3197643 0.9300438
0.1316326 0.3204169 0.9299419
0.1316389 0.3210702 0.9298366
0.1316477 0.3217248 0.9297275
0.1316591 0.3223767 0.9296212
0.1316725 0.3230260 0.9295073
0.1316882 0.3236708 0.9293907
0.1317058 0.3243100 0.9292732
0.1317263 0.3249392 0.9291495
0.1317503 0.3255553 0.9290291
0.1317755 0.3261687 0.9289023
0.1317923 0.3267562 0.9287798
0.1318083 0.3273274 0.9286575
0.1317237 0.3351989 0.9267557
0.1318613 0.3322366 0.9274948
0.1318598 0.3327950 0.9273567
0.1318475 0.3333567 0.9272167
0.1318238 0.3339262 0.9270742
0.1317924 0.3345121 0.9269279
0.1320185 0.3303727 0.9279687
0.1320262 0.3309352 0.9278326
0.1320235 0.3314921 0.9276964
0.1319902 0.3430534 0.9251231
0.1319900 0.3436898 0.9250164
0.1320097 0.3443130 0.9249154
0.1320438 0.3449210 0.9248219
0.1322416 0.3170935 0.9304673
0.1322409 0.3176339 0.9303937
0.1322451 0.3181902 0.9303162
0.1322064 0.3279305 0.9285621
0.1322200 0.3285251 0.9284273
0.1322311 0.3291036 0.9282931
0.1322300 0.3296618 0.9281605
0.1323424 0.3358612 0.9266510
0.1323255 0.3364155 0.9265167
0.1323010 0.3369848 0.9263829
0.1322771 0.3375629 0.9262507
0.1322464 0.3381667 0.9261152
0.1322188 0.3387872 0.9259762
0.1321979 0.3394191 0.9258396
0.1321797 0.3400611 0.9257058
0.1321724 0.3407005 0.9255800
0.1321768 0.3413263 0.9254581
0.1322057 0.3419377 0.9253457
0.1322449 0.3425478 0.9252371
0.1323350 0.3148328 0.9307554
0.1323400 0.3153957 0.9306868
0.1323395 0.3159736 0.9306144
0.1323313 0.3165628 0.9305389
0.1322943 0.3191043 0.9301877
0.1322911 0.3197693 0.9300878
0.1322955 0.3204205 0.9299887
0.1323025 0.3210723 0.9298858
0.1323111 0.3217276 0.9297803
0.1323230 0.3223797 0.9296752
0.1323366 0.3230302 0.9295622
0.1323520 0.3236767 0.9294487
0.1323688 0.3243179 0.9293325
0.1323878 0.3249503 0.9292111
0.1324103 0.3255670 0.9290909
0.1324337 0.3261808 0.9289656
0.1324500 0.3267693 0.9288437
0.1324652 0.3273410 0.9287225
0.1324086 0.3341129 0.9270837
0.1323986 0.3346548 0.9269498
0.1323769 0.3352186 0.9268105
0.1325269 0.3322745 0.9275525
0.1325205 0.3328223 0.9274155
0.1325026 0.3333736 0.9272763
0.1326829 0.3304064 0.9280299
0.1326875 0.3309618 0.9278948
0.1326816 0.3315094 0.9277599
0.1326511 0.3449590 0.9248874
0.1329322 0.3165807 0.9305691
0.1329223 0.3170871 0.9305068
0.1329119 0.3176282 0.9304336
0.1329099 0.3181910 0.9303563
0.1328869 0.3187682 0.9302731
0.1328821 0.3285514 0.9284922
0.1328932 0.3291261 0.9283580
0.1328923 0.3296787 0.9282269
0.1329978 0.3358967 0.9267052
0.1329788 0.3364403 0.9265722
0.1329501 0.3370059 0.9264386
0.1329207 0.3375824 0.9263071
0.1328881 0.3381851 0.9261703
0.1328603 0.3388059 0.9260305
0.1328414 0.3394378 0.9258956
0.1328262 0.3400818 0.9257636
0.1328233 0.3407219 0.9256384
0.1328329 0.3413522 0.9255176
0.1328678 0.3419699 0.9254074
0.1329130 0.3425934 0.9253000
0.1329679 0.3432176 0.9252005
0.1330393 0.3438442 0.9251079
0.1331048 0.3444628 0.9250244
0.1330146 0.3148323 0.9307876
0.1330161 0.3153933 0.9307205
0.1330123 0.3159710 0.9306494
0.1329546 0.3197754 0.9301327
0.1329594 0.3204252 0.9300359
0.1329661 0.3210772 0.9299347
0.1329752 0.3217313 0.9298318
0.1329870 0.3223826 0.9297290
0.1330001 0.3230339 0.9296190
0.1330153 0.3236809 0.9295076
0.1330316 0.3243243 0.9293932
0.1330517 0.3249591 0.9292742
0.1330728 0.3255802 0.9291530
0.1330974 0.3261963 0.9290306
0.1331158 0.3267877 0.9289088
0.1331327 0.3273586 0.9287893
0.1331360 0.3279211 0.9286664
0.1330710 0.3341510 0.9271416
0.1330543 0.3346823 0.9270075
0.1330261 0.3352378 0.9268688
0.1331897 0.3323147 0.9276126
0.1331797 0.3328512 0.9274771
0.1331569 0.3333922 0.9273392
0.1333385 0.3315302 0.9278254
0.1336105 0.3375367 0.9263864
0.1335808 0.3380834 0.9262591
0.1335520 0.3386374 0.9261333
0.1335098 0.3392146 0.9260059
0.1332387 0.3449793 0.9249661
0.1336204 0.3165796 0.9306067
0.1336057 0.3170849 0.9305460
0.1335882 0.3176253 0.9304739
0.1335809 0.3181923 0.9303974
0.1335515 0.3187661 0.9303161
0.1335553 0.3296991 0.9282957
0.1335455 0.3302299 0.9281691
0.1335210 0.3307565 0.9280371
0.1336570 0.3354284 0.9268873
0.1336462 0.3359285 0.9267650
0.1336249 0.3364640 0.9266318
0.1335924 0.3370258 0.9264989
0.1334735 0.3401002 0.9258274
0.1334729 0.3407430 0.9257020
0.1334894 0.3413782 0.9255818
0.1335230 0.3420032 0.9254738
0.1335649 0.3426364 0.9253689
0.1336161 0.3432658 0.9252720
0.1336800 0.3439003 0.9251816
0.1337323 0.3445232 0.9250985
0.1336950 0.3148286 0.9308208
0.1336917 0.3153889 0.9307547
0.1336822 0.3159669 0.9306848
0.1336191 0.3197802 0.9301790
0.1336241 0.3204298 0.9300841
0.1336316 0.3210806 0.9299855
0.1336401 0.3217321 0.9298869
0.1336515 0.3223824 0.9297855
0.1336638 0.3230337 0.9296779
0.1336776 0.3236815 0.9295683
0.1336933 0.3243266 0.9294558
0.1337148 0.3249645 0.9293397
0.1337588 0.3262100 0.9290980
0.1337805 0.3268056 0.9289770
0.1337989 0.3273746 0.9288589
0.1338023 0.3279360 0.9287361
0.1337992 0.3284736 0.9286123
0.1337856 0.3289920 0.9284910
0.1337246 0.3341857 0.9272025
0.1337031 0.3347075 0.9270695
0.1338463 0.3323558 0.9276738
0.1338356 0.3328814 0.9275406
0.1338115 0.3334122 0.9274053
0.1340018 0.3315556 0.9278919
0.1342779 0.3371091 0.9265524
0.1342560 0.3375522 0.9264524
0.1342242 0.3380922 0.9263268
0.1341968 0.3386442 0.9262020
0.1341502 0.3392134 0.9260759
0.1340985 0.3397996 0.9259528
0.1340486 0.3403976 0.9258323
0.1343033 0.3165766 0.9306440
0.1342852 0.3170792 0.9305858
0.1342618 0.3176195 0.9305152
0.1342494 0.3181904 0.9304396
0.1342155 0.3187622 0.9303602
0.1342238 0.3297250 0.9283661
0.1342150 0.3302459 0.9282422
0.1341935 0.3307630 0.9281121
0.1343031 0.3354688 0.9269488
0.1342853 0.3359650 0.9268254
0.1342647 0.3364905 0.9266937
0.1341381 0.3414002 0.9256547
0.1341730 0.3420297 0.9255489
0.1342122 0.3426691 0.9254463
0.1342524 0.3433026 0.9253507
0.1343029 0.3439371 0.9252593
0.1343503 0.3445697 0.9251783
0.1344021 0.3451935 0.9251018
0.1343718 0.3148224 0.9308545
0.1343636 0.3153825 0.9307891
0.1343492 0.3159597 0.9307203
0.1342830 0.3197830 0.9302269
0.1342884 0.3204320 0.9301342
0.1342953 0.3210801 0.9300390
0.1343032 0.3217282 0.9299443
0.1343149 0.3223777 0.9298443
0.1343269 0.3230294 0.9297408
0.1344223 0.3262245 0.9291702
0.1344482 0.3268298 0.9290489
0.1344701 0.3274023 0.9289317
0.1344751 0.3279596 0.9288103
0.1344766 0.3284947 0.9286875
0.1344698 0.3290109 0.9285678
0.1343689 0.3342299 0.9272651
0.1343457 0.3347428 0.9271329
0.1344973 0.3324075 0.9277381
0.1344890 0.3329209 0.9276077
0.1344666 0.3334394 0.9274747
0.1346634 0.3315895 0.9279625
0.1349061 0.3371455 0.9266167
0.1348808 0.3375848 0.9265182
0.1348545 0.3381110 0.9263947
0.1348313 0.3386555 0.9262738
0.1347855 0.3392122 0.9261521
0.1347407 0.3397861 0.9260331
0.1346933 0.3403779 0.9259151
0.1350138 0.3155474 0.9308045
0.1350053 0.3160557 0.9307453
0.1349810 0.3165678 0.9306826
0.1349573 0.3170709 0.9306257
0.1349294 0.3176122 0.9305566
0.1349120 0.3181863 0.9304823
0.1348753 0.3187563 0.9304052
0.1348897 0.3297592 0.9284394
0.1348834 0.3302725 0.9283167
0.1348636 0.3307787 0.9281897
0.1349366 0.3355139 0.9270121
0.1349145 0.3360079 0.9268899
0.1348931 0.3365269 0.9267584
0.1347857 0.3414178 0.9257346
0.1348206 0.3420510 0.9256286
0.1348527 0.3426883 0.9255311
0.1348803 0.3433208 0.9254345
0.1349125 0.3439540 0.9253483
0.1349541 0.3445951 0.9252636
0.1349948 0.3452278 0.9251904
0.1350414 0.3148146 0.9308888
0.1349480 0.3197860 0.9302740
0.1349535 0.3204325 0.9301839
0.1349607 0.3210771 0.9300924
0.1349669 0.3217216 0.9300019
0.1349768 0.3223672 0.9299053
0.1349872 0.3230177 0.9298045
0.1351080 0.3268515 0.9291235
0.1351336 0.3274285 0.9290071
0.1351461 0.3279869 0.9288861
0.1351553 0.3285199 0.9287650
0.1351544 0.3290306 0.9286478
0.1350070 0.3342766 0.9273295
0.1349848 0.3347782 0.9271999
0.1351465 0.3324630 0.9278041
0.1351403 0.3329649 0.9276769
0.1351204 0.3334712 0.9275462
0.1353237 0.3316292 0.9280358
0.1355567 0.3362416 0.9269102
0.1355369 0.3367222 0.9267919
0.1355189 0.3371856 0.9266826
0.1354966 0.3376163 0.9265866
0.1354771 0.3381296 0.9264676
0.1354600 0.3386659 0.9263499
0.1354196 0.3392087 0.9262321
0.1353842 0.3397707 0.9261139
0.1353397 0.3403545 0.9260000
0.1353083 0.3409649 0.9258794
0.1356788 0.3155346 0.9308406
0.1356650 0.3160435 0.9307822
0.1356427 0.3165536 0.9307212
0.1356200 0.3170627 0.9306656
0.1355879 0.3176025 0.9305988
0.1355645 0.3181744 0.9305276
0.1355282 0.3187433 0.9304517
0.1355040 0.3193315 0.9303755
0.1354901 0.3199419 0.9302984
0.1355543 0.3298011 0.9285135
0.1355510 0.3303071 0.9283923
0.1355352 0.3308034 0.9282688
0.1355632 0.3355576 0.9270795
0.1354654 0.3420639 0.9257149
0.1354874 0.3426949 0.9256214
0.1355005 0.3433209 0.9255349
0.1355176 0.3439503 0.9254480
0.1355454 0.3445992 0.9253625
0.1355724 0.3452405 0.9252882
0.1357068 0.3148027 0.9309232
0.1356266 0.3210695 0.9301501
0.1356303 0.3217071 0.9300613
0.1356373 0.3223484 0.9299682
0.1358335 0.3285519 0.9288422
0.1358394 0.3290567 0.9287278
0.1356642 0.3338273 0.9275260
0.1356508 0.3343153 0.9273998
0.1356264 0.3348076 0.9272716
0.1357942 0.3325183 0.9278722
0.1357915 0.3330081 0.9277483
0.1359863 0.3316777 0.9281087
0.1361610 0.3362893 0.9269761
0.1361429 0.3367636 0.9268613
0.1361284 0.3372173 0.9267555
0.1361067 0.3376439 0.9266592
0.1360912 0.3381481 0.9265432
0.1360816 0.3386746 0.9264289
0.1360487 0.3392065 0.9263154
0.1360219 0.3397586 0.9262004
