-0.0658795 0.3250861 0.8745467
-0.0658339 0.3256201 0.8744693
-0.0657892 0.3261484 0.8743942
-0.0660937 0.3268208 0.8741328
-0.0660485 0.3273556 0.8740600
-0.0663501 0.3280352 0.8738085
-0.0652741 0.2991770 0.8792027
-0.0652655 0.2997510 0.8791899
-0.0652566 0.3003166 0.8791722
-0.0652450 0.3008679 0.8791480
-0.0652340 0.3014124 0.8791176
-0.0652187 0.3019644 0.8790759
-0.0652011 0.3025111 0.8790276
-0.0651849 0.3030499 0.8789700
-0.0653510 0.2821271 0.8791251
-0.0654541 0.2939406 0.8789699
-0.0654691 0.2945475 0.8790000
-0.0654789 0.2951577 0.8790305
-0.0654860 0.2957593 0.8790564
-0.0654874 0.2963618 0.8790782
-0.0654874 0.2969662 0.8790971
-0.0654882 0.2975691 0.8791125
-0.0654881 0.2981716 0.8791197
-0.0654049 0.3035497 0.8788145
-0.0653821 0.3041111 0.8787464
-0.0653588 0.3046660 0.8786739
-0.0657069 0.2826522 0.8788872
-0.0656655 0.2832588 0.8788335
-0.0656268 0.2838709 0.8787858
-0.0655850 0.2896806 0.8786603
-0.0656116 0.2903148 0.8786760
-0.0656340 0.2909395 0.8786977
-0.0656538 0.2915565 0.8787239
-0.0656697 0.2921740 0.8787534
-0.0656807 0.2927875 0.8787894
-0.0655763 0.3052612 0.8784860
-0.0655485 0.3058279 0.8784020
-0.0655192 0.3063922 0.8783135
-0.0660426 0.2843829 0.8785441
-0.0660199 0.2849784 0.8785130
-0.0660003 0.2855763 0.8784872
-0.0659798 0.2861762 0.8784645
-0.0659689 0.2867840 0.8784516
-0.0659613 0.2873917 0.8784481
-0.0659569 0.2880034 0.8784496
-0.0659576 0.2886103 0.8784591
-0.0657287 0.3070159 0.8781098
-0.0656963 0.3075843 0.8780127
-0.0656635 0.3081480 0.8779145
-0.0656302 0.3087131 0.8778132
-0.0658339 0.3093342 0.8776002
-0.0658016 0.3098946 0.8774973
-0.0657673 0.3104568 0.8773936
-0.0650022 0.3209828 0.8757057
-0.0649475 0.3215580 0.8756271
-0.0648954 0.3220955 0.8755528
-0.0648468 0.3226092 0.8754797
-0.0648121 0.3231085 0.8754048
-0.0647821 0.3235789 0.8753325
-0.0647439 0.3240412 0.8752650
-0.0647004 0.3245057 0.8751983
-0.0659774 0.3110379 0.8771831
-0.0659452 0.3115902 0.8770817
-0.0659148 0.3121471 0.8769799
-0.0658833 0.3127096 0.8768767
-0.0658492 0.3132830 0.8767738
-0.0656611 0.3162721 0.8762747
-0.0656220 0.3168879 0.8761773
-0.0655034 0.3187429 0.8758901
-0.0654639 0.3193562 0.8757959
-0.0654229 0.3199687 0.8757038
-0.0660967 0.3137330 0.8765780
-0.0660729 0.3142845 0.8764791
-0.0660453 0.3148456 0.8763803
-0.0660144 0.3154098 0.8762847
-0.0659220 0.3171294 0.8760027
-0.0658859 0.3177204 0.8759083
-0.0653679 0.3252015 0.8747618
-0.0653203 0.3257444 0.8746826
-0.0652758 0.3262770 0.8746074
-0.0655782 0.3269544 0.8743468
-0.0655338 0.3274896 0.8742732
-0.0658316 0.3281705 0.8740237
-0.0647454 0.2980017 0.8794344
-0.0647393 0.2985806 0.8794358
-0.0647327 0.2991619 0.8794316
-0.0647233 0.2997448 0.8794169
-0.0647130 0.3003197 0.8793981
-0.0647012 0.3008845 0.8793724
-0.0646903 0.3014416 0.8793391
-0.0646748 0.3020025 0.8792946
-0.0646559 0.3025578 0.8792449
-0.0646377 0.3031057 0.8791894
-0.0648631 0.2822038 0.8793398
-0.0648153 0.2828132 0.8792822
-0.0648990 0.2932605 0.8791680
-0.0649143 0.2938751 0.8791989
-0.0649264 0.2944862 0.8792309
-0.0649348 0.2950977 0.8792616
-0.0649394 0.2957053 0.8792893
-0.0649385 0.2963133 0.8793110
-0.0649389 0.2969208 0.8793303
-0.0648581 0.3036118 0.8790309
-0.0648332 0.3041813 0.8789600
-0.0648070 0.3047421 0.8788851
-0.0647798 0.3052954 0.8788089
-0.0651771 0.2833326 0.8790480
-0.0651439 0.2839419 0.8789996
-0.0651153 0.2845581 0.8789610
-0.0650907 0.2851795 0.8789289
-0.0650689 0.2858058 0.8789026
-0.0650549 0.2864451 0.8788841
-0.0650836 0.2896349 0.8788850
-0.0651003 0.2902620 0.8789037
-0.0651153 0.2908839 0.8789281
-0.0651287 0.2915013 0.8789574
-0.0651379 0.2921180 0.8789887
-0.0649996 0.3059133 0.8786110
-0.0649671 0.3064784 0.8785234
-0.0649326 0.3070425 0.8784310
-0.0654824 0.2868058 0.8786798
-0.0654720 0.2873983 0.8786790
-0.0654623 0.2879983 0.8786822
-0.0654566 0.2885919 0.8786929
-0.0651507 0.3076729 0.8782184
-0.0651141 0.3082366 0.8781204
-0.0650766 0.3088008 0.8780206
-0.0650374 0.3093678 0.8779190
-0.0649966 0.3099406 0.8778171
-0.0652245 0.3105355 0.8775997
-0.0651851 0.3111018 0.8774981
-0.0651455 0.3116776 0.8773948
-0.0651045 0.3122628 0.8772912
-0.0645004 0.3209796 0.8759289
-0.0644509 0.3215655 0.8758491
-0.0644011 0.3221201 0.8757710
-0.0643518 0.3226517 0.8756960
-0.0643125 0.3231746 0.8756195
-0.0642795 0.3236670 0.8755462
-0.0642412 0.3241473 0.8754761
-0.0642016 0.3246247 0.8754091
-0.0653519 0.3127655 0.8770877
-0.0653173 0.3133331 0.8769859
-0.0652835 0.3139044 0.8768871
-0.0652462 0.3144900 0.8767886
-0.0652081 0.3150813 0.8766910
-0.0651692 0.3156801 0.8765938
-0.0651324 0.3162837 0.8764974
-0.0650959 0.3168888 0.8764023
-0.0650582 0.3175001 0.8763076
-0.0650206 0.3181111 0.8762142
-0.0649827 0.3187220 0.8761208
-0.0649433 0.3193345 0.8760286
-0.0649037 0.3199490 0.8759368
-0.0645025 0.3252227 0.8751587
-0.0644603 0.3257403 0.8750826
-0.0647605 0.3264063 0.8748231
-0.0647173 0.3269380 0.8747489
-0.0641907 0.2979666 0.8796634
-0.0641854 0.2985551 0.8796645
-0.0641820 0.2991441 0.8796570
-0.0641735 0.2997359 0.8796414
-0.0641643 0.3003211 0.8796204
-0.0641532 0.3008992 0.8795932
-0.0641413 0.3014700 0.8795581
-0.0641257 0.3020395 0.8795107
-0.0641053 0.3026033 0.8794581
-0.0640848 0.3031581 0.8794016
-0.0643652 0.2822740 0.8795531
-0.0643221 0.2828852 0.8794911
-0.0643604 0.2932004 0.8793949
-0.0643706 0.2938167 0.8794265
-0.0643784 0.2944308 0.8794602
-0.0643835 0.2950446 0.8794919
-0.0643852 0.2956563 0.8795221
-0.0643835 0.2962669 0.8795463
-0.0643834 0.2968750 0.8795665
-0.0643096 0.3036756 0.8792462
-0.0642854 0.3042531 0.8791757
-0.0642566 0.3048198 0.8790965
-0.0642246 0.3053784 0.8790150
-0.0646726 0.2833993 0.8792749
-0.0646460 0.2840091 0.8792256
-0.0646219 0.2846199 0.8791837
-0.0646011 0.2852332 0.8791495
-0.0645830 0.2858500 0.8791218
-0.0645690 0.2864699 0.8791016
-0.0645726 0.2896007 0.8791127
-0.0645807 0.2902212 0.8791335
-0.0645892 0.2908393 0.8791597
-0.0645964 0.2914556 0.8791913
-0.0645989 0.2920705 0.8792230
-0.0644518 0.3060013 0.8788192
-0.0644173 0.3065669 0.8787291
-0.0643795 0.3071308 0.8786350
-0.0649658 0.2868388 0.8789177
-0.0649549 0.2874188 0.8789168
-0.0649418 0.2880088 0.8789202
-0.0649324 0.2885894 0.8789305
-0.0646068 0.3077620 0.8784210
-0.0645686 0.3083242 0.8783227
-0.0645288 0.3088874 0.8782226
-0.0644874 0.3094540 0.8781233
-0.0644423 0.3100251 0.8780214
-0.0646870 0.3106135 0.8778022
-0.0646456 0.3111745 0.8777015
-0.0646051 0.3117445 0.8776001
-0.0645629 0.3123240 0.8774986
-0.0639954 0.3209713 0.8761562
-0.0639499 0.3215664 0.8760748
-0.0639026 0.3221386 0.8759940
-0.0638539 0.3226923 0.8759173
-0.0638095 0.3232360 0.8758400
-0.0637727 0.3237543 0.8757645
-0.0637355 0.3242533 0.8756934
-0.0636936 0.3247465 0.8756246
-0.0648299 0.3128175 0.8772927
-0.0647946 0.3133806 0.8771942
-0.0647620 0.3139425 0.8770983
-0.0647239 0.3145204 0.8770031
-0.0646850 0.3151051 0.8769081
-0.0646456 0.3156962 0.8768133
-0.0646080 0.3162931 0.8767202
-0.0645720 0.3168882 0.8766282
-0.0645358 0.3174885 0.8765348
-0.0644972 0.3180919 0.8764423
-0.0644593 0.3186968 0.8763520
-0.0644186 0.3193074 0.8762621
-0.0643781 0.3199236 0.8761719
-0.0639889 0.3253490 0.8753762
-0.0639458 0.3258766 0.8753031
-0.0642464 0.3265437 0.8750406
-0.0642032 0.3270795 0.8749676
-0.0635004 0.2824574 0.8799199
-0.0636351 0.2973348 0.8798814
-0.0636329 0.2979329 0.8798895
-0.0636284 0.2985301 0.8798882
-0.0636260 0.2991280 0.8798811
-0.0636190 0.2997268 0.8798649
-0.0636109 0.3003216 0.8798424
-0.0636012 0.3009127 0.8798127
-0.0635892 0.3014959 0.8797755
-0.0635736 0.3020762 0.8797259
-0.0635521 0.3026505 0.8796706
-0.0635296 0.3032151 0.8796109
-0.0635025 0.3037678 0.8795484
-0.0638198 0.2829511 0.8797110
-0.0637856 0.2835669 0.8796532
-0.0637535 0.2841860 0.8796018
-0.0637284 0.2848152 0.8795637
-0.0637080 0.2854491 0.8795342
-0.0636896 0.2860907 0.8795078
-0.0637853 0.2919031 0.8795600
-0.0638026 0.2925287 0.8795879
-0.0638140 0.2931486 0.8796211
-0.0638215 0.2937667 0.8796542
-0.0638264 0.2943832 0.8796879
-0.0638295 0.2949985 0.8797190
-0.0638312 0.2956119 0.8797488
-0.0638294 0.2962241 0.8797727
-0.0637308 0.3043238 0.8793789
-0.0637026 0.3048975 0.8792993
-0.0636711 0.3054623 0.8792177
-0.0640635 0.2864989 0.8793279
-0.0640539 0.2871116 0.8793167
-0.0640474 0.2877298 0.8793136
-0.0640443 0.2883460 0.8793164
-0.0640456 0.2889635 0.8793249
-0.0640479 0.2895807 0.8793410
-0.0640506 0.2901947 0.8793623
-0.0640542 0.2908085 0.8793894
-0.0638988 0.3060856 0.8790176
-0.0638642 0.3066536 0.8789261
-0.0638274 0.3072178 0.8788334
-0.0640594 0.3078487 0.8786195
-0.0640215 0.3084092 0.8785210
-0.0639826 0.3089714 0.8784208
-0.0639406 0.3095363 0.8783209
-0.0638955 0.3101052 0.8782199
-0.0630352 0.3229453 0.8762522
-0.0630046 0.3234424 0.8761820
-0.0641510 0.3106851 0.8780013
-0.0641097 0.3112406 0.8779023
-0.0640692 0.3118061 0.8778026
-0.0640266 0.3123807 0.8777022
-0.0639835 0.3129635 0.8776031
-0.0639400 0.3135551 0.8775048
-0.0638978 0.3141551 0.8774085
-0.0636307 0.3185059 0.8767460
-0.0635949 0.3191243 0.8766563
-0.0635584 0.3197398 0.8765667
-0.0635194 0.3203521 0.8764793
-0.0634799 0.3209603 0.8763918
-0.0634384 0.3215650 0.8763093
-0.0633952 0.3221550 0.8762258
-0.0632610 0.3238333 0.8759902
-0.0632248 0.3243561 0.8759159
-0.0631826 0.3248666 0.8758444
-0.0631382 0.3253686 0.8757764
-0.0630994 0.3258740 0.8757063
-0.0641988 0.3145503 0.8772129
-0.0641597 0.3151276 0.8771215
-0.0641195 0.3157116 0.8770311
-0.0640793 0.3163013 0.8769419
-0.0640440 0.3168880 0.8768530
-0.0640083 0.3174796 0.8767619
-0.0633916 0.3265384 0.8754488
-0.0636897 0.3272182 0.8751863
-0.0628063 0.3011799 0.8801039
-0.0627861 0.3017176 0.8800660
-0.0627619 0.3022483 0.8800220
-0.0630002 0.2825222 0.8801302
-0.0629591 0.2831326 0.8800700
-0.0629207 0.2837515 0.8800155
-0.0628881 0.2843832 0.8799634
-0.0630758 0.2972951 0.8801031
-0.0630746 0.2978984 0.8801106
-0.0630706 0.2985045 0.8801094
-0.0630673 0.2991114 0.8801017
-0.0630609 0.2997164 0.8800853
-0.0630537 0.3003202 0.8800608
-0.0629968 0.3026965 0.8798818
-0.0629737 0.3032691 0.8798185
-0.0629465 0.3038319 0.8797521
-0.0629210 0.3043897 0.8796815
-0.0628885 0.3049384 0.8796076
-0.0632270 0.2848648 0.8797838
-0.0632072 0.2854907 0.8797509
-0.0631891 0.2861206 0.8797234
-0.0631801 0.2867595 0.8797047
-0.0631769 0.2874007 0.8796965
-0.0631771 0.2880418 0.8796910
-0.0631823 0.2886880 0.8796923
-0.0631914 0.2893305 0.8797026
-0.0632036 0.2899683 0.8797159
-0.0632172 0.2906024 0.8797343
-0.0632319 0.2912331 0.8797591
-0.0632453 0.2918604 0.8797848
-0.0632579 0.2924834 0.8798160
-0.0632656 0.2931036 0.8798491
-0.0632710 0.2937224 0.8798823
-0.0632750 0.2943397 0.8799157
-0.0632785 0.2949555 0.8799458
-0.0632800 0.2955704 0.8799726
-0.0632793 0.2961839 0.8799962
-0.0631164 0.3055442 0.8794155
-0.0630804 0.3061073 0.8793278
-0.0630415 0.3066734 0.8792393
-0.0632754 0.3073037 0.8790285
-0.0632349 0.3078696 0.8789331
-0.0631902 0.3084369 0.8788354
-0.0634381 0.3090518 0.8786156
-0.0633957 0.3096150 0.8785166
-0.0633511 0.3101823 0.8784157
-0.0633045 0.3107562 0.8783159
-0.0632582 0.3113425 0.8782172
-0.0632113 0.3119362 0.8781171
-0.0631639 0.3125392 0.8780170
-0.0626440 0.3213508 0.8767023
-0.0625985 0.3219192 0.8766293
-0.0625559 0.3224576 0.8765577
-0.0625186 0.3229877 0.8764845
-0.0624830 0.3235080 0.8764129
-0.0624530 0.3239945 0.8763452
-0.0624220 0.3244741 0.8762742
-0.0623847 0.3249513 0.8762095
-0.0634513 0.3130099 0.8778071
-0.0634094 0.3135957 0.8777109
-0.0633681 0.3141885 0.8776166
-0.0633271 0.3147887 0.8775223
-0.0632872 0.3153957 0.8774300
-0.0632495 0.3160088 0.8773372
-0.0632133 0.3166253 0.8772474
-0.0631767 0.3172450 0.8771563
-0.0631409 0.3178654 0.8770660
-0.0631046 0.3184827 0.8769768
-0.0630674 0.3190992 0.8768892
-0.0630298 0.3197155 0.8768034
-0.0629910 0.3203320 0.8767174
-0.0626271 0.3254984 0.8759972
-0.0625884 0.3260137 0.8759259
-0.0628763 0.3266728 0.8756711
-0.0631773 0.3273530 0.8754107
-0.0622386 0.3011960 0.8803147
-0.0622198 0.3017476 0.8802780
-0.0621968 0.3022879 0.8802319
-0.0624946 0.2825767 0.8803390
-0.0624592 0.2831901 0.8802753
-0.0624262 0.2838076 0.8802191
-0.0623989 0.2844344 0.8801683
-0.0625179 0.2972561 0.8803265
-0.0625175 0.2978634 0.8803308
-0.0625153 0.2984759 0.8803267
-0.0625129 0.2990897 0.8803173
-0.0625075 0.2997015 0.8803025
-0.0625010 0.3003145 0.8802761
-0.0624423 0.3027409 0.8800886
-0.0624185 0.3033231 0.8800271
-0.0623909 0.3038950 0.8799568
-0.0623639 0.3044598 0.8798808
-0.0623320 0.3050159 0.8798036
-0.0627046 0.2849088 0.8800039
-0.0626884 0.2855304 0.8799700
-0.0626733 0.2861529 0.8799399
-0.0626644 0.2867822 0.8799218
-0.0626597 0.2874135 0.8799126
-0.0626573 0.2880456 0.8799065
-0.0626597 0.2886806 0.8799091
-0.0626655 0.2893149 0.8799193
-0.0626735 0.2899460 0.8799354
-0.0626823 0.2905748 0.8799556
-0.0626920 0.2912015 0.8799813
-0.0627005 0.2918242 0.8800088
-0.0627075 0.2924437 0.8800406
-0.0627130 0.2930627 0.8800745
-0.0627173 0.2936806 0.8801075
-0.0627219 0.2942972 0.8801397
-0.0627282 0.2949117 0.8801683
-0.0627326 0.2955265 0.8801933
-0.0627346 0.2961403 0.8802158
-0.0625615 0.3056271 0.8796105
-0.0625257 0.3061931 0.8795229
-0.0624860 0.3067589 0.8794313
-0.0627238 0.3073901 0.8792221
-0.0626837 0.3079544 0.8791251
-0.0626400 0.3085214 0.8790270
-0.0628942 0.3091309 0.8788093
-0.0628518 0.3096905 0.8787101
-0.0628077 0.3102552 0.8786098
-0.0627638 0.3108241 0.8785109
-0.0627178 0.3114050 0.8784120
-0.0626720 0.3119947 0.8783133
-0.0626258 0.3125929 0.8782158
-0.0621335 0.3213426 0.8769350
-0.0620910 0.3219236 0.8768599
-0.0620479 0.3224795 0.8767890
-0.0620085 0.3230276 0.8767153
-0.0619720 0.3235695 0.8766440
-0.0619425 0.3240749 0.8765735
-0.0619160 0.3245741 0.8765022
-0.0618766 0.3250691 0.8764345
-0.0629218 0.3130528 0.8780119
-0.0628811 0.3136326 0.8779177
-0.0628405 0.3142189 0.8778257
-0.0628012 0.3148127 0.8777342
-0.0627629 0.3154134 0.8776448
-0.0627239 0.3160190 0.8775550
-0.0626873 0.3166275 0.8774674
-0.0626508 0.3172382 0.8773807
-0.0626135 0.3178503 0.8772957
-0.0625748 0.3184628 0.8772101
-0.0625359 0.3190770 0.8771264
-0.0624958 0.3196937 0.8770429
-0.0624568 0.3203137 0.8769596
-0.0621171 0.3256294 0.8762217
-0.0620786 0.3261541 0.8761491
-0.0623636 0.3268111 0.8758969
-0.0626623 0.3274897 0.8756365
-0.0617056 0.3000614 0.8805882
-0.0616890 0.3006399 0.8805592
-0.0616751 0.3012106 0.8805246
-0.0616576 0.3017727 0.8804846
-0.0616370 0.3023254 0.8804353
-0.0616155 0.3028804 0.8803759
-0.0615928 0.3034246 0.8803153
-0.0619683 0.2826225 0.8805487
-0.0619389 0.2832383 0.8804818
-0.0619112 0.2838551 0.8804243
-0.0618862 0.2844780 0.8803719
-0.0618352 0.2863865 0.8802725
-0.0619531 0.2953776 0.8804944
-0.0619583 0.2959911 0.8805172
-0.0619605 0.2966046 0.8805313
-0.0619630 0.2972156 0.8805400
-0.0619638 0.2978271 0.8805443
-0.0619646 0.2984448 0.8805417
-0.0619630 0.2990649 0.8805308
-0.0618357 0.3039601 0.8801546
-0.0618069 0.3045304 0.8800774
-0.0617747 0.3050920 0.8799961
-0.0617371 0.3056485 0.8799120
-0.0621624 0.2849497 0.8802235
-0.0621491 0.2855683 0.8801879
-0.0621293 0.2868079 0.8801396
-0.0621246 0.2874298 0.8801293
-0.0621220 0.2880542 0.8801256
-0.0621219 0.2886792 0.8801277
-0.0621252 0.2893056 0.8801383
-0.0621302 0.2899301 0.8801544
-0.0621364 0.2905529 0.8801756
-0.0621435 0.2911741 0.8802028
-0.0621495 0.2917915 0.8802309
-0.0621526 0.2924066 0.8802620
-0.0621572 0.2930229 0.8802943
-0.0621626 0.2936385 0.8803264
-0.0621682 0.2942533 0.8803566
-0.0619695 0.3062771 0.8797132
-0.0619309 0.3068434 0.8796220
-0.0618882 0.3074130 0.8795279
-0.0621308 0.3080364 0.8793151
-0.0620887 0.3086020 0.8792163
-0.0620437 0.3091733 0.8791178
-0.0623054 0.3097612 0.8789032
-0.0622632 0.3103213 0.8788031
-0.0622227 0.3108860 0.8787043
-0.0621781 0.3114616 0.8786080
-0.0621332 0.3120481 0.8785099
-0.0620887 0.3126408 0.8784146
-0.0620459 0.3132392 0.8783203
-0.0620025 0.3138473 0.8782262
-0.0619621 0.3144622 0.8781331
-0.0617293 0.3188732 0.8775059
-0.0617002 0.3194968 0.8774218
-0.0616710 0.3201174 0.8773390
-0.0616403 0.3207312 0.8772588
-0.0616092 0.3213371 0.8771785
-0.0615707 0.3219294 0.8771020
-0.0615307 0.3225038 0.8770282
-0.0614921 0.3230682 0.8769547
-0.0614537 0.3236250 0.8768807
-0.0614235 0.3241545 0.8768092
-0.0613956 0.3246739 0.8767359
-0.0613579 0.3251859 0.8766679
-0.0622723 0.3148380 0.8779451
-0.0622356 0.3154329 0.8778582
-0.0621963 0.3160321 0.8777740
-0.0621587 0.3166336 0.8776902
-0.0621202 0.3172373 0.8776048
-0.0620808 0.3178425 0.8775231
-0.0616005 0.3257524 0.8764507
-0.0615652 0.3262871 0.8763786
-0.0615256 0.3268189 0.8763070
-0.0618140 0.3274844 0.8760539
-0.0612055 0.2822315 0.8809194
-0.0611702 0.2828326 0.8808507
-0.0611615 0.2982693 0.8808434
-0.0611563 0.2988671 0.8808318
-0.0611507 0.2994610 0.8808172
-0.0611453 0.3000530 0.8807967
-0.0611323 0.3006415 0.8807646
-0.0611197 0.3012238 0.8807286
-0.0611032 0.3017984 0.8806865
-0.0610830 0.3023630 0.8806355
-0.0610611 0.3029274 0.8805734
-0.0610388 0.3034819 0.8805095
-0.0610121 0.3040267 0.8804414
-0.0614026 0.2832814 0.8806988
-0.0613790 0.2838991 0.8806397
-0.0613581 0.2845205 0.8805879
-0.0613405 0.2851457 0.8805468
-0.0613253 0.2857747 0.8805143
-0.0613126 0.2864135 0.8804856
-0.0613040 0.2870592 0.8804688
-0.0613431 0.2915931 0.8805379
-0.0613572 0.2922295 0.8805637
-0.0613828 0.2941004 0.8806536
-0.0613892 0.2947189 0.8806803
-0.0613962 0.2953350 0.8807049
-0.0614025 0.2959488 0.8807260
-0.0614065 0.2965630 0.8807398
-0.0614101 0.2971750 0.8807478
-0.0612483 0.3046015 0.8802671
-0.0612174 0.3051692 0.8801863
-0.0611822 0.3057301 0.8801006
-0.0615773 0.2874488 0.8803519
-0.0615744 0.2880656 0.8803470
-0.0615733 0.2886818 0.8803484
-0.0615760 0.2892999 0.8803593
-0.0615798 0.2899176 0.8803751
-0.0615847 0.2905345 0.8803971
-0.0615978 0.2923716 0.8804785
-0.0616035 0.2929852 0.8805090
-0.0614100 0.3063606 0.8799022
-0.0613737 0.3069274 0.8798096
-0.0613338 0.3074964 0.8797135
-0.0612905 0.3080693 0.8796168
-0.0612422 0.3086506 0.8795189
-0.0614916 0.3092486 0.8793066
-0.0614479 0.3098248 0.8792080
-0.0614021 0.3104096 0.8791106
-0.0616750 0.3109450 0.8788997
-0.0616337 0.3115136 0.8788036
-0.0615922 0.3120969 0.8787062
-0.0615508 0.3126852 0.8786116
-0.0615094 0.3132799 0.8785190
-0.0614696 0.3138816 0.8784283
-0.0614309 0.3144896 0.8783384
-0.0613929 0.3151026 0.8782501
-0.0613564 0.3157208 0.8781647
-0.0613223 0.3163440 0.8780768
-0.0612898 0.3169707 0.8779924
-0.0612574 0.3175989 0.8779077
-0.0612268 0.3182272 0.8778241
-0.0611958 0.3188527 0.8777409
-0.0611646 0.3194761 0.8776598
-0.0611337 0.3200973 0.8775801
-0.0611024 0.3207149 0.8775019
-0.0610711 0.3213280 0.8774237
-0.0610366 0.3219335 0.8773465
-0.0610012 0.3225269 0.8772693
-0.0609654 0.3231095 0.8771961
-0.0609297 0.3236838 0.8771232
-0.0608970 0.3242351 0.8770483
-0.0608683 0.3247760 0.8769746
-0.0608291 0.3253047 0.8769071
-0.0607896 0.3258261 0.8768409
-0.0607473 0.3263477 0.8767734
-0.0610082 0.3269640 0.8765408
-0.0613038 0.3276188 0.8762841
-0.0606771 0.2822697 0.8811207
-0.0606484 0.2828739 0.8810475
-0.0606031 0.2982350 0.8810515
-0.0605983 0.2988401 0.8810381
-0.0605929 0.2994413 0.8810218
-0.0605858 0.3000425 0.8809985
-0.0605771 0.3006400 0.8809660
-0.0605642 0.3012357 0.8809294
-0.0605488 0.3018231 0.8808833
-0.0605289 0.3024012 0.8808290
-0.0605049 0.3029751 0.8807659
-0.0604811 0.3035378 0.8807015
-0.0604553 0.3040917 0.8806305
-0.0608510 0.2833195 0.8809165
-0.0608313 0.2839404 0.8808549
-0.0608139 0.2845621 0.8808026
-0.0607989 0.2851855 0.8807589
-0.0607864 0.2858111 0.8807237
-0.0607759 0.2864420 0.8806956
-0.0607682 0.2870788 0.8806776
-0.0607906 0.2915619 0.8807493
-0.0608008 0.2921936 0.8807772
-0.0608254 0.2940596 0.8808651
-0.0608327 0.2946762 0.8808899
-0.0608410 0.2952904 0.8809118
-0.0608494 0.2959034 0.8809310
-0.0608571 0.2965171 0.8809446
-0.0608633 0.2971296 0.8809546
-0.0606886 0.3046752 0.8804550
-0.0606565 0.3052481 0.8803716
-0.0606229 0.3058136 0.8802844
-0.0610098 0.2874701 0.8805724
-0.0610096 0.2880806 0.8805662
-0.0610093 0.2886891 0.8805661
-0.0610134 0.2892989 0.8805769
-0.0610176 0.2899097 0.8805923
-0.0610224 0.2905220 0.8806134
-0.0610398 0.2923402 0.8806915
-0.0610476 0.2929486 0.8807212
-0.0608489 0.3064441 0.8800882
-0.0608133 0.3070115 0.8799951
-0.0607754 0.3075801 0.8798985
-0.0607342 0.3081522 0.8798004
-0.0606898 0.3087316 0.8797022
-0.0609372 0.3093221 0.8794959
-0.0608963 0.3098939 0.8793967
-0.0608549 0.3104745 0.8792994
-0.0611265 0.3110006 0.8790989
-0.0610880 0.3115620 0.8790033
-0.0610492 0.3121432 0.8789074
-0.0610114 0.3127268 0.8788130
-0.0609735 0.3133182 0.8787234
-0.0609357 0.3139139 0.8786341
-0.0608993 0.3145159 0.8785487
-0.0608630 0.3151239 0.8784625
-0.0608280 0.3157365 0.8783781
-0.0607929 0.3163528 0.8782934
-0.0607596 0.3169725 0.8782122
-0.0607268 0.3175948 0.8781323
-0.0606941 0.3182171 0.8780535
-0.0606611 0.3188397 0.8779765
-0.0606276 0.3194621 0.8778997
-0.0605949 0.3200836 0.8778259
-0.0605616 0.3207039 0.8777505
-0.0605296 0.3213232 0.8776748
-0.0604977 0.3219392 0.8775981
-0.0604665 0.3225494 0.8775210
-0.0604343 0.3231494 0.8774465
-0.0603994 0.3237407 0.8773710
-0.0603653 0.3243124 0.8772959
-0.0603323 0.3248731 0.8772207
-0.0602960 0.3254197 0.8771522
-0.0602576 0.3259577 0.8770860
-0.0602139 0.3264935 0.8770173
-0.0604929 0.3271036 0.8767784
-0.0607967 0.3277483 0.8765178
-0.0601317 0.2823024 0.8813259
-0.0601062 0.2829107 0.8812504
-0.0600824 0.2835211 0.8811837
-0.0600386 0.2963813 0.8812467
-0.0600437 0.2969892 0.8812546
-0.0600476 0.2975945 0.8812573
-0.0600477 0.2982001 0.8812536
-0.0600462 0.2988118 0.8812399
-0.0600417 0.2994204 0.8812243
-0.0600333 0.3000311 0.8811986
-0.0600247 0.3006393 0.8811648
-0.0600121 0.3012478 0.8811261
-0.0599936 0.3018488 0.8810775
-0.0599730 0.3024415 0.8810237
-0.0599461 0.3030243 0.8809587
-0.0599197 0.3035968 0.8808903
-0.0598931 0.3041589 0.8808157
-0.0598652 0.3047200 0.8807363
-0.0598339 0.3052748 0.8806538
-0.0602673 0.2839755 0.8810656
-0.0602526 0.2845977 0.8810126
-0.0602398 0.2852202 0.8809676
-0.0602294 0.2858435 0.8809325
-0.0602206 0.2864689 0.8809040
-0.0602145 0.2870989 0.8808860
-0.0602098 0.2877302 0.8808757
-0.0602081 0.2883644 0.8808738
-0.0602088 0.2890023 0.8808794
-0.0602122 0.2896391 0.8808929
-0.0602167 0.2902745 0.8809113
-0.0602229 0.2909070 0.8809331
-0.0602310 0.2915357 0.8809598
-0.0602403 0.2921618 0.8809876
-0.0602497 0.2927831 0.8810163
-0.0602591 0.2934014 0.8810447
-0.0602692 0.2940178 0.8810723
-0.0602806 0.2946310 0.8810965
-0.0602918 0.2952434 0.8811140
-0.0600606 0.3058940 0.8804653
-0.0600251 0.3064618 0.8803746
-0.0599870 0.3070353 0.8802804
-0.0602135 0.3076583 0.8800809
-0.0601753 0.3082301 0.8799840
-0.0601336 0.3088078 0.8798843
-0.0600901 0.3093954 0.8797841
-0.0603381 0.3099567 0.8795859
-0.0603003 0.3105332 0.8794876
-0.0602605 0.3111190 0.8793909
-0.0602207 0.3117134 0.8792954
-0.0601810 0.3123144 0.8792015
-0.0604625 0.3127656 0.8790173
-0.0604276 0.3133532 0.8789291
-0.0603936 0.3139461 0.8788427
-0.0603591 0.3145427 0.8787579
-0.0603257 0.3151463 0.8786744
-0.0602935 0.3157549 0.8785946
-0.0602581 0.3163657 0.8785131
-0.0602242 0.3169795 0.8784347
-0.0601907 0.3175961 0.8783580
-0.0601569 0.3182135 0.8782839
-0.0601232 0.3188338 0.8782112
-0.0600891 0.3194559 0.8781387
-0.0600552 0.3200779 0.8780680
-0.0600217 0.3207001 0.8779969
-0.0599888 0.3213253 0.8779245
-0.0599574 0.3219493 0.8778497
-0.0599282 0.3225724 0.8777727
-0.0599006 0.3231886 0.8776934
-0.0598704 0.3237955 0.8776170
-0.0598385 0.3243864 0.8775411
-0.0598070 0.3249652 0.8774673
-0.0597720 0.3255272 0.8773937
-0.0597358 0.3260795 0.8773241
-0.0596962 0.3266285 0.8772572
-0.0599829 0.3272311 0.8770148
-0.0591947 0.2997893 0.8815147
-0.0591876 0.3003635 0.8814846
-0.0591766 0.3009312 0.8814491
-0.0591658 0.3014821 0.8814073
-0.0591432 0.3020391 0.8813562
-0.0591237 0.3025822 0.8813000
-0.0595713 0.2823360 0.8815376
-0.0595485 0.2829477 0.8814580
-0.0595283 0.2835608 0.8813893
-0.0595109 0.2841777 0.8813283
-0.0594951 0.2847983 0.8812785
-0.0594809 0.2854242 0.8812369
-0.0594694 0.2860568 0.8812089
-0.0594604 0.2867060 0.8811846
-0.0594547 0.2938721 0.8813635
-0.0594609 0.2944945 0.8813908
-0.0594683 0.2951132 0.8814153
-0.0594759 0.2957269 0.8814342
-0.0594839 0.2963374 0.8814468
-0.0594907 0.2969472 0.8814538
-0.0594974 0.2975544 0.8814550
-0.0594999 0.2981664 0.8814524
-0.0594991 0.2987848 0.8814390
-0.0593905 0.3030741 0.8811476
-0.0593632 0.3036549 0.8810771
-0.0593349 0.3042237 0.8810003
-0.0593043 0.3047882 0.8809168
-0.0592730 0.3053489 0.8808335
-0.0596490 0.2871187 0.8810964
-0.0596462 0.2877451 0.8810863
-0.0596452 0.2883729 0.8810834
-0.0596460 0.2890033 0.8810886
-0.0596493 0.2896335 0.8811014
-0.0596542 0.2902614 0.8811190
-0.0596610 0.2908874 0.8811404
-0.0596696 0.2915103 0.8811658
-0.0596792 0.2921298 0.8811935
-0.0596896 0.2927464 0.8812204
-0.0594976 0.3059718 0.8806467
-0.0594620 0.3065408 0.8805546
-0.0594246 0.3071139 0.8804602
-0.0593831 0.3076956 0.8803640
-0.0596134 0.3083036 0.8801663
-0.0595742 0.3088799 0.8800687
-0.0595334 0.3094648 0.8799703
-0.0594901 0.3100599 0.8798703
-0.0594458 0.3106639 0.8797729
-0.0597063 0.3111676 0.8795811
-0.0596692 0.3117584 0.8794876
-0.0596321 0.3123574 0.8793949
-0.0595949 0.3129620 0.8793055
-0.0595584 0.3135709 0.8792181
-0.0595234 0.3141865 0.8791354
-0.0594891 0.3148048 0.8790525
-0.0594559 0.3154266 0.8789727
-0.0594249 0.3160508 0.8788952
-0.0591912 0.3216908 0.8782416
-0.0591610 0.3222876 0.8781744
-0.0591278 0.3228755 0.8781088
-0.0590929 0.3234557 0.8780450
-0.0590578 0.3240272 0.8779795
-0.0597277 0.3163780 0.8787298
-0.0596934 0.3169884 0.8786554
-0.0596586 0.3176007 0.8785817
-0.0596239 0.3182139 0.8785124
-0.0595894 0.3188325 0.8784439
-0.0595546 0.3194543 0.8783753
-0.0595193 0.3200766 0.8783077
-0.0594841 0.3207000 0.8782400
-0.0593122 0.3244538 0.8777911
-0.0592807 0.3250498 0.8777160
-0.0592478 0.3256296 0.8776431
-0.0592130 0.3261976 0.8775725
-0.0591725 0.3267603 0.8775032
-0.0591300 0.3273225 0.8774370
-0.0586421 0.2997701 0.8817096
-0.0586346 0.3003534 0.8816778
-0.0586223 0.3009335 0.8816402
-0.0586103 0.3015009 0.8815953
-0.0585880 0.3020693 0.8815434
-0.0585708 0.3026210 0.8814849
-0.0590063 0.2823653 0.8817472
-0.0589873 0.2829804 0.8816669
-0.0589701 0.2835958 0.8815941
-0.0589554 0.2842128 0.8815317
-0.0589421 0.2848321 0.8814784
-0.0589315 0.2854560 0.8814359
-0.0589225 0.2860850 0.8814038
-0.0589158 0.2867276 0.8813784
-0.0588946 0.2938335 0.8815642
-0.0589026 0.2944525 0.8815907
-0.0589122 0.2950683 0.8816135
-0.0589228 0.2956808 0.8816315
-0.0589327 0.2962915 0.8816408
-0.0589419 0.2969038 0.8816477
-0.0589517 0.2975128 0.8816500
-0.0589581 0.2981296 0.8816487
-0.0589582 0.2987560 0.8816332
-0.0588326 0.3031265 0.8813307
-0.0588041 0.3037144 0.8812578
-0.0587753 0.3042894 0.8811814
-0.0587455 0.3048575 0.8810995
-0.0587159 0.3054215 0.8810135
-0.0590695 0.2871379 0.8813064
-0.0590690 0.2877589 0.8812952
-0.0590702 0.2883812 0.8812909
-0.0590719 0.2890044 0.8812945
-0.0590765 0.2896286 0.8813066
-0.0590838 0.2902488 0.8813236
-0.0590923 0.2908680 0.8813448
-0.0591020 0.2914854 0.8813696
-0.0591133 0.2920971 0.8813962
-0.0591268 0.2927082 0.8814219
-0.0589307 0.3060508 0.8808278
-0.0588969 0.3066198 0.8807346
-0.0588615 0.3071914 0.8806389
-0.0588237 0.3077708 0.8805415
-0.0590445 0.3083748 0.8803493
-0.0590088 0.3089482 0.8802511
-0.0589722 0.3095291 0.8801531
-0.0589345 0.3101200 0.8800557
-0.0588948 0.3107208 0.8799597
-0.0591460 0.3112122 0.8797758
-0.0591129 0.3117980 0.8796816
-0.0590811 0.3123941 0.8795905
-0.0590485 0.3129948 0.8795040
-0.0590163 0.3136009 0.8794214
-0.0589845 0.3142127 0.8793411
-0.0589520 0.3148267 0.8792592
-0.0589213 0.3154451 0.8791820
-0.0588919 0.3160658 0.8791091
-0.0586483 0.3216943 0.8784986
-0.0586196 0.3223034 0.8784340
-0.0585896 0.3229069 0.8783689
-0.0585558 0.3235017 0.8783056
-0.0585214 0.3240880 0.8782417
-0.0591909 0.3163888 0.8789490
-0.0591569 0.3169975 0.8788777
-0.0591238 0.3176069 0.8788090
-0.0590888 0.3182157 0.8787412
-0.0590538 0.3188320 0.8786745
-0.0590183 0.3194528 0.8786068
-0.0589835 0.3200750 0.8785432
-0.0589481 0.3206986 0.8784802
-0.0587893 0.3245146 0.8780399
-0.0587605 0.3251258 0.8779643
-0.0587294 0.3257241 0.8778922
-0.0586963 0.3263072 0.8778214
-0.0586590 0.3268816 0.8777520
-0.0586185 0.3274514 0.8776843
-0.0580938 0.2979699 0.8819515
-0.0580969 0.2985598 0.8819439
-0.0580968 0.2991579 0.8819229
-0.0580913 0.2997534 0.8818997
-0.0580846 0.3003455 0.8818661
-0.0580720 0.3009386 0.8818265
-0.0580577 0.3015205 0.8817815
-0.0580357 0.3020976 0.8817261
-0.0580170 0.3026625 0.8816674
-0.0579989 0.3032199 0.8815996
-0.0579818 0.3037727 0.8815284
-0.0584265 0.2823886 0.8819559
-0.0584089 0.2830059 0.8818758
-0.0583930 0.2836228 0.8818027
-0.0583798 0.2842406 0.8817381
-0.0583688 0.2848600 0.8816837
-0.0583599 0.2854828 0.8816379
-0.0583538 0.2861107 0.8816046
-0.0583491 0.2867475 0.8815763
-0.0583172 0.2925481 0.8817012
-0.0583251 0.2931729 0.8817318
-0.0583338 0.2937932 0.8817600
-0.0583445 0.2944082 0.8817850
-0.0583575 0.2950203 0.8818052
-0.0583720 0.2956310 0.8818221
-0.0583864 0.2962411 0.8818330
-0.0583989 0.2968559 0.8818373
-0.0582114 0.3043581 0.8813593
-0.0581816 0.3049289 0.8812763
-0.0581538 0.3054950 0.8811889
-0.0584820 0.2871528 0.8815166
-0.0584837 0.2877688 0.8815053
-0.0584869 0.2883861 0.8815003
-0.0584893 0.2890026 0.8815027
-0.0584958 0.2896204 0.8815135
-0.0585054 0.2902338 0.8815300
-0.0585167 0.2908455 0.8815493
-0.0585292 0.2914564 0.8815732
-0.0583547 0.3061317 0.8810056
-0.0583240 0.3066981 0.8809119
-0.0582924 0.3072676 0.8808154
-0.0582590 0.3078435 0.8807166
-0.0584658 0.3084458 0.8805333
-0.0584342 0.3090140 0.8804348
-0.0584028 0.3095899 0.8803369
-0.0583703 0.3101749 0.8802402
-0.0583368 0.3107717 0.8801440
-0.0583030 0.3113796 0.8800507
-0.0582676 0.3119902 0.8799594
-0.0582306 0.3126081 0.8798711
-0.0584933 0.3130241 0.8797082
-0.0584663 0.3136257 0.8796262
-0.0584391 0.3142340 0.8795470
-0.0584107 0.3148461 0.8794704
-0.0583823 0.3154624 0.8793949
-0.0583553 0.3160803 0.8793244
-0.0583285 0.3167017 0.8792570
-0.0583017 0.3173253 0.8791909
-0.0582742 0.3179494 0.8791240
-0.0582475 0.3185756 0.8790610
-0.0582203 0.3192011 0.8789987
-0.0581930 0.3198276 0.8789367
-0.0581653 0.3204536 0.8788752
-0.0581376 0.3210777 0.8788132
-0.0581106 0.3217010 0.8787518
-0.0580836 0.3223207 0.8786884
-0.0580546 0.3229363 0.8786214
-0.0580253 0.3235450 0.8785579
-0.0579937 0.3241454 0.8784933
-0.0579609 0.3247384 0.8784273
-0.0579282 0.3253175 0.8783621
-0.0582210 0.3258085 0.8781406
-0.0581898 0.3264052 0.8780684
-0.0581552 0.3269901 0.8779981
-0.0581169 0.3275690 0.8779298
-0.0572231 0.2989499 0.8822333
-0.0572233 0.2995191 0.8822118
-0.0572178 0.3000763 0.8821834
-0.0572152 0.3006321 0.8821454
-0.0572100 0.3011614 0.8821035
-0.0572019 0.3016949 0.8820538
-0.0571995 0.3022104 0.8819982
-0.0575268 0.2961291 0.8821375
-0.0575348 0.2967296 0.8821422
-0.0575424 0.2973305 0.8821444
-0.0575489 0.2979292 0.8821414
-0.0574615 0.3027046 0.8818489
-0.0574416 0.3032679 0.8817788
-0.0574229 0.3038267 0.8817045
-0.0574033 0.3043819 0.8816236
-0.0578454 0.2824139 0.8821611
-0.0578276 0.2830315 0.8820787
-0.0578125 0.2836487 0.8820054
-0.0577999 0.2842662 0.8819412
-0.0577895 0.2848843 0.8818860
-0.0577820 0.2855057 0.8818411
-0.0577761 0.2861312 0.8818054
-0.0577718 0.2867637 0.8817764
-0.0577449 0.2918879 0.8818690
-0.0577513 0.2925150 0.8818984
-0.0577609 0.2931340 0.8819277
-0.0577724 0.2937492 0.8819553
-0.0577864 0.2943589 0.8819784
-0.0578034 0.2949664 0.8819983
-0.0576130 0.3050001 0.8814516
-0.0575847 0.3055678 0.8813635
-0.0575558 0.3061348 0.8812710
-0.0578929 0.2871635 0.8817215
-0.0578962 0.2877732 0.8817107
-0.0579012 0.2883847 0.8817058
-0.0579031 0.2889957 0.8817067
-0.0579119 0.2896067 0.8817174
-0.0579224 0.2902140 0.8817332
-0.0579375 0.2908160 0.8817511
-0.0577468 0.3067744 0.8810888
-0.0577181 0.3073415 0.8809934
-0.0576883 0.3079148 0.8808968
-0.0576563 0.3084956 0.8807962
-0.0576237 0.3090901 0.8806963
-0.0578272 0.3096475 0.8805224
-0.0577987 0.3102263 0.8804272
-0.0577698 0.3108188 0.8803322
-0.0577394 0.3114210 0.8802396
-0.0577081 0.3120293 0.8801502
-0.0576752 0.3126430 0.8800635
-0.0576424 0.3132637 0.8799816
-0.0576096 0.3138850 0.8799050
-0.0575772 0.3145121 0.8798327
-0.0575470 0.3151395 0.8797647
-0.0578431 0.3154741 0.8796047
-0.0578182 0.3160907 0.8795349
-0.0577927 0.3167101 0.8794693
-0.0577674 0.3173312 0.8794065
-0.0577410 0.3179526 0.8793437
-0.0577157 0.3185773 0.8792864
-0.0576902 0.3192022 0.8792306
-0.0576648 0.3198293 0.8791760
-0.0576367 0.3204552 0.8791181
-0.0576081 0.3210819 0.8790594
-0.0575795 0.3217097 0.8789989
-0.0575529 0.3223369 0.8789390
-0.0575251 0.3229616 0.8788759
-0.0574986 0.3235828 0.8788129
-0.0574697 0.3241965 0.8787495
-0.0574377 0.3248032 0.8786838
-0.0574043 0.3253980 0.8786187
-0.0573684 0.3259840 0.8785543
-0.0576918 0.3264925 0.8783132
-0.0576585 0.3270899 0.8782418
-0.0576219 0.3276791 0.8781731
-0.0566773 0.2977869 0.8824426
-0.0566825 0.2983524 0.8824383
-0.0566823 0.2989195 0.8824193
-0.0566822 0.2994953 0.8823978
-0.0566760 0.3000601 0.8823682
-0.0566721 0.3006248 0.8823285
-0.0566646 0.3011663 0.8822874
-0.0566570 0.3017073 0.8822369
-0.0566567 0.3022359 0.8821777
-0.0566442 0.3027668 0.8821122
-0.0569789 0.2960799 0.8823266
-0.0569889 0.2966798 0.8823313
-0.0568846 0.3033214 0.8819579
-0.0568638 0.3038845 0.8818784
-0.0568416 0.3044444 0.8817948
-0.0572600 0.2824424 0.8823660
-0.0572427 0.2830596 0.8822819
-0.0572283 0.2836759 0.8822068
-0.0572169 0.2842924 0.8821419
-0.0572078 0.2849090 0.8820859
-0.0572013 0.2855284 0.8820399
-0.0571956 0.2861521 0.8820036
-0.0571913 0.2867816 0.8819745
-0.0571753 0.2918561 0.8820655
-0.0571835 0.2924749 0.8820929
-0.0571952 0.2930879 0.8821213
-0.0572096 0.2936977 0.8821484
-0.0572274 0.2943014 0.8821717
-0.0572474 0.2949052 0.8821902
-0.0570388 0.3050728 0.8816253
-0.0570116 0.3056408 0.8815364
-0.0569862 0.3062073 0.8814437
-0.0572949 0.2871687 0.8819290
-0.0572998 0.2877737 0.8819166
-0.0573083 0.2883788 0.8819102
-0.0573116 0.2889828 0.8819110
-0.0573223 0.2895863 0.8819203
-0.0573328 0.2901886 0.8819348
-0.0573522 0.2907797 0.8819518
-0.0571615 0.3068509 0.8812675
-0.0571366 0.3074150 0.8811718
-0.0571105 0.3079841 0.8810742
-0.0570831 0.3085624 0.8809758
-0.0570544 0.3091529 0.8808750
-0.0572425 0.3097010 0.8807085
-0.0572197 0.3102720 0.8806149
-0.0571962 0.3108604 0.8805208
-0.0571718 0.3114568 0.8804315
-0.0571449 0.3120624 0.8803414
-0.0571179 0.3126726 0.8802586
-0.0570904 0.3132898 0.8801817
-0.0570620 0.3139086 0.8801074
-0.0570330 0.3145318 0.8800357
-0.0570062 0.3151565 0.8799715
-0.0573053 0.3154790 0.8798183
-0.0572852 0.3160958 0.8797520
-0.0572625 0.3167159 0.8796886
-0.0572405 0.3173374 0.8796300
-0.0572178 0.3179584 0.8795725
-0.0571938 0.3185818 0.8795172
-0.0571688 0.3192064 0.8794625
-0.0571434 0.3198338 0.8794073
-0.0571171 0.3204601 0.8793543
-0.0570901 0.3210891 0.8793005
-0.0570599 0.3217201 0.8792391
-0.0570325 0.3223512 0.8791834
-0.0570055 0.3229827 0.8791235
-0.0569802 0.3236126 0.8790614
-0.0569545 0.3242387 0.8789993
-0.0569256 0.3248590 0.8789353
-0.0568933 0.3254692 0.8788706
-0.0568584 0.3260705 0.8788069
-0.0572047 0.3265644 0.8785571
-0.0571727 0.3271753 0.8784840
-0.0571377 0.3277749 0.8784145
-0.0561387 0.2983157 0.8826237
-0.0561371 0.2988901 0.8826061
-0.0561362 0.2994734 0.8825818
-0.0561314 0.3000468 0.8825511
-0.0561259 0.3006205 0.8825101
-0.0561161 0.3011738 0.8824669
-0.0561067 0.3017273 0.8824139
-0.0561036 0.3022677 0.8823531
-0.0560921 0.3028075 0.8822855
-0.0563954 0.2942150 0.8824548
-0.0564029 0.2948220 0.8824763
-0.0564133 0.2954254 0.8824963
-0.0564253 0.2960254 0.8825121
-0.0564374 0.2966282 0.8825183
-0.0564457 0.2972372 0.8825207
-0.0563180 0.3033800 0.8821317
-0.0562960 0.3039464 0.8820518
-0.0562740 0.3045089 0.8819676
-0.0566691 0.2824743 0.8825676
-0.0566520 0.2830899 0.8824826
-0.0566384 0.2837043 0.8824076
-0.0566277 0.2843186 0.8823410
-0.0566198 0.2849332 0.8822847
-0.0566140 0.2855507 0.8822384
-0.0566094 0.2861718 0.8822020
-0.0566058 0.2867975 0.8821732
-0.0565881 0.2899534 0.8821827
-0.0565882 0.2905802 0.8822054
-0.0565932 0.2912013 0.8822331
-0.0566012 0.2918183 0.8822609
-0.0566127 0.2924285 0.8822863
-0.0566271 0.2930351 0.8823143
-0.0564609 0.3051456 0.8818018
-0.0564333 0.3057134 0.8817087
-0.0564093 0.3062799 0.8816160
-0.0566903 0.2871676 0.8821352
-0.0566956 0.2877685 0.8821221
-0.0567070 0.2883676 0.8821164
-0.0567118 0.2889634 0.8821161
-0.0565697 0.3069258 0.8814466
-0.0565480 0.3074865 0.8813498
-0.0565255 0.3080517 0.8812521
-0.0565025 0.3086251 0.8811539
-0.0564782 0.3092115 0.8810562
-0.0564527 0.3098121 0.8809584
-0.0566339 0.3103151 0.8808051
-0.0566160 0.3108970 0.8807134
-0.0565975 0.3114863 0.8806247
-0.0565776 0.3120894 0.8805391
-0.0565547 0.3126966 0.8804547
-0.0565314 0.3133099 0.8803774
-0.0565073 0.3139266 0.8803039
-0.0564834 0.3145468 0.8802358
-0.0564600 0.3151693 0.8801719
-0.0564370 0.3157943 0.8801130
-0.0564147 0.3164197 0.8800588
-0.0563928 0.3170464 0.8800061
-0.0563714 0.3176748 0.8799566
-0.0563487 0.3183032 0.8799054
-0.0563281 0.3189313 0.8798599
-0.0563054 0.3195600 0.8798121
-0.0562816 0.3201876 0.8797642
-0.0566200 0.3204662 0.8795835
-0.0565946 0.3210989 0.8795321
-0.0565675 0.3217335 0.8794795
-0.0565384 0.3223680 0.8794265
-0.0565115 0.3230042 0.8793703
-0.0564831 0.3236370 0.8793127
-0.0564569 0.3242733 0.8792515
-0.0564299 0.3249070 0.8791872
-0.0563997 0.3255315 0.8791232
-0.0563658 0.3261459 0.8790590
-0.0563296 0.3267512 0.8789962
-0.0562900 0.3273490 0.8789327
-0.0552713 0.2992429 0.8828799
-0.0552776 0.2997667 0.8828525
-0.0552866 0.3002906 0.8828123
-0.0552842 0.3008076 0.8827710
-0.0552857 0.3013024 0.8827234
-0.0555800 0.2971154 0.8828164
-0.0555862 0.2976995 0.8828139
-0.0555912 0.2982829 0.8828090
-0.0555532 0.3017539 0.8825912
-0.0555476 0.3023057 0.8825282
-0.0555373 0.3028509 0.8824584
-0.0555338 0.3033900 0.8823831
-0.0555229 0.3039383 0.8823029
-0.0559811 0.2820730 0.8828710
-0.0558329 0.2941638 0.8826435
-0.0558428 0.2947665 0.8826663
-0.0558539 0.2953688 0.8826836
-0.0558673 0.2959696 0.8826987
-0.0557041 0.3045722 0.8821406
-0.0556869 0.3051325 0.8820499
-0.0556712 0.3056983 0.8819558
-0.0560756 0.2825117 0.8827671
-0.0560582 0.2831232 0.8826817
-0.0560444 0.2837336 0.8826054
-0.0560344 0.2843442 0.8825392
-0.0560267 0.2849557 0.8824820
-0.0560213 0.2855704 0.8824356
-0.0560168 0.2861873 0.8823992
-0.0560143 0.2868086 0.8823735
-0.0560114 0.2874330 0.8823554
-0.0560065 0.2880586 0.8823510
-0.0560038 0.2886850 0.8823514
-0.0560017 0.2893117 0.8823631
-0.0560015 0.2899341 0.8823804
-0.0560046 0.2905524 0.8824021
-0.0560116 0.2911651 0.8824289
-0.0560216 0.2917752 0.8824558
-0.0560376 0.2923762 0.8824794
-0.0560545 0.2929774 0.8825057
-0.0558275 0.3063510 0.8817899
-0.0558072 0.3069202 0.8816918
-0.0557861 0.3075007 0.8815927
-0.0559344 0.3081150 0.8814310
-0.0559159 0.3086844 0.8813336
-0.0558953 0.3092661 0.8812373
-0.0558735 0.3098616 0.8811410
-0.0558483 0.3104697 0.8810478
-0.0558207 0.3110873 0.8809585
-0.0557910 0.3117115 0.8808715
-0.0557570 0.3123356 0.8807918
-0.0557219 0.3129678 0.8807172
-0.0559737 0.3133220 0.8805773
-0.0559552 0.3139362 0.8805059
-0.0559371 0.3145532 0.8804404
-0.0559203 0.3151747 0.8803788
-0.0559028 0.3157998 0.8803223
-0.0558845 0.3164241 0.8802706
-0.0558664 0.3170504 0.8802213
-0.0558488 0.3176784 0.8801754
-0.0558289 0.3183053 0.8801286
-0.0558104 0.3189336 0.8800860
-0.0557907 0.3195630 0.8800435
-0.0557693 0.3201911 0.8799996
-0.0557466 0.3208193 0.8799567
-0.0557229 0.3214481 0.8799132
-0.0556971 0.3220750 0.8798660
-0.0556692 0.3226997 0.8798152
-0.0556405 0.3233223 0.8797627
-0.0556127 0.3239431 0.8797152
-0.0555813 0.3245580 0.8796629
-0.0555479 0.3251663 0.8796102
-0.0555118 0.3257665 0.8795552
-0.0558837 0.3262112 0.8793038
-0.0558487 0.3268273 0.8792399
-0.0558106 0.3274343 0.8791765
-0.0547383 0.2986636 0.8830846
-0.0547350 0.2992105 0.8830619
-0.0547446 0.2997433 0.8830339
-0.0547523 0.3002791 0.8829907
-0.0547516 0.3008056 0.8829446
-0.0547558 0.3013110 0.8828958
-0.0550170 0.2953062 0.8829668
-0.0550198 0.2958979 0.8829823
-0.0550245 0.2964837 0.8829970
-0.0550313 0.2970697 0.8830022
-0.0550367 0.2976584 0.8830012
-0.0549947 0.3017867 0.8827669
-0.0549890 0.3023468 0.8827023
-0.0549829 0.3028966 0.8826310
-0.0549797 0.3034401 0.8825536
-0.0549698 0.3039923 0.8824704
-0.0554014 0.2820967 0.8830719
-0.0552674 0.2941063 0.8828311
-0.0551286 0.3046379 0.8823114
-0.0551151 0.3051979 0.8822203
-0.0551042 0.3057636 0.8821241
-0.0554800 0.2825542 0.8829655
-0.0554612 0.2831609 0.8828797
-0.0554465 0.2837662 0.8828029
-0.0554364 0.2843716 0.8827368
-0.0554293 0.2849791 0.8826809
-0.0554245 0.2855891 0.8826347
-0.0554214 0.2862010 0.8825988
-0.0554187 0.2868175 0.8825706
-0.0554167 0.2874364 0.8825537
-0.0554138 0.2880557 0.8825492
-0.0554126 0.2886748 0.8825505
-0.0554099 0.2892955 0.8825596
-0.0554108 0.2899112 0.8825777
-0.0554150 0.2905202 0.8825993
-0.0554240 0.2911240 0.8826251
-0.0554368 0.2917257 0.8826505
-0.0554578 0.2923167 0.8826723
-0.0554781 0.2929133 0.8826973
-0.0552369 0.3064222 0.8819629
-0.0552211 0.3069886 0.8818643
-0.0552045 0.3075674 0.8817631
-0.0553340 0.3081745 0.8816105
-0.0553214 0.3087386 0.8815138
-0.0553054 0.3093147 0.8814182
-0.0552883 0.3099055 0.8813233
-0.0552683 0.3105087 0.8812307
-0.0552455 0.3111213 0.8811432
-0.0552196 0.3117409 0.8810571
-0.0551923 0.3123617 0.8809820
-0.0551635 0.3129898 0.8809144
-0.0554145 0.3133269 0.8807786
-0.0554019 0.3139389 0.8807086
-0.0553903 0.3145545 0.8806462
-0.0553807 0.3151758 0.8805873
-0.0553701 0.3158018 0.8805339
-0.0553573 0.3164254 0.8804843
-0.0553449 0.3170512 0.8804378
-0.0553326 0.3176786 0.8803940
-0.0553175 0.3183040 0.8803508
-0.0553028 0.3189327 0.8803105
-0.0552863 0.3195635 0.8802709
-0.0552689 0.3201931 0.8802310
-0.0552476 0.3208232 0.8801895
-0.0552245 0.3214569 0.8801461
-0.0551991 0.3220887 0.8801027
-0.0551732 0.3227185 0.8800584
-0.0551455 0.3233464 0.8800106
-0.0551166 0.3239735 0.8799605
-0.0550881 0.3245981 0.8799117
-0.0550558 0.3252178 0.8798592
-0.0550211 0.3258321 0.8798067
-0.0554132 0.3262651 0.8795429
-0.0553802 0.3268919 0.8794796
-0.0553438 0.3275068 0.8794167
-0.0542014 0.2986343 0.8832659
-0.0541973 0.2991847 0.8832455
-0.0542046 0.2997258 0.8832159
-0.0542090 0.3002710 0.8831705
-0.0542119 0.3008049 0.8831248
-0.0542204 0.3013206 0.8830746
-0.0544560 0.2952532 0.8831554
-0.0544619 0.2958431 0.8831700
-0.0544694 0.2964289 0.8831838
-0.0544746 0.2970217 0.8831885
-0.0544778 0.2976170 0.8831873
-0.0544313 0.3018226 0.8829454
-0.0544234 0.3023897 0.8828770
-0.0544173 0.3029447 0.8828051
-0.0544116 0.3034927 0.8827256
-0.0544025 0.3040462 0.8826399
-0.0548119 0.2821303 0.8832705
-0.0548012 0.2827318 0.8831737
-0.0547935 0.2833345 0.8830863
-0.0546780 0.2928420 0.8829644
-0.0546879 0.2934440 0.8829942
-0.0547003 0.2940438 0.8830209
-0.0545448 0.3047049 0.8824822
-0.0545334 0.3052642 0.8823891
-0.0545241 0.3058290 0.8822919
-0.0548523 0.2837993 0.8830005
-0.0548415 0.2843986 0.8829354
-0.0548336 0.2850011 0.8828788
-0.0548278 0.2856060 0.8828320
-0.0548246 0.2862122 0.8827965
-0.0548215 0.2868231 0.8827694
-0.0548196 0.2874346 0.8827526
-0.0548173 0.2880480 0.8827462
-0.0548172 0.2886594 0.8827477
-0.0548158 0.2892727 0.8827558
-0.0548183 0.2898823 0.8827731
-0.0548268 0.2904806 0.8827932
-0.0548420 0.2910751 0.8828167
-0.0548619 0.2916684 0.8828397
-0.0546409 0.3064926 0.8821361
-0.0546290 0.3070544 0.8820377
-0.0546151 0.3076309 0.8819356
-0.0547320 0.3082316 0.8817903
-0.0547227 0.3087887 0.8816937
-0.0547101 0.3093576 0.8815999
-0.0546971 0.3099431 0.8815065
-0.0546814 0.3105423 0.8814139
-0.0546643 0.3111498 0.8813278
-0.0546444 0.3117659 0.8812447
-0.0546236 0.3123838 0.8811729
-0.0546001 0.3130072 0.8811051
-0.0545751 0.3136357 0.8810422
-0.0545524 0.3142624 0.8809865
-0.0545298 0.3148920 0.8809360
-0.0545075 0.3155197 0.8808886
-0.0544861 0.3161483 0.8808466
-0.0544679 0.3167780 0.8808084
-0.0544503 0.3174081 0.8807735
-0.0544328 0.3180383 0.8807411
-0.0544159 0.3186684 0.8807104
-0.0543989 0.3192968 0.8806804
-0.0543797 0.3199237 0.8806496
-0.0543585 0.3205520 0.8806154
-0.0543366 0.3211763 0.8805827
-0.0547397 0.3214646 0.8803743
-0.0547163 0.3221021 0.8803332
-0.0546923 0.3227361 0.8802938
-0.0546661 0.3233675 0.8802514
-0.0546372 0.3239981 0.8802056
-0.0546096 0.3246297 0.8801565
-0.0545796 0.3252601 0.8801029
-0.0545465 0.3258873 0.8800490
-0.0545095 0.3265056 0.8799942
-0.0544690 0.3271194 0.8799391
-0.0533834 0.2994233 0.8834994
-0.0536395 0.2969211 0.8834702
-0.0536421 0.2974812 0.8834709
-0.0536447 0.2980436 0.8834618
-0.0536488 0.2986031 0.8834532
-0.0536531 0.2997141 0.8833997
-0.0536568 0.3002690 0.8833538
-0.0536613 0.3008113 0.8833038
-0.0536705 0.3013388 0.8832509
-0.0536787 0.3018607 0.8831858
-0.0536859 0.3023812 0.8831172
-0.0538860 0.2946026 0.8833236
-0.0538926 0.2951934 0.8833440
-0.0539005 0.2957831 0.8833600
-0.0538417 0.3029968 0.8829787
-0.0538345 0.3035485 0.8828964
-0.0538284 0.3041027 0.8828082
-0.0542212 0.2821673 0.8834674
-0.0542081 0.2827657 0.8833703
-0.0541974 0.2833653 0.8832822
-0.0540940 0.2921817 0.8831248
-0.0541048 0.2927835 0.8831544
-0.0541174 0.2933813 0.8831830
-0.0539554 0.3047721 0.8826534
-0.0539463 0.3053303 0.8825591
-0.0539389 0.3058937 0.8824613
-0.0542622 0.2838347 0.8831980
-0.0542496 0.2844256 0.8831315
-0.0542415 0.2850222 0.8830756
-0.0542340 0.2856214 0.8830278
-0.0542310 0.2862205 0.8829933
-0.0542279 0.2868245 0.8829666
-0.0542261 0.2874277 0.8829501
-0.0542229 0.2880359 0.8829424
-0.0542249 0.2886384 0.8829442
-0.0542263 0.2892443 0.8829528
-0.0542296 0.2898480 0.8829660
-0.0542437 0.2904352 0.8829849
-0.0542646 0.2910199 0.8830058
-0.0540419 0.3065606 0.8823092
-0.0540330 0.3071179 0.8822112
-0.0540223 0.3076915 0.8821109
-0.0540096 0.3082791 0.8820104
-0.0541208 0.3088378 0.8818752
-0.0541117 0.3093979 0.8817823
-0.0541026 0.3099768 0.8816907
-0.0540906 0.3105723 0.8815993
-0.0540785 0.3111736 0.8815149
-0.0540641 0.3117847 0.8814374
-0.0540489 0.3123986 0.8813669
-0.0540338 0.3130170 0.8813048
-0.0540162 0.3136401 0.8812437
-0.0539998 0.3142645 0.8811897
-0.0539837 0.3148912 0.8811411
-0.0539686 0.3155184 0.8810960
-0.0539543 0.3161469 0.8810555
-0.0539413 0.3167761 0.8810195
-0.0539293 0.3174057 0.8809875
-0.0539179 0.3180355 0.8809584
-0.0539049 0.3186655 0.8809288
-0.0538929 0.3192956 0.8809027
-0.0538787 0.3199254 0.8808740
-0.0538602 0.3205553 0.8808414
-0.0538414 0.3211839 0.8808107
-0.0538206 0.3218116 0.8807779
-0.0538002 0.3224379 0.8807483
-0.0537765 0.3230631 0.8807135
-0.0537519 0.3236867 0.8806784
-0.0537220 0.3243083 0.8806360
-0.0536904 0.3249275 0.8805950
-0.0536555 0.3255419 0.8805532
-0.0536173 0.3261544 0.8805087
-0.0535763 0.3267652 0.8804614
-0.0540134 0.3271777 0.8801754
-0.0528354 0.2988803 0.8837137
-0.0528514 0.2993914 0.8836820
-0.0528684 0.2998962 0.8836395
-0.0528865 0.3003962 0.8835915
-0.0529288 0.3008472 0.8835352
-0.0530635 0.2957450 0.8836412
-0.0530707 0.2963105 0.8836559
-0.0530785 0.2968702 0.8836585
-0.0530831 0.2974349 0.8836607
-0.0530860 0.2980036 0.8836525
-0.0531075 0.3013660 0.8834278
-0.0531152 0.3018939 0.8833605
-0.0531232 0.3024191 0.8832894
-0.0531277 0.3029440 0.8832117
-0.0533192 0.2945392 0.8835101
-0.0532523 0.3036083 0.8830663
-0.0532508 0.3041612 0.8829763
-0.0536338 0.2822112 0.8836651
-0.0536174 0.2828027 0.8835676
-0.0536057 0.2833982 0.8834805
-0.0535967 0.2839996 0.8834027
-0.0535200 0.2921215 0.8833146
-0.0535334 0.2927178 0.8833429
-0.0535481 0.2933103 0.8833703
-0.0533599 0.3048433 0.8828260
-0.0533541 0.3053989 0.8827306
-0.0533499 0.3059594 0.8826314
-0.0536584 0.2844560 0.8833266
-0.0536483 0.2850444 0.8832697
-0.0536412 0.2856355 0.8832235
-0.0536390 0.2862261 0.8831890
-0.0536364 0.2868219 0.8831629
-0.0536332 0.2874174 0.8831456
-0.0536318 0.2880171 0.8831395
-0.0536342 0.2886119 0.8831415
-0.0536383 0.2892091 0.8831489
-0.0536453 0.2898040 0.8831610
-0.0536633 0.2903796 0.8831766
-0.0536890 0.2909551 0.8831940
-0.0534370 0.3066306 0.8824828
-0.0534316 0.3071814 0.8823843
