-0.0864763 0.2769022 0.9817417
-0.0865155 0.2775938 0.9816814
-0.0865476 0.2782888 0.9816248
-0.0865779 0.2789853 0.9815706
-0.0866023 0.2796820 0.9815175
-0.0866220 0.2803782 0.9814675
-0.0866409 0.2810753 0.9814223
-0.0866562 0.2817736 0.9813804
-0.0866706 0.2824734 0.9813426
-0.0866837 0.2831723 0.9813049
-0.0866949 0.2838731 0.9812716
-0.0867050 0.2845754 0.9812398
-0.0867141 0.2852770 0.9812105
-0.0867229 0.2859792 0.9811812
-0.0867312 0.2866814 0.9811526
-0.0867394 0.2873822 0.9811238
-0.0867471 0.2880842 0.9810945
-0.0867549 0.2887853 0.9810647
-0.0867627 0.2894876 0.9810345
-0.0867713 0.2901902 0.9810012
-0.0867794 0.2908925 0.9809680
-0.0867876 0.2915950 0.9809362
-0.0867975 0.2922971 0.9808997
-0.0868089 0.2929971 0.9808613
-0.0868213 0.2936973 0.9808228
-0.0868345 0.2943957 0.9807869
-0.0868518 0.2950922 0.9807482
-0.0868730 0.2957892 0.9807083
-0.0868979 0.2964860 0.9806650
-0.0864553 0.2969818 0.9804495
-0.0864558 0.2976606 0.9803890
-0.0864677 0.2983406 0.9803232
-0.0864819 0.2990237 0.9802594
-0.0869821 0.2656700 0.9841811
-0.0870755 0.2662178 0.9840980
-0.0871585 0.2668187 0.9840176
-0.0860981 0.2677059 0.9831349
-0.0861835 0.2683081 0.9830571
-0.0862681 0.2689313 0.9829704
-0.0857692 0.2696200 0.9825424
-0.0852785 0.2702460 0.9821366
-0.0853532 0.2708790 0.9820613
-0.0854288 0.2715058 0.9819840
-0.0855044 0.2721362 0.9819187
-0.0855700 0.2727935 0.9818586
-0.0856296 0.2734667 0.9817962
-0.0856840 0.2741459 0.9817335
-0.0857385 0.2748276 0.9816654
-0.0857844 0.2755132 0.9816025
-0.0858209 0.2762037 0.9815439
-0.0858561 0.2768934 0.9814842
-0.0858859 0.2775869 0.9814320
-0.0859114 0.2782814 0.9813847
-0.0859364 0.2789743 0.9813354
-0.0859564 0.2796710 0.9812889
-0.0859723 0.2803683 0.9812440
-0.0859878 0.2810656 0.9812040
-0.0860011 0.2817645 0.9811655
-0.0860129 0.2824650 0.9811337
-0.0860249 0.2831645 0.9810995
-0.0860349 0.2838662 0.9810711
-0.0860430 0.2845720 0.9810422
-0.0860515 0.2852762 0.9810138
-0.0860598 0.2859803 0.9809859
-0.0860673 0.2866842 0.9809582
-0.0860748 0.2873860 0.9809299
-0.0860824 0.2880883 0.9809008
-0.0860905 0.2887892 0.9808698
-0.0860988 0.2894905 0.9808386
-0.0861080 0.2901909 0.9808041
-0.0861177 0.2908898 0.9807691
-0.0861285 0.2915889 0.9807327
-0.0861408 0.2922858 0.9806926
-0.0861547 0.2929795 0.9806499
-0.0861725 0.2936704 0.9806085
-0.0861936 0.2943603 0.9805683
-0.0862201 0.2950505 0.9805259
-0.0862514 0.2957429 0.9804824
-0.0862865 0.2964365 0.9804383
-0.0858568 0.2969686 0.9802258
-0.0858705 0.2976523 0.9801657
-0.0858931 0.2983363 0.9801007
-0.0859186 0.2990233 0.9800372
-0.0865040 0.2654272 0.9839432
-0.0860250 0.2661873 0.9834294
-0.0861086 0.2667834 0.9833542
-0.0856223 0.2675142 0.9828631
-0.0851201 0.2682075 0.9824051
-0.0851955 0.2688328 0.9823408
-0.0846897 0.2694830 0.9819261
-0.0847618 0.2701150 0.9818603
-0.0848308 0.2707625 0.9817950
-0.0849025 0.2714151 0.9817267
-0.0849730 0.2720756 0.9816590
-0.0850286 0.2727574 0.9816020
-0.0851604 0.2748365 0.9814043
-0.0851905 0.2755240 0.9813427
-0.0852171 0.2762134 0.9812825
-0.0852377 0.2769049 0.9812285
-0.0852585 0.2775952 0.9811823
-0.0852755 0.2782856 0.9811392
-0.0852918 0.2789729 0.9810992
-0.0853057 0.2796666 0.9810630
-0.0853184 0.2803636 0.9810245
-0.0853311 0.2810596 0.9809883
-0.0853424 0.2817583 0.9809551
-0.0853523 0.2824583 0.9809270
-0.0853622 0.2831581 0.9808969
-0.0853706 0.2838600 0.9808708
-0.0853767 0.2845690 0.9808433
-0.0853845 0.2852756 0.9808170
-0.0853923 0.2859816 0.9807906
-0.0853995 0.2866873 0.9807637
-0.0854069 0.2873901 0.9807357
-0.0854149 0.2880923 0.9807056
-0.0854234 0.2887929 0.9806737
-0.0854322 0.2894930 0.9806411
-0.0854421 0.2901908 0.9806046
-0.0854532 0.2908856 0.9805694
-0.0854659 0.2915786 0.9805298
-0.0854803 0.2922673 0.9804864
-0.0854956 0.2929513 0.9804410
-0.0855195 0.2936291 0.9803957
-0.0855486 0.2943084 0.9803523
-0.0855834 0.2949898 0.9803076
-0.0856239 0.2956757 0.9802619
-0.0845291 0.2732126 0.9812900
-0.0845923 0.2738611 0.9812546
-0.0852410 0.2962469 0.9800656
-0.0852618 0.2969307 0.9800039
-0.0852878 0.2976173 0.9799424
-0.0853187 0.2983069 0.9798791
-0.0853570 0.2989986 0.9798083
-0.0854906 0.2654016 0.9832257
-0.0849914 0.2661311 0.9827278
-0.0850737 0.2667155 0.9826671
-0.0839901 0.2674988 0.9818066
-0.0840616 0.2680853 0.9817586
-0.0841279 0.2687024 0.9817068
-0.0841895 0.2693392 0.9816615
-0.0846239 0.2769371 0.9809818
-0.0846346 0.2776235 0.9809415
-0.0846435 0.2783087 0.9809008
-0.0846504 0.2789869 0.9808656
-0.0846572 0.2796718 0.9808331
-0.0846644 0.2803638 0.9807998
-0.0846713 0.2810576 0.9807691
-0.0846788 0.2817547 0.9807406
-0.0846862 0.2824547 0.9807155
-0.0846927 0.2831539 0.9806910
-0.0846987 0.2838553 0.9806681
-0.0847598 0.2894940 0.9804430
-0.0847706 0.2901884 0.9804045
-0.0847845 0.2908773 0.9803666
-0.0848011 0.2915635 0.9803261
-0.0848190 0.2922448 0.9802830
-0.0848392 0.2929205 0.9802346
-0.0848672 0.2935833 0.9801882
-0.0849041 0.2942443 0.9801408
-0.0836734 0.2699596 0.9812620
-0.0837346 0.2706037 0.9812057
-0.0837978 0.2712340 0.9811518
-0.0838623 0.2718636 0.9811112
-0.0839234 0.2725157 0.9810672
-0.0839799 0.2731759 0.9810256
-0.0840350 0.2738374 0.9809888
-0.0840894 0.2745047 0.9809501
-0.0841351 0.2751819 0.9809130
-0.0841837 0.2758639 0.9808752
-0.0844831 0.2842986 0.9805900
-0.0844948 0.2849870 0.9805655
-0.0845036 0.2856801 0.9805420
-0.0845118 0.2863717 0.9805178
-0.0845212 0.2870642 0.9804920
-0.0845291 0.2877603 0.9804633
-0.0845367 0.2884583 0.9804322
-0.0845851 0.2948304 0.9799773
-0.0846010 0.2955109 0.9799154
-0.0846234 0.2961906 0.9798525
-0.0846534 0.2968708 0.9797885
-0.0846900 0.2975590 0.9797256
-0.0847304 0.2982559 0.9796612
-0.0837730 0.2986774 0.9792137
-0.0837771 0.2993132 0.9791289
-0.0850381 0.2651647 0.9829493
-0.0845375 0.2659141 0.9824535
-0.0846103 0.2665195 0.9823951
-0.0835133 0.2673094 0.9815314
-0.0835821 0.2679173 0.9814845
-0.0836464 0.2685522 0.9814374
-0.0837098 0.2692029 0.9813809
-0.0840355 0.2769712 0.9807289
-0.0840352 0.2776569 0.9806929
-0.0840332 0.2783398 0.9806559
-0.0840290 0.2790123 0.9806256
-0.0840237 0.2796904 0.9806001
-0.0840209 0.2803769 0.9805731
-0.0840206 0.2810671 0.9805509
-0.0840235 0.2817610 0.9805292
-0.0840295 0.2824610 0.9805082
-0.0840334 0.2831587 0.9804884
-0.0840367 0.2838579 0.9804708
-0.0840955 0.2894901 0.9802484
-0.0841077 0.2901802 0.9802090
-0.0841236 0.2908623 0.9801690
-0.0841424 0.2915407 0.9801272
-0.0841631 0.2922120 0.9800806
-0.0841844 0.2928769 0.9800300
-0.0842193 0.2935283 0.9799826
-0.0842665 0.2941778 0.9799350
-0.0831678 0.2698337 0.9810002
-0.0832287 0.2704895 0.9809436
-0.0832825 0.2711397 0.9809031
-0.0833502 0.2717958 0.9808619
-0.0834075 0.2724731 0.9808123
-0.0834523 0.2731618 0.9807628
-0.0834903 0.2738439 0.9807218
-0.0835265 0.2745266 0.9806871
-0.0835567 0.2752060 0.9806565
-0.0835904 0.2758859 0.9806210
-0.0838122 0.2842910 0.9803910
-0.0838231 0.2849838 0.9803681
-0.0838317 0.2856785 0.9803473
-0.0838400 0.2863715 0.9803243
-0.0838492 0.2870649 0.9802990
-0.0838578 0.2877612 0.9802705
-0.0838666 0.2884587 0.9802390
-0.0839474 0.2947787 0.9797643
-0.0839711 0.2954495 0.9797004
-0.0840004 0.2961202 0.9796339
-0.0840356 0.2967918 0.9795662
-0.0840807 0.2974781 0.9794973
-0.0841308 0.2981818 0.9794297
-0.0831986 0.2986732 0.9789924
-0.0832120 0.2993096 0.9789047
-0.0835035 0.2658446 0.9817479
-0.0835663 0.2664350 0.9817014
-0.0830478 0.2671302 0.9812532
-0.0834296 0.2783793 0.9804327
-0.0834192 0.2790450 0.9804041
-0.0834027 0.2797158 0.9803843
-0.0833891 0.2803949 0.9803626
-0.0833821 0.2810808 0.9803461
-0.0834302 0.2894834 0.9800548
-0.0834443 0.2901683 0.9800139
-0.0834642 0.2908431 0.9799727
-0.0834870 0.2915129 0.9799291
-0.0835108 0.2921741 0.9798814
-0.0835415 0.2928216 0.9798314
-0.0835808 0.2934575 0.9797828
-0.0825172 0.2677996 0.9808263
-0.0825692 0.2684173 0.9807928
-0.0826226 0.2690572 0.9807593
-0.0829655 0.2745632 0.9804296
-0.0829865 0.2752464 0.9803951
-0.0830045 0.2759272 0.9803631
-0.0830201 0.2766125 0.9803371
-0.0830331 0.2772962 0.9803212
-0.0831136 0.2814796 0.9802443
-0.0831236 0.2821848 0.9802340
-0.0831320 0.2828885 0.9802217
-0.0831395 0.2835902 0.9802077
-0.0831472 0.2842891 0.9801957
-0.0831557 0.2849839 0.9801755
-0.0831632 0.2856788 0.9801555
-0.0831713 0.2863729 0.9801329
-0.0831806 0.2870672 0.9801077
-0.0831900 0.2877636 0.9800787
-0.0832006 0.2884604 0.9800451
-0.0832834 0.2940497 0.9796252
-0.0833085 0.2947134 0.9795581
-0.0833391 0.2953713 0.9794934
-0.0821039 0.2696430 0.9803864
-0.0821504 0.2702906 0.9803568
-0.0821969 0.2709350 0.9803150
-0.0822544 0.2715646 0.9802904
-0.0823085 0.2722090 0.9802598
-0.0823491 0.2728585 0.9802465
-0.0823991 0.2735077 0.9802261
-0.0829865 0.2960383 0.9792808
-0.0830035 0.2966988 0.9791995
-0.0830278 0.2973584 0.9791192
-0.0830634 0.2980227 0.9790327
-0.0826259 0.2986427 0.9787673
-0.0826458 0.2992847 0.9786767
-0.0824825 0.2657572 0.9810353
-0.0825323 0.2663400 0.9810041
-0.0827554 0.2894724 0.9798592
-0.0827709 0.2901519 0.9798169
-0.0827918 0.2908182 0.9797745
-0.0828184 0.2914758 0.9797289
-0.0828454 0.2921234 0.9796781
-0.0820010 0.2670247 0.9805755
-0.0820515 0.2676306 0.9805435
-0.0821020 0.2682670 0.9805110
-0.0824382 0.2766624 0.9801032
-0.0824389 0.2773411 0.9800901
-0.0824392 0.2780200 0.9800789
-0.0824426 0.2787018 0.9800660
-0.0824426 0.2793885 0.9800569
-0.0824446 0.2800811 0.9800501
-0.0824504 0.2807815 0.9800404
-0.0824560 0.2814842 0.9800339
-0.0824618 0.2821861 0.9800258
-0.0824675 0.2828874 0.9800178
-0.0824735 0.2835880 0.9800078
-0.0824803 0.2842865 0.9799986
-0.0824878 0.2849840 0.9799821
-0.0824954 0.2856799 0.9799642
-0.0825040 0.2863752 0.9799430
-0.0825131 0.2870693 0.9799184
-0.0825234 0.2877645 0.9798890
-0.0825350 0.2884595 0.9798556
-0.0825960 0.2926472 0.9795467
-0.0826141 0.2933256 0.9794832
-0.0826391 0.2939880 0.9794150
-0.0826692 0.2946393 0.9793455
-0.0827047 0.2952875 0.9792775
-0.0819509 0.2755258 0.9799370
-0.0823631 0.2959685 0.9790620
-0.0810067 0.2688486 0.9797916
-0.0810478 0.2694553 0.9797829
-0.0810872 0.2700826 0.9797629
-0.0811210 0.2707171 0.9797456
-0.0811644 0.2713151 0.9797333
-0.0812103 0.2719182 0.9797228
-0.0812431 0.2725412 0.9797178
-0.0812921 0.2731564 0.9797249
-0.0813371 0.2737772 0.9797286
-0.0813909 0.2744125 0.9797328
-0.0819967 0.2966728 0.9788245
-0.0820102 0.2973170 0.9787290
-0.0820209 0.2979522 0.9786349
-0.0815813 0.2986091 0.9783586
-0.0815836 0.2992014 0.9782564
-0.0815947 0.2998049 0.9781578
-0.0820268 0.2655501 0.9807497
-0.0820760 0.2661447 0.9807108
-0.0820855 0.2894653 0.9796653
-0.0821012 0.2901382 0.9796222
-0.0821243 0.2907925 0.9795779
-0.0821550 0.2914348 0.9795314
-0.0821859 0.2920677 0.9794766
-0.0815469 0.2668410 0.9802865
-0.0815903 0.2674693 0.9802572
-0.0816356 0.2681215 0.9802253
-0.0818679 0.2767183 0.9798710
-0.0818537 0.2773917 0.9798601
-0.0818419 0.2780652 0.9798486
-0.0818347 0.2787413 0.9798428
-0.0818236 0.2794207 0.9798368
-0.0818115 0.2801017 0.9798311
-0.0818091 0.2807977 0.9798275
-0.0818058 0.2814946 0.9798262
-0.0818066 0.2821942 0.9798211
-0.0818077 0.2828936 0.9798172
-0.0818101 0.2835927 0.9798108
-0.0818140 0.2842905 0.9798039
-0.0818196 0.2849882 0.9797900
-0.0818259 0.2856838 0.9797740
-0.0818336 0.2863782 0.9797543
-0.0818419 0.2870707 0.9797286
-0.0818517 0.2877631 0.9796985
-0.0818631 0.2884548 0.9796638
-0.0819396 0.2926045 0.9793437
-0.0819631 0.2932673 0.9792778
-0.0819930 0.2939127 0.9792070
-0.0820269 0.2945497 0.9791366
-0.0820686 0.2951861 0.9790568
-0.0813733 0.2755745 0.9796980
-0.0817352 0.2958884 0.9788441
-0.0805244 0.2687025 0.9795089
-0.0805580 0.2693291 0.9795046
-0.0805915 0.2699714 0.9794917
-0.0806197 0.2706240 0.9794806
-0.0806587 0.2712481 0.9794716
-0.0806960 0.2718817 0.9794653
-0.0807237 0.2725230 0.9794677
-0.0807648 0.2731592 0.9794650
-0.0807980 0.2737935 0.9794676
-0.0808276 0.2744398 0.9794752
-0.0813797 0.2966056 0.9786045
-0.0813964 0.2972421 0.9785078
-0.0814182 0.2978752 0.9784127
-0.0809938 0.2985596 0.9781383
-0.0810041 0.2991582 0.9780349
-0.0810260 0.2997695 0.9779322
-0.0814986 0.2913884 0.9793314
-0.0810166 0.2654563 0.9800298
-0.0810493 0.2660400 0.9800132
-0.0812924 0.2767813 0.9796500
-0.0812740 0.2774535 0.9796414
-0.0812558 0.2781208 0.9796325
-0.0812376 0.2787871 0.9796331
-0.0812133 0.2794590 0.9796306
-0.0811883 0.2801297 0.9796257
-0.0811754 0.2808185 0.9796236
-0.0811633 0.2815091 0.9796239
-0.0811576 0.2822057 0.9796226
-0.0811543 0.2829030 0.9796202
-0.0811519 0.2836012 0.9796162
-0.0811520 0.2842988 0.9796117
-0.0811545 0.2849960 0.9795995
-0.0811584 0.2856905 0.9795846
-0.0811642 0.2863833 0.9795655
-0.0811722 0.2870738 0.9795389
-0.0811813 0.2877639 0.9795088
-0.0811927 0.2884523 0.9794734
-0.0812032 0.2891440 0.9794307
-0.0812152 0.2898328 0.9793828
-0.0812247 0.2905270 0.9793305
-0.0812589 0.2918880 0.9792080
-0.0812821 0.2925528 0.9791410
-0.0813113 0.2931998 0.9790752
-0.0813482 0.2938273 0.9790036
-0.0813873 0.2944549 0.9789276
-0.0814299 0.2950844 0.9788593
-0.0805152 0.2667094 0.9796088
-0.0805498 0.2673243 0.9795970
-0.0805869 0.2679680 0.9795823
-0.0811048 0.2957917 0.9786327
-0.0800411 0.2685720 0.9792231
-0.0802630 0.2738252 0.9792280
-0.0802815 0.2744778 0.9792364
-0.0802945 0.2751351 0.9792455
-0.0807570 0.2965225 0.9783877
-0.0807807 0.2971515 0.9782899
-0.0808116 0.2977796 0.9781937
-0.0795081 0.2691250 0.9788932
-0.0795303 0.2697546 0.9788946
-0.0795516 0.2703856 0.9789042
-0.0795827 0.2709830 0.9789104
-0.0796114 0.2715809 0.9789226
-0.0796408 0.2721877 0.9789415
-0.0796682 0.2727895 0.9789516
-0.0804072 0.2984885 0.9779109
-0.0804258 0.2990959 0.9778082
-0.0804574 0.2997171 0.9777042
-0.0805573 0.2652345 0.9797345
-0.0805929 0.2658409 0.9797108
-0.0805696 0.2801659 0.9794207
-0.0805468 0.2808477 0.9794225
-0.0805258 0.2815302 0.9794243
-0.0805128 0.2822232 0.9794262
-0.0805036 0.2829174 0.9794268
-0.0804945 0.2836141 0.9794248
-0.0804918 0.2843127 0.9794214
-0.0804912 0.2850091 0.9794106
-0.0804926 0.2857023 0.9793966
-0.0804966 0.2863926 0.9793767
-0.0805034 0.2870803 0.9793505
-0.0805122 0.2877665 0.9793202
-0.0805233 0.2884504 0.9792842
-0.0805346 0.2891383 0.9792397
-0.0805476 0.2898214 0.9791902
-0.0805590 0.2905074 0.9791359
-0.0805757 0.2911818 0.9790756
-0.0805967 0.2918432 0.9790099
-0.0806242 0.2924914 0.9789430
-0.0806584 0.2931208 0.9788759
-0.0806978 0.2937351 0.9788080
-0.0802072 0.2777057 0.9792509
-0.0801956 0.2783780 0.9792606
-0.0801828 0.2790601 0.9792673
-0.0804015 0.2944330 0.9785998
-0.0804339 0.2950613 0.9785138
-0.0795027 0.2665716 0.9789260
-0.0795246 0.2671634 0.9789351
-0.0795467 0.2677919 0.9789400
-0.0797472 0.2758445 0.9790219
-0.0797475 0.2765150 0.9790384
-0.0801119 0.2958034 0.9782751
-0.0801345 0.2964279 0.9781741
-0.0801641 0.2970466 0.9780775
-0.0802018 0.2976659 0.9779792
-0.0790098 0.2683818 0.9786143
-0.0790289 0.2690125 0.9786215
-0.0790475 0.2696528 0.9786246
-0.0791059 0.2715473 0.9786802
-0.0791255 0.2721809 0.9786973
-0.0791520 0.2727972 0.9787162
-0.0791835 0.2734134 0.9787410
-0.0792063 0.2740556 0.9787484
-0.0792253 0.2746805 0.9787762
-0.0798150 0.2984005 0.9776949
-0.0798441 0.2990160 0.9775895
-0.0784920 0.2701649 0.9783439
-0.0785096 0.2707442 0.9783700
-0.0794053 0.2996712 0.9772888
-0.0801079 0.2650293 0.9794151
-0.0801334 0.2656512 0.9793992
-0.0799454 0.2802077 0.9792141
-0.0799142 0.2808821 0.9792215
-0.0798853 0.2815561 0.9792252
-0.0798655 0.2822455 0.9792304
-0.0798501 0.2829360 0.9792336
-0.0798337 0.2836313 0.9792333
-0.0798287 0.2843315 0.9792311
-0.0798256 0.2850271 0.9792218
-0.0798247 0.2857185 0.9792088
-0.0798274 0.2864056 0.9791885
-0.0798336 0.2870897 0.9791625
-0.0798418 0.2877707 0.9791319
-0.0798519 0.2884491 0.9790952
-0.0798628 0.2891344 0.9790497
-0.0798758 0.2898117 0.9789992
-0.0798911 0.2904865 0.9789434
-0.0799093 0.2911472 0.9788820
-0.0799320 0.2917946 0.9788139
-0.0799646 0.2924221 0.9787472
-0.0800031 0.2930346 0.9786821
-0.0800450 0.2936340 0.9786130
-0.0796088 0.2777718 0.9790387
-0.0795889 0.2784341 0.9790530
-0.0795687 0.2791044 0.9790614
-0.0797580 0.2943405 0.9784002
-0.0797933 0.2949540 0.9783146
-0.0790406 0.2663936 0.9786372
-0.0790615 0.2670069 0.9786466
-0.0790814 0.2676529 0.9786546
-0.0791675 0.2759073 0.9788031
-0.0791618 0.2765711 0.9788262
-0.0794736 0.2957114 0.9780697
-0.0795041 0.2963256 0.9779693
-0.0795428 0.2969386 0.9778722
-0.0795903 0.2975555 0.9777712
-0.0785301 0.2682541 0.9783313
-0.0785392 0.2689086 0.9783404
-0.0785562 0.2695617 0.9783516
-0.0786005 0.2715195 0.9784168
-0.0786114 0.2721757 0.9784385
-0.0786299 0.2728107 0.9784680
-0.0786506 0.2734442 0.9784986
-0.0786612 0.2740981 0.9785157
-0.0786706 0.2747257 0.9785510
-0.0792089 0.2983018 0.9774814
-0.0792458 0.2989219 0.9773744
-0.0779979 0.2700757 0.9780674
-0.0780159 0.2706676 0.9780978
-0.0788201 0.2995994 0.9770701
-0.0791679 0.2843581 0.9790433
-0.0791618 0.2850510 0.9790351
-0.0791590 0.2857391 0.9790210
-0.0791599 0.2864215 0.9790008
-0.0791646 0.2871006 0.9789756
-0.0791717 0.2877753 0.9789445
-0.0791816 0.2884464 0.9789072
-0.0791940 0.2891245 0.9788598
-0.0792094 0.2897932 0.9788076
-0.0792280 0.2904564 0.9787513
-0.0792493 0.2911025 0.9786893
-0.0792749 0.2917342 0.9786206
-0.0793133 0.2923426 0.9785542
-0.0793547 0.2929396 0.9784892
-0.0793989 0.2935276 0.9784168
-0.0791039 0.2649222 0.9786913
-0.0791227 0.2655379 0.9786870
-0.0789776 0.2784985 0.9788330
-0.0789468 0.2791575 0.9788567
-0.0789236 0.2798287 0.9788714
-0.0789064 0.2805105 0.9788924
-0.0788924 0.2812011 0.9789140
-0.0788877 0.2818958 0.9789291
-0.0788860 0.2825907 0.9789438
-0.0788866 0.2832857 0.9789575
-0.0791151 0.2942407 0.9782056
-0.0791585 0.2948444 0.9781151
-0.0785731 0.2662182 0.9783352
-0.0785897 0.2759842 0.9785764
-0.0785792 0.2766381 0.9786025
-0.0785682 0.2772981 0.9786383
-0.0788381 0.2956115 0.9778706
-0.0788751 0.2962179 0.9777714
-0.0789233 0.2968262 0.9776696
-0.0780324 0.2668605 0.9779970
-0.0780420 0.2674850 0.9780193
-0.0781242 0.2734901 0.9782630
-0.0781238 0.2741510 0.9782852
-0.0781284 0.2747787 0.9783265
-0.0785612 0.2975881 0.9773815
-0.0775054 0.2680602 0.9777306
-0.0775130 0.2686894 0.9777577
-0.0775138 0.2693347 0.9777829
-0.0775101 0.2699953 0.9778052
-0.0775212 0.2706085 0.9778440
-0.0775442 0.2711924 0.9778929
-0.0775594 0.2718188 0.9779234
-0.0775786 0.2724298 0.9779613
-0.0781807 0.2983409 0.9770830
-0.0782049 0.2989231 0.9769684
-0.0782447 0.2995257 0.9768530
-0.0785008 0.2843901 0.9788552
-0.0784934 0.2850795 0.9788483
-0.0784898 0.2857631 0.9788335
-0.0784898 0.2864401 0.9788138
-0.0784960 0.2871121 0.9787895
-0.0785029 0.2877795 0.9787583
-0.0785129 0.2884415 0.9787204
-0.0785289 0.2891085 0.9786713
-0.0785475 0.2897685 0.9786174
-0.0785678 0.2904201 0.9785596
-0.0785895 0.2910505 0.9784966
-0.0786151 0.2916667 0.9784281
-0.0786544 0.2922552 0.9783627
-0.0786929 0.2928353 0.9782952
-0.0787377 0.2934142 0.9782093
-0.0782367 0.2819202 0.9787395
-0.0782326 0.2826106 0.9787550
-0.0782306 0.2833008 0.9787710
-0.0784647 0.2941339 0.9780030
-0.0785093 0.2947270 0.9779150
-0.0780897 0.2648263 0.9779943
-0.0781000 0.2654214 0.9780081
-0.0779635 0.2773640 0.9784202
-0.0779497 0.2780235 0.9784563
-0.0779377 0.2786970 0.9784848
-0.0779258 0.2793810 0.9785163
-0.0779164 0.2800818 0.9785467
-0.0779096 0.2807782 0.9785872
-0.0782020 0.2955052 0.9776668
-0.0775526 0.2660929 0.9776796
-0.0775586 0.2667065 0.9777053
-0.0775645 0.2673479 0.9777328
-0.0775564 0.2754863 0.9781343
-0.0775549 0.2761277 0.9781860
-0.0778790 0.2962876 0.9773938
-0.0779095 0.2968819 0.9772818
-0.0779496 0.2974815 0.9771707
-0.0770216 0.2679370 0.9774456
-0.0770225 0.2685795 0.9774818
-0.0770203 0.2692400 0.9775128
-0.0770806 0.2730541 0.9777745
-0.0770929 0.2736685 0.9778294
-0.0771038 0.2742927 0.9778726
-0.0775947 0.2982459 0.9768664
-0.0776211 0.2988349 0.9767526
-0.0776617 0.2994405 0.9766339
-0.0765016 0.2697442 0.9772528
-0.0764947 0.2703589 0.9773021
-0.0765169 0.2709064 0.9773517
-0.0765300 0.2714721 0.9774019
-0.0765527 0.2720278 0.9774629
-0.0778323 0.2844239 0.9786662
-0.0778252 0.2851082 0.9786594
-0.0778206 0.2857863 0.9786462
-0.0778204 0.2864574 0.9786284
-0.0778277 0.2871217 0.9786038
-0.0778346 0.2877802 0.9785729
-0.0778453 0.2884325 0.9785349
-0.0778601 0.2890925 0.9784845
-0.0778788 0.2897448 0.9784288
-0.0779002 0.2903835 0.9783699
-0.0779232 0.2909977 0.9783065
-0.0779494 0.2915987 0.9782367
-0.0779891 0.2921682 0.9781713
-0.0780233 0.2927348 0.9780930
-0.0780632 0.2933071 0.9780139
-0.0775819 0.2819508 0.9785514
-0.0775748 0.2826367 0.9785703
-0.0775696 0.2833229 0.9785877
-0.0778122 0.2940243 0.9778028
-0.0778588 0.2946091 0.9777151
-0.0776182 0.2652551 0.9776990
-0.0773416 0.2774378 0.9782094
-0.0773250 0.2780849 0.9782490
-0.0773069 0.2787467 0.9782897
-0.0772928 0.2794223 0.9783255
-0.0772811 0.2801128 0.9783567
-0.0772718 0.2808019 0.9783960
-0.0775621 0.2953940 0.9774604
-0.0770804 0.2659271 0.9773744
-0.0770745 0.2665684 0.9774049
-0.0770706 0.2672289 0.9774323
-0.0769683 0.2755568 0.9779140
-0.0769585 0.2761940 0.9779712
-0.0772517 0.2961847 0.9771922
-0.0772865 0.2967749 0.9770787
-0.0773296 0.2973719 0.9769647
-0.0765429 0.2678248 0.9771464
-0.0765385 0.2684830 0.9771916
-0.0765310 0.2691579 0.9772300
-0.0765263 0.2730966 0.9775393
-0.0765283 0.2737185 0.9776040
-0.0765334 0.2743436 0.9776549
-0.0769820 0.2981439 0.9766609
-0.0770199 0.2987379 0.9765435
-0.0770676 0.2993460 0.9764192
-0.0759948 0.2696574 0.9769920
-0.0759918 0.2702868 0.9770482
-0.0760094 0.2708579 0.9771098
-0.0760169 0.2714529 0.9771656
-0.0760292 0.2720315 0.9772301
-0.0771799 0.2884221 0.9783505
-0.0771963 0.2890719 0.9782985
-0.0772170 0.2897142 0.9782415
-0.0772393 0.2903410 0.9781814
-0.0772665 0.2909433 0.9781176
-0.0772963 0.2915328 0.9780470
-0.0773411 0.2920881 0.9779736
-0.0773730 0.2926495 0.9779010
-0.0769057 0.2840307 0.9784103
-0.0769097 0.2847113 0.9784119
-0.0769167 0.2853854 0.9784074
-0.0769255 0.2860565 0.9783976
-0.0769353 0.2867312 0.9783763
-0.0769450 0.2874182 0.9783465
-0.0771239 0.2933466 0.9776992
-0.0766877 0.2781533 0.9780492
-0.0766691 0.2788031 0.9780939
-0.0766557 0.2794705 0.9781284
-0.0766437 0.2801503 0.9781636
-0.0766335 0.2808303 0.9782077
-0.0766280 0.2815255 0.9782454
-0.0766277 0.2822213 0.9782788
-0.0766309 0.2829156 0.9783033
-0.0768505 0.2941001 0.9774748
-0.0768808 0.2946992 0.9773675
-0.0769208 0.2952900 0.9772610
-0.0766151 0.2651383 0.9770177
-0.0763434 0.2769074 0.9778176
-0.0766175 0.2960804 0.9769956
-0.0766567 0.2966693 0.9768797
-0.0760722 0.2657893 0.9767291
-0.0760623 0.2664115 0.9767738
-0.0760515 0.2670557 0.9768184
-0.0759679 0.2744005 0.9774306
-0.0759687 0.2750244 0.9774947
-0.0759721 0.2756483 0.9775655
-0.0763317 0.2974518 0.9765770
-0.0763702 0.2980405 0.9764541
-0.0764128 0.2986349 0.9763304
-0.0755272 0.2676238 0.9765740
-0.0755203 0.2726471 0.9770575
-0.0755389 0.2732283 0.9771349
-0.0760624 0.2993796 0.9760143
-0.0750485 0.2681085 0.9763476
-0.0750365 0.2687245 0.9764111
-0.0750203 0.2693678 0.9764663
-0.0750052 0.2699839 0.9765352
-0.0750229 0.2705187 0.9766161
-0.0750411 0.2710734 0.9766806
-0.0750725 0.2716172 0.9767489
-0.0757068 0.3000996 0.9756995
-0.0765126 0.2884088 0.9781658
-0.0765298 0.2890478 0.9781132
-0.0765521 0.2896797 0.9780538
-0.0765739 0.2902966 0.9779936
-0.0766020 0.2908849 0.9779296
-0.0766336 0.2914615 0.9778548
-0.0762398 0.2840551 0.9782250
-0.0762428 0.2847321 0.9782273
-0.0762494 0.2854042 0.9782240
-0.0762578 0.2860706 0.9782122
-0.0762682 0.2867419 0.9781914
-0.0762782 0.2874228 0.9781625
-0.0763951 0.2920771 0.9776832
-0.0764228 0.2926794 0.9775956
-0.0764604 0.2932524 0.9775033
-0.0760070 0.2795254 0.9779291
-0.0759989 0.2801953 0.9779706
-0.0759904 0.2808663 0.9780218
-0.0759882 0.2815521 0.9780608
-0.0759872 0.2822416 0.9780964
-0.0759895 0.2829316 0.9781221
-0.0761969 0.2940064 0.9772722
-0.0762294 0.2945947 0.9771644
-0.0757276 0.2769799 0.9776026
-0.0757221 0.2776249 0.9776636
-0.0757169 0.2782861 0.9777278
-0.0759515 0.2953840 0.9769078
-0.0759822 0.2959716 0.9767915
-0.0760221 0.2965552 0.9766723
-0.0755996 0.2650325 0.9763688
-0.0755892 0.2656418 0.9764158
-0.0753877 0.2750935 0.9772729
-0.0753866 0.2757174 0.9773571
-0.0757161 0.2973453 0.9763742
-0.0750757 0.2662412 0.9761595
-0.0750583 0.2668696 0.9762214
-0.0750076 0.2738762 0.9769968
-0.0754242 0.2981367 0.9760705
-0.0754456 0.2987106 0.9759388
-0.0745639 0.2673908 0.9760086
-0.0745494 0.2680095 0.9760808
-0.0745297 0.2686442 0.9761509
-0.0745142 0.2692929 0.9762173
-0.0744925 0.2699249 0.9762925
-0.0745083 0.2704788 0.9763730
-0.0745126 0.2710603 0.9764495
-0.0745387 0.2716218 0.9765274
-0.0745637 0.2721684 0.9766169
-0.0745914 0.2727401 0.9766858
-0.0751314 0.2994482 0.9756341
-0.0751411 0.3000241 0.9754931
-0.0758490 0.2883936 0.9779823
-0.0758670 0.2890207 0.9779283
-0.0758905 0.2896413 0.9778670
-0.0759104 0.2902467 0.9778054
-0.0759399 0.2908216 0.9777396
-0.0759713 0.2913849 0.9776619
-0.0755704 0.2840817 0.9780388
-0.0755738 0.2847527 0.9780443
-0.0755827 0.2854214 0.9780375
-0.0755912 0.2860824 0.9780276
-0.0756017 0.2867484 0.9780059
-0.0756122 0.2874222 0.9779774
-0.0757359 0.2920087 0.9774930
-0.0757624 0.2925957 0.9774038
-0.0757966 0.2931545 0.9773095
-0.0753456 0.2795788 0.9777382
-0.0753398 0.2802428 0.9777875
-0.0753340 0.2809074 0.9778398
-0.0753339 0.2815880 0.9778802
-0.0753353 0.2822716 0.9779174
-0.0753402 0.2829571 0.9779436
-0.0755429 0.2939128 0.9770750
-0.0755753 0.2944907 0.9769663
-0.0750909 0.2770551 0.9773986
-0.0750863 0.2776907 0.9774668
-0.0750838 0.2783433 0.9775339
-0.0753114 0.2952813 0.9767064
-0.0753418 0.2958617 0.9765860
-0.0753780 0.2964383 0.9764638
-0.0751176 0.2648710 0.9760468
-0.0750950 0.2655039 0.9760972
-0.0747799 0.2751649 0.9770623
-0.0747802 0.2757840 0.9771465
-0.0750917 0.2972374 0.9761696
-0.0745779 0.2661088 0.9758586
-0.0745531 0.2667589 0.9759240
-0.0744283 0.2739253 0.9767805
-0.0748071 0.2980336 0.9758697
-0.0748288 0.2986068 0.9757335
-0.0740541 0.2672882 0.9757304
-0.0740373 0.2679193 0.9758071
-0.0740120 0.2685745 0.9758754
-0.0739928 0.2692274 0.9759522
-0.0739686 0.2698813 0.9760279
-0.0739793 0.2704511 0.9761212
-0.0739818 0.2710526 0.9762037
-0.0740018 0.2716271 0.9762913
-0.0740221 0.2721885 0.9763863
-0.0740433 0.2727653 0.9764615
-0.0745359 0.2993528 0.9754264
-0.0745463 0.2999339 0.9752807
-0.0751970 0.2883822 0.9777986
-0.0752160 0.2889937 0.9777436
-0.0752449 0.2896071 0.9776811
-0.0752644 0.2902016 0.9776210
-0.0752957 0.2907630 0.9775520
-0.0749037 0.2847751 0.9778585
-0.0749137 0.2854410 0.9778521
-0.0749221 0.2860983 0.9778431
-0.0749314 0.2867594 0.9778206
-0.0749437 0.2874249 0.9777908
-0.0750567 0.2913346 0.9773933
-0.0750820 0.2919383 0.9773042
-0.0751092 0.2925136 0.9772147
-0.0746699 0.2796331 0.9775404
-0.0746713 0.2802941 0.9775964
-0.0746699 0.2809536 0.9776546
-0.0746734 0.2816290 0.9776972
-0.0746779 0.2823082 0.9777354
-0.0746848 0.2829909 0.9777622
-0.0746908 0.2836645 0.9777870
-0.0748640 0.2932243 0.9769894
-0.0744379 0.2777590 0.9772713
-0.0744404 0.2784021 0.9773441
-0.0746121 0.2939851 0.9767541
-0.0746390 0.2945897 0.9766309
-0.0746665 0.2951759 0.9765087
-0.0746182 0.2647275 0.9757235
-0.0741673 0.2752334 0.9768482
-0.0741703 0.2758514 0.9769360
-0.0741718 0.2764744 0.9770264
-0.0744082 0.2959725 0.9762300
-0.0744326 0.2965503 0.9760996
-0.0744584 0.2971263 0.9759648
-0.0738439 0.2739788 0.9765677
-0.0741955 0.2979252 0.9756660
-0.0742137 0.2984982 0.9755256
-0.0736018 0.2653308 0.9751931
-0.0735894 0.2659295 0.9752772
-0.0735703 0.2665559 0.9753572
-0.0735499 0.2671916 0.9754407
-0.0734673 0.2716288 0.9760653
-0.0734820 0.2722083 0.9761680
-0.0735022 0.2727913 0.9762536
-0.0739533 0.2992582 0.9752208
-0.0739578 0.2998411 0.9750698
-0.0730830 0.2676536 0.9752844
-0.0730566 0.2682927 0.9753699
-0.0730289 0.2689355 0.9754576
-0.0729999 0.2695718 0.9755416
-0.0730086 0.2701105 0.9756327
-0.0730431 0.2706309 0.9757344
-0.0745784 0.2889677 0.9775633
-0.0746086 0.2895748 0.9775003
-0.0746289 0.2901619 0.9774366
-0.0746599 0.2907101 0.9773683
-0.0742312 0.2847955 0.9776720
-0.0742439 0.2854601 0.9776684
-0.0742549 0.2861144 0.9776582
-0.0742659 0.2867704 0.9776352
-0.0742808 0.2874276 0.9776052
-0.0742959 0.2880805 0.9775648
-0.0744050 0.2912728 0.9772051
-0.0739889 0.2796906 0.9773394
-0.0739969 0.2803452 0.9774034
-0.0740005 0.2809988 0.9774669
-0.0740072 0.2816679 0.9775130
-0.0740139 0.2823428 0.9775547
-0.0740223 0.2830244 0.9775807
-0.0740276 0.2836969 0.9776073
-0.0741568 0.2918976 0.9770192
-0.0741879 0.2925313 0.9769120
-0.0742082 0.2931357 0.9767960
-0.0737778 0.2778311 0.9770728
-0.0737855 0.2784630 0.9771478
-0.0739710 0.2938916 0.9765584
-0.0739958 0.2944878 0.9764350
-0.0740191 0.2950674 0.9763090
-0.0735358 0.2753107 0.9766344
-0.0735444 0.2759251 0.9767213
-0.0735527 0.2765429 0.9768139
-0.0737807 0.2958626 0.9760308
-0.0738001 0.2964380 0.9758949
-0.0738156 0.2970123 0.9757559
-0.0736157 0.2645902 0.9750965
-0.0735787 0.2978150 0.9754626
-0.0735892 0.2983855 0.9753140
-0.0731020 0.2651872 0.9748975
-0.0730744 0.2658084 0.9749892
-0.0730419 0.2664604 0.9750737
-0.0728955 0.2716562 0.9758353
-0.0729047 0.2722476 0.9759436
-0.0729218 0.2728395 0.9760352
-0.0729498 0.2734211 0.9761376
-0.0733587 0.2991609 0.9750172
-0.0733541 0.2997417 0.9748599
-0.0725752 0.2669565 0.9749080
-0.0725592 0.2675761 0.9750104
-0.0725312 0.2682251 0.9751017
-0.0725019 0.2688743 0.9752024
-0.0724728 0.2695229 0.9752962
-0.0724771 0.2700794 0.9753923
-0.0725136 0.2706160 0.9755049
-0.0739378 0.2889396 0.9773800
-0.0739662 0.2895384 0.9773154
-0.0739865 0.2901196 0.9772500
-0.0740154 0.2906550 0.9771830
-0.0735586 0.2848113 0.9774883
-0.0735761 0.2854737 0.9774843
-0.0735921 0.2861244 0.9774739
-0.0736053 0.2867773 0.9774508
-0.0736227 0.2874267 0.9774202
-0.0736420 0.2880713 0.9773794
-0.0737537 0.2912119 0.9770162
-0.0732985 0.2797467 0.9771390
-0.0733144 0.2803957 0.9772081
-0.0733245 0.2810443 0.9772734
-0.0733368 0.2817063 0.9773235
-0.0733467 0.2823758 0.9773689
-0.0733580 0.2830548 0.9773972
-0.0733643 0.2837256 0.9774266
-0.0735087 0.2918282 0.9768300
-0.0735383 0.2924492 0.9767130
-0.0735563 0.2930463 0.9766006
-0.0735783 0.2936220 0.9764879
-0.0736002 0.2941807 0.9763727
-0.0731077 0.2772986 0.9767782
-0.0731103 0.2779051 0.9768712
-0.0731205 0.2785259 0.9769517
-0.0733678 0.2949591 0.9761083
-0.0728904 0.2753934 0.9764257
-0.0728981 0.2760013 0.9765178
-0.0731430 0.2957489 0.9758297
-0.0731569 0.2963250 0.9756906
-0.0731649 0.2968999 0.9755452
-0.0730891 0.2644873 0.9747926
-0.0729482 0.2976988 0.9752560
-0.0729518 0.2982702 0.9751009
-0.0725816 0.2650709 0.9745999
-0.0725464 0.2657245 0.9746770
-0.0725044 0.2663847 0.9747714
-0.0723252 0.2716875 0.9756073
-0.0723278 0.2722924 0.9757198
-0.0723452 0.2728826 0.9758222
-0.0723699 0.2734647 0.9759325
-0.0727453 0.2990515 0.9748039
-0.0727338 0.2996313 0.9746422
-0.0720651 0.2668682 0.9746370
-0.0720443 0.2675016 0.9747442
-0.0720153 0.2681605 0.9748442
-0.0719884 0.2688133 0.9749514
-0.0719614 0.2694658 0.9750556
-0.0719650 0.2700396 0.9751632
-0.0719847 0.2706015 0.9752763
-0.0732851 0.2889060 0.9771984
-0.0733128 0.2895001 0.9771298
-0.0733412 0.2900710 0.9770626
-0.0733743 0.2905990 0.9769987
-0.0728861 0.2848215 0.9773027
-0.0729086 0.2854832 0.9772972
-0.0729291 0.2861324 0.9772892
-0.0729484 0.2867799 0.9772664
-0.0729693 0.2874214 0.9772354
-0.0729927 0.2880579 0.9771927
-0.0731069 0.2911535 0.9768251
-0.0726329 0.2804443 0.9770170
-0.0726461 0.2810854 0.9770854
-0.0726627 0.2817427 0.9771342
-0.0726758 0.2824071 0.9771810
-0.0726896 0.2830852 0.9772145
-0.0726998 0.2837538 0.9772441
-0.0728622 0.2917595 0.9766304
-0.0728874 0.2923715 0.9765234
-0.0729040 0.2929624 0.9764076
-0.0724393 0.2779758 0.9766753
-0.0724514 0.2785881 0.9767591
-0.0724678 0.2792246 0.9768446
-0.0726747 0.2936946 0.9761696
-0.0726975 0.2942780 0.9760407
-0.0727138 0.2948520 0.9759074
-0.0722566 0.2766824 0.9764178
-0.0724948 0.2956341 0.9756284
-0.0725074 0.2962102 0.9754820
-0.0725105 0.2967871 0.9753307
-0.0720226 0.2747721 0.9760380
-0.0720434 0.2753716 0.9761463
-0.0723058 0.2975781 0.9750442
-0.0723054 0.2981536 0.9748836
-0.0720930 0.2643297 0.9741936
-0.0717306 0.2723388 0.9755084
-0.0717484 0.2729302 0.9756176
-0.0717697 0.2735166 0.9757347
-0.0721105 0.2989329 0.9745909
-0.0720969 0.2995147 0.9744250
-0.0716229 0.2649076 0.9740516
-0.0715946 0.2655061 0.9741530
-0.0715533 0.2661589 0.9742616
-0.0715270 0.2668017 0.9743602
-0.0714982 0.2674519 0.9744717
-0.0714677 0.2681133 0.9745876
-0.0714371 0.2687697 0.9747032
-0.0714026 0.2694335 0.9748203
-0.0714109 0.2700254 0.9749393
-0.0714303 0.2706056 0.9750566
-0.0714497 0.2711875 0.9751794
-0.0722111 0.2848268 0.9771140
-0.0722377 0.2854893 0.9771103
-0.0722652 0.2861366 0.9771007
-0.0722920 0.2867780 0.9770790
-0.0723175 0.2874123 0.9770466
-0.0723443 0.2880408 0.9770045
-0.0723622 0.2886722 0.9769414
-0.0723831 0.2893024 0.9768756
-0.0724059 0.2899157 0.9768046
-0.0724346 0.2905084 0.9767227
-0.0724636 0.2910848 0.9766282
-0.0719475 0.2804938 0.9768243
-0.0719661 0.2811267 0.9768934
-0.0719868 0.2817769 0.9769456
-0.0720028 0.2824346 0.9769946
-0.0720197 0.2831097 0.9770282
-0.0720335 0.2837737 0.9770609
-0.0722168 0.2916904 0.9764368
-0.0722442 0.2922899 0.9763295
-0.0722599 0.2928726 0.9762135
-0.0717593 0.2780493 0.9764788
-0.0717765 0.2786526 0.9765638
-0.0717975 0.2792804 0.9766549
-0.0720296 0.2935964 0.9759739
-0.0720493 0.2941739 0.9758421
-0.0720603 0.2947453 0.9757058
-0.0715967 0.2767543 0.9762232
-0.0718484 0.2955226 0.9754247
-0.0718549 0.2960983 0.9752736
-0.0718500 0.2966749 0.9751176
-0.0713868 0.2748420 0.9758380
-0.0714092 0.2754369 0.9759496
-0.0716616 0.2974597 0.9748294
-0.0716537 0.2980372 0.9746642
-0.0715424 0.2642449 0.9738715
-0.0711671 0.2735737 0.9755290
-0.0714728 0.2988164 0.9743750
-0.0714551 0.2993970 0.9742035
-0.0710805 0.2648096 0.9737588
-0.0710378 0.2654303 0.9738686
-0.0709948 0.2660992 0.9739757
-0.0708248 0.2694206 0.9745826
-0.0708283 0.2700361 0.9747082
-0.0708452 0.2706267 0.9748335
-0.0708561 0.2712209 0.9749627
-0.0708733 0.2718024 0.9750833
-0.0709068 0.2723504 0.9752047
-0.0705906 0.2665672 0.9738915
-0.0705749 0.2671747 0.9740128
-0.0705572 0.2678061 0.9741386
-0.0705283 0.2684695 0.9742556
-0.0715479 0.2848274 0.9769297
-0.0715770 0.2854871 0.9769243
-0.0716103 0.2861299 0.9769112
-0.0716414 0.2867674 0.9768886
-0.0716678 0.2873955 0.9768563
-0.0716958 0.2880188 0.9768117
-0.0717179 0.2886352 0.9767544
-0.0717394 0.2892569 0.9766874
-0.0717618 0.2898635 0.9766153
-0.0717927 0.2904459 0.9765266
-0.0718197 0.2910167 0.9764378
-0.0712696 0.2805400 0.9766381
-0.0712902 0.2811655 0.9767073
-0.0713130 0.2818102 0.9767596
-0.0713305 0.2824612 0.9768108
-0.0713501 0.2831324 0.9768446
-0.0713674 0.2837920 0.9768770
-0.0715740 0.2916225 0.9762433
-0.0716015 0.2922110 0.9761365
-0.0716202 0.2927844 0.9760210
-0.0710837 0.2781178 0.9762855
-0.0711023 0.2787138 0.9763746
-0.0711254 0.2793345 0.9764696
-0.0713863 0.2934981 0.9757754
-0.0714041 0.2940719 0.9756411
-0.0714140 0.2946445 0.9754979
-0.0709340 0.2768249 0.9760246
-0.0712010 0.2954147 0.9752215
-0.0712046 0.2959921 0.9750671
-0.0711966 0.2965686 0.9749059
-0.0707379 0.2749113 0.9756416
-0.0707592 0.2755033 0.9757559
-0.0710125 0.2973443 0.9746158
-0.0710046 0.2979238 0.9744468
-0.0709741 0.2641699 0.9735667
-0.0705322 0.2736325 0.9753329
-0.0708244 0.2986981 0.9741562
-0.0708083 0.2992787 0.9739817
-0.0705163 0.2647414 0.9734560
-0.0704683 0.2653829 0.9735706
-0.0704115 0.2660679 0.9737012
-0.0702322 0.2694252 0.9743468
-0.0702288 0.2700569 0.9744804
-0.0702324 0.2706649 0.9746102
-0.0702405 0.2712625 0.9747495
-0.0702644 0.2718415 0.9748779
-0.0702886 0.2723943 0.9750047
-0.0700184 0.2665013 0.9736099
-0.0700021 0.2671176 0.9737392
-0.0699830 0.2677598 0.9738754
-0.0699499 0.2684282 0.9740094
-0.0708965 0.2848165 0.9767461
-0.0709307 0.2854757 0.9767380
-0.0709683 0.2861166 0.9767231
-0.0709999 0.2867551 0.9767012
-0.0710280 0.2873803 0.9766668
-0.0710622 0.2879974 0.9766229
-0.0710904 0.2885972 0.9765682
-0.0711119 0.2892174 0.9765016
-0.0711373 0.2898173 0.9764190
-0.0711674 0.2903902 0.9763363
-0.0711951 0.2909525 0.9762504
-0.0705973 0.2805826 0.9764525
-0.0706206 0.2812011 0.9765224
-0.0706435 0.2818379 0.9765764
-0.0706618 0.2824832 0.9766259
-0.0706819 0.2831520 0.9766575
-0.0707009 0.2838065 0.9766894
-0.0709357 0.2915552 0.9760507
-0.0709651 0.2921349 0.9759439
-0.0709893 0.2927028 0.9758261
-0.0704102 0.2781795 0.9760948
-0.0704304 0.2787700 0.9761836
-0.0704548 0.2793867 0.9762811
-0.0707443 0.2934043 0.9755784
-0.0707656 0.2939777 0.9754400
-0.0707756 0.2945568 0.9752965
-0.0702668 0.2768907 0.9758380
-0.0705552 0.2953087 0.9750182
-0.0705626 0.2958882 0.9748609
-0.0705584 0.2964678 0.9746962
-0.0700839 0.2749787 0.9754526
-0.0701040 0.2755690 0.9755670
-0.0703646 0.2972302 0.9744013
-0.0703636 0.2978122 0.9742314
-0.0698967 0.2736908 0.9751325
-0.0701687 0.2985765 0.9739317
-0.0701622 0.2991584 0.9737583
-0.0696237 0.2700873 0.9742600
-0.0696271 0.2706989 0.9743954
-0.0696342 0.2712974 0.9745389
-0.0696524 0.2718828 0.9746703
-0.0696734 0.2724359 0.9748052
-0.0695586 0.2645182 0.9729629
-0.0695244 0.2651302 0.9730861
-0.0694926 0.2657765 0.9732106
-0.0694506 0.2664407 0.9733464
-0.0694243 0.2670781 0.9734825
-0.0694001 0.2677301 0.9736250
-0.0693656 0.2684003 0.9737674
-0.0693522 0.2690326 0.9739119
-0.0701485 0.2828996 0.9764968
-0.0698916 0.2799971 0.9761878
-0.0699238 0.2806197 0.9762649
-0.0699526 0.2812324 0.9763325
-0.0699778 0.2818618 0.9763902
-0.0700190 0.2831669 0.9764680
-0.0700420 0.2838144 0.9764978
-0.0700523 0.2844737 0.9765061
-0.0700662 0.2851298 0.9764954
-0.0700799 0.2857775 0.9764823
-0.0700924 0.2864282 0.9764548
-0.0701118 0.2870851 0.9764174
-0.0701338 0.2877382 0.9763649
-0.0701576 0.2883840 0.9763084
-0.0701863 0.2890238 0.9762391
-0.0702149 0.2896626 0.9761468
-0.0702452 0.2902850 0.9760580
-0.0702766 0.2908896 0.9759614
-0.0703103 0.2914827 0.9758578
-0.0703432 0.2920542 0.9757478
-0.0697350 0.2782400 0.9759056
-0.0697572 0.2788246 0.9759953
-0.0700843 0.2927223 0.9755119
-0.0701151 0.2933071 0.9753832
-0.0701378 0.2938808 0.9752418
-0.0701534 0.2944614 0.9750944
-0.0695640 0.2757830 0.9754429
-0.0695764 0.2763688 0.9755479
-0.0695955 0.2769569 0.9756542
-0.0699211 0.2952007 0.9748090
-0.0699324 0.2957834 0.9746525
-0.0699332 0.2963636 0.9744867
-0.0697264 0.2971153 0.9741848
-0.0697330 0.2976961 0.9740156
-0.0692584 0.2737523 0.9749388
-0.0695211 0.2984571 0.9737056
-0.0695246 0.2990357 0.9735346
-0.0690200 0.2713419 0.9743314
-0.0690367 0.2719254 0.9744709
-0.0690568 0.2724817 0.9746077
-0.0689791 0.2644509 0.9726918
-0.0689359 0.2650929 0.9728239
-0.0688951 0.2657548 0.9729629
-0.0687441 0.2690397 0.9736885
-0.0687402 0.2696406 0.9738401
-0.0687575 0.2702108 0.9739785
-0.0685381 0.2661242 0.9728990
-0.0685149 0.2667377 0.9730415
-0.0685015 0.2673555 0.9731858
-0.0684916 0.2679844 0.9733362
-0.0695125 0.2828956 0.9763140
-0.0692320 0.2800307 0.9760020
-0.0692637 0.2806497 0.9760810
-0.0692954 0.2812579 0.9761469
-0.0693203 0.2818821 0.9762037
-0.0693637 0.2831750 0.9762776
-0.0693884 0.2838163 0.9763050
-0.0694012 0.2844711 0.9763149
-0.0694150 0.2851274 0.9763050
-0.0694319 0.2857746 0.9762909
-0.0694500 0.2864222 0.9762636
-0.0694734 0.2870704 0.9762235
-0.0694988 0.2877171 0.9761691
-0.0695283 0.2883542 0.9761134
-0.0695582 0.2889860 0.9760446
-0.0695859 0.2896210 0.9759518
-0.0696194 0.2902313 0.9758620
-0.0696526 0.2908279 0.9757651
-0.0696928 0.2914115 0.9756621
-0.0697302 0.2919771 0.9755551
-0.0690639 0.2782956 0.9757201
-0.0690881 0.2788757 0.9758114
-0.0694607 0.2926349 0.9753096
-0.0694955 0.2932169 0.9751852
-0.0695226 0.2937918 0.9750446
-0.0695452 0.2943738 0.9748984
-0.0688934 0.2758593 0.9752470
-0.0689059 0.2764402 0.9753570
-0.0689248 0.2770234 0.9754665
-0.0692962 0.2951006 0.9746009
-0.0693159 0.2956860 0.9744446
-0.0693263 0.2962684 0.9742803
-0.0691004 0.2970056 0.9739737
-0.0691202 0.2975888 0.9738048
-0.0686056 0.2738189 0.9747460
-0.0688843 0.2983388 0.9734854
-0.0689012 0.2989164 0.9733161
-0.0683853 0.2713966 0.9741288
-0.0684012 0.2719804 0.9742694
-0.0684188 0.2725378 0.9744097
-0.0683901 0.2644138 0.9724174
-0.0683406 0.2650807 0.9725642
-0.0682965 0.2657517 0.9727126
-0.0681354 0.2690511 0.9734741
-0.0681276 0.2696614 0.9736314
-0.0681441 0.2702394 0.9737761
-0.0679562 0.2660752 0.9726441
-0.0679258 0.2667094 0.9727979
-0.0679097 0.2673353 0.9729505
-0.0678968 0.2679682 0.9731080
-0.0685793 0.2800560 0.9758188
-0.0686116 0.2806723 0.9758961
-0.0686462 0.2812761 0.9759612
-0.0686683 0.2818967 0.9760181
-0.0686893 0.2825210 0.9760641
-0.0687124 0.2831816 0.9760863
-0.0687416 0.2838140 0.9761130
-0.0687592 0.2844612 0.9761251
-0.0687733 0.2851186 0.9761126
-0.0687937 0.2857652 0.9760975
-0.0688157 0.2864113 0.9760668
-0.0688392 0.2870550 0.9760279
-0.0688654 0.2876991 0.9759726
-0.0688968 0.2883298 0.9759169
-0.0689299 0.2889537 0.9758477
-0.0689635 0.2895780 0.9757574
-0.0690039 0.2901741 0.9756702
-0.0690457 0.2907633 0.9755720
-0.0683979 0.2783484 0.9755372
-0.0684237 0.2789215 0.9756295
-0.0687556 0.2913567 0.9753504
-0.0688000 0.2919632 0.9752328
-0.0688465 0.2925528 0.9751120
-0.0688917 0.2931281 0.9749873
-0.0689260 0.2937013 0.9748458
-0.0682552 0.2770887 0.9752806
-0.0686466 0.2944156 0.9745501
-0.0686872 0.2950037 0.9744008
-0.0687186 0.2955895 0.9742420
-0.0680957 0.2751944 0.9748782
-0.0681140 0.2757782 0.9749987
-0.0684534 0.2963126 0.9739267
-0.0684900 0.2968978 0.9737646
-0.0685249 0.2974841 0.9735973
-0.0679500 0.2738873 0.9745579
-0.0682608 0.2982235 0.9732675
-0.0682915 0.2987998 0.9731026
-0.0677469 0.2714525 0.9739355
-0.0677647 0.2720395 0.9740775
-0.0677840 0.2725963 0.9742212
-0.0677852 0.2644052 0.9721466
-0.0677289 0.2650960 0.9723095
-0.0676828 0.2657722 0.9724699
-0.0675305 0.2690687 0.9732588
-0.0675218 0.2696853 0.9734195
-0.0675355 0.2702705 0.9735717
-0.0673609 0.2660502 0.9724093
-0.0673323 0.2666928 0.9725703
-0.0673150 0.2673253 0.9727309
-0.0673019 0.2679615 0.9728937
-0.0679260 0.2800778 0.9756355
-0.0679630 0.2806878 0.9757118
-0.0680042 0.2812847 0.9757780
-0.0680300 0.2818985 0.9758337
-0.0680565 0.2825118 0.9758789
-0.0680740 0.2831785 0.9758991
-0.0681040 0.2838079 0.9759233
-0.0681284 0.2844469 0.9759370
-0.0681435 0.2851052 0.9759182
-0.0681676 0.2857495 0.9759037
-0.0681951 0.2863904 0.9758726
-0.0682231 0.2870287 0.9758335
-0.0682545 0.2876694 0.9757778
-0.0682925 0.2882929 0.9757220
-0.0683312 0.2889101 0.9756576
-0.0683699 0.2895233 0.9755671
-0.0684175 0.2901078 0.9754801
-0.0677292 0.2783988 0.9753551
-0.0677592 0.2789649 0.9754477
-0.0681066 0.2906666 0.9752621
-0.0681496 0.2912810 0.9751508
-0.0682002 0.2918746 0.9750376
-0.0682540 0.2924600 0.9749197
-0.0675837 0.2771521 0.9750967
-0.0679470 0.2931288 0.9746344
-0.0680006 0.2937220 0.9744955
-0.0680517 0.2943147 0.9743505
-0.0674263 0.2752659 0.9746918
-0.0674476 0.2758464 0.9748147
-0.0677461 0.2950184 0.9740295
-0.0678019 0.2956120 0.9738771
-0.0678550 0.2962061 0.9737169
-0.0672917 0.2739573 0.9743683
-0.0675543 0.2969212 0.9733776
-0.0676085 0.2975158 0.9732157
-0.0676602 0.2981086 0.9730518
-0.0677004 0.2986802 0.9728911
-0.0671017 0.2715150 0.9737436
-0.0671212 0.2720999 0.9738881
-0.0671436 0.2726567 0.9740330
-0.0671521 0.2644308 0.9719031
-0.0669014 0.2691058 0.9730550
-0.0668952 0.2697243 0.9732193
-0.0669124 0.2703094 0.9733750
-0.0668087 0.2647679 0.9718652
-0.0667759 0.2654054 0.9720247
-0.0667432 0.2660593 0.9721897
-0.0667160 0.2667063 0.9723546
-0.0666992 0.2673432 0.9725188
-0.0666844 0.2679799 0.9726876
-0.0673092 0.2800822 0.9754563
-0.0673432 0.2806889 0.9755311
-0.0673861 0.2812823 0.9755946
-0.0674124 0.2818916 0.9756495
-0.0674400 0.2824977 0.9756920
-0.0674563 0.2831665 0.9757076
-0.0674869 0.2837940 0.9757313
-0.0675097 0.2844294 0.9757436
-0.0675265 0.2850849 0.9757219
-0.0675481 0.2857313 0.9757071
-0.0675762 0.2863701 0.9756797
-0.0676074 0.2870050 0.9756378
-0.0676435 0.2876385 0.9755851
-0.0676898 0.2882517 0.9755255
-0.0677380 0.2888587 0.9754628
-0.0677854 0.2894621 0.9753723
-0.0678327 0.2900404 0.9752860
-0.0670843 0.2784375 0.9751725
-0.0671135 0.2789976 0.9752650
-0.0675006 0.2906033 0.9750564
-0.0675534 0.2912042 0.9749507
-0.0676117 0.2917889 0.9748360
-0.0676705 0.2923706 0.9747172
-0.0669187 0.2772113 0.9749180
-0.0673425 0.2930352 0.9744249
-0.0674039 0.2936277 0.9742860
-0.0674639 0.2942229 0.9741430
-0.0667568 0.2753344 0.9745095
-0.0667778 0.2759127 0.9746333
-0.0671361 0.2949138 0.9738230
-0.0672033 0.2955085 0.9736681
-0.0672680 0.2961052 0.9735115
-0.0666269 0.2740261 0.9741849
-0.0669434 0.2968084 0.9731645
-0.0670090 0.2974028 0.9730028
-0.0670726 0.2979981 0.9728425
-0.0671224 0.2985677 0.9726826
-0.0664479 0.2715802 0.9735545
-0.0664702 0.2721622 0.9737019
-0.0664948 0.2727175 0.9738498
-0.0665011 0.2644793 0.9716577
-0.0662647 0.2691478 0.9728606
-0.0662621 0.2697661 0.9730290
-0.0662803 0.2703528 0.9731885
-0.0661904 0.2647728 0.9716313
-0.0661556 0.2654233 0.9718003
-0.0661223 0.2660761 0.9719707
-0.0660972 0.2667223 0.9721414
-0.0660829 0.2673594 0.9723119
-0.0660728 0.2679946 0.9724831
-0.0666658 0.2801053 0.9752673
-0.0666968 0.2807075 0.9753444
-0.0667436 0.2812967 0.9754072
-0.0667746 0.2818994 0.9754599
-0.0668120 0.2824923 0.9755030
-0.0668317 0.2831563 0.9755159
-0.0668670 0.2837792 0.9755377
-0.0668920 0.2844122 0.9755458
-0.0669098 0.2850636 0.9755268
-0.0669354 0.2857071 0.9755073
-0.0669683 0.2863389 0.9754805
-0.0670052 0.2869676 0.9754382
-0.0670479 0.2875980 0.9753855
-0.0670986 0.2882045 0.9753314
-0.0671576 0.2888020 0.9752577
-0.0672014 0.2894021 0.9751757
-0.0672517 0.2899715 0.9750929
-0.0664432 0.2784746 0.9749955
-0.0664631 0.2790329 0.9750861
-0.0669151 0.2905266 0.9748634
-0.0669718 0.2911224 0.9747541
-0.0670319 0.2917036 0.9746445
-0.0662603 0.2772652 0.9747366
-0.0666939 0.2923415 0.9743553
-0.0667586 0.2929377 0.9742252
-0.0668267 0.2935340 0.9740929
-0.0668984 0.2941356 0.9739527
-0.0660897 0.2754009 0.9743286
-0.0661092 0.2759799 0.9744512
-0.0665558 0.2948087 0.9736180
-0.0666345 0.2954094 0.9734684
-0.0659601 0.2740943 0.9740045
-0.0662790 0.2960979 0.9731098
-0.0663608 0.2966985 0.9729529
-0.0664377 0.2972954 0.9727964
-0.0665130 0.2978948 0.9726388
-0.0665748 0.2984644 0.9724838
-0.0657886 0.2716457 0.9733691
-0.0658128 0.2722262 0.9735182
-0.0658357 0.2727849 0.9736676
-0.0656188 0.2698132 0.9728423
-0.0656370 0.2703992 0.9730060
-0.0656054 0.2641351 0.9712244
-0.0654706 0.2667526 0.9719348
-0.0654573 0.2673863 0.9721097
-0.0654491 0.2680171 0.9722835
-0.0654359 0.2686418 0.9724547
-0.0653212 0.2643511 0.9711853
-0.0653014 0.2649714 0.9713596
-0.0652878 0.2656086 0.9715409
-0.0661081 0.2806908 0.9751643
-0.0661592 0.2812758 0.9752280
-0.0661930 0.2818741 0.9752773
-0.0662301 0.2824646 0.9753218
-0.0662502 0.2831289 0.9753315
-0.0662838 0.2837605 0.9753455
-0.0663088 0.2843997 0.9753494
-0.0658239 0.2784894 0.9748170
-0.0658457 0.2790459 0.9749064
-0.0658709 0.2796414 0.9749860
-0.0659816 0.2847940 0.9752332
-0.0660020 0.2854469 0.9752045
-0.0660305 0.2860885 0.9751724
-0.0660619 0.2867278 0.9751276
-0.0660891 0.2873729 0.9750722
-0.0661286 0.2880052 0.9750069
-0.0661734 0.2886292 0.9749337
-0.0662205 0.2892489 0.9748492
-0.0662769 0.2898553 0.9747631
-0.0663330 0.2904495 0.9746605
-0.0655541 0.2761838 0.9743319
-0.0655856 0.2767394 0.9744459
-0.0656100 0.2773111 0.9745577
-0.0659768 0.2910476 0.9743972
-0.0660398 0.2916544 0.9742787
-0.0661070 0.2922482 0.9741557
-0.0661781 0.2928406 0.9740265
-0.0662581 0.2934342 0.9738962
-0.0659043 0.2941060 0.9735648
-0.0652930 0.2741611 0.9738262
-0.0655282 0.2947883 0.9732002
-0.0656167 0.2953876 0.9730540
-0.0657075 0.2959912 0.9729026
-0.0651522 0.2722927 0.9733359
-0.0651753 0.2728535 0.9734847
-0.0653275 0.2966765 0.9725182
-0.0654213 0.2972839 0.9723649
-0.0655130 0.2978884 0.9722100
-0.0656024 0.2984908 0.9720574
-0.0649676 0.2698696 0.9726584
-0.0649896 0.2704527 0.9728235
-0.0650260 0.2710103 0.9729812
-0.0648096 0.2674354 0.9719235
-0.0648053 0.2680595 0.9720981
-0.0647969 0.2686787 0.9722727
-0.0647089 0.2637590 0.9708171
-0.0646764 0.2643837 0.9709957
