-0.2012536 0.3236170 0.9519255
-0.2012555 0.3241061 0.9518919
-0.2012932 0.3427673 0.9514187
-0.2012663 0.3432666 0.9514029
-0.2012760 0.3437751 0.9513900
-0.2012614 0.3442727 0.9513826
-0.2012644 0.3448516 0.9513721
-0.2012994 0.3453468 0.9513714
-0.2013025 0.3458142 0.9513686
-0.2014217 0.3179273 0.9525318
-0.2013778 0.3185074 0.9524560
-0.2013521 0.3190851 0.9523812
-0.2013374 0.3196639 0.9523081
-0.2013311 0.3202491 0.9522391
-0.2013197 0.3296037 0.9517246
-0.2013236 0.3373550 0.9515762
-0.2013220 0.3505528 0.9512621
-0.2013452 0.3510813 0.9512508
-0.2010321 0.3342922 0.9516542
-0.2010329 0.3346982 0.9516430
-0.2010556 0.3351568 0.9516367
-0.2017444 0.3540631 0.9511747
-0.2011494 0.3209449 0.9521665
-0.2011253 0.3276601 0.9517655
-0.2011283 0.3282496 0.9517552
-0.2011638 0.3382068 0.9515460
-0.2011519 0.3387659 0.9515273
-0.2011303 0.3393455 0.9515051
-0.2010933 0.3491772 0.9512698
-0.2010172 0.3146595 0.9530432
-0.2008710 0.3333023 0.9516738
-0.2008802 0.3337767 0.9516672
-0.2025124 0.3556670 0.9511709
-0.2025002 0.3558450 0.9511461
-0.2025556 0.3561343 0.9511271
-0.2009497 0.3216001 0.9520949
-0.2009259 0.3221350 0.9520436
-0.2009114 0.3226709 0.9519984
-0.2009018 0.3253735 0.9518329
-0.2009017 0.3258873 0.9518160
-0.2009050 0.3264322 0.9517989
-0.2009624 0.3401620 0.9514671
-0.2009361 0.3406891 0.9514473
-0.2009136 0.3412121 0.9514293
-0.2008961 0.3417392 0.9514122
-0.2008730 0.3422774 0.9513992
-0.2008729 0.3468694 0.9512988
-0.2008860 0.3474460 0.9512854
-0.2009001 0.3479173 0.9512776
-0.2010314 0.3153839 0.9529267
-0.2009523 0.3160036 0.9528303
-0.2008949 0.3166055 0.9527396
-0.2008537 0.3171987 0.9526509
-0.2008256 0.3177787 0.9525664
-0.2008165 0.3183582 0.9524849
-0.2008006 0.3309588 0.9517088
-0.2007978 0.3315586 0.9517005
-0.2007971 0.3321696 0.9516909
-0.2007886 0.3359959 0.9516017
-0.2007809 0.3365855 0.9515826
-0.2009058 0.3514510 0.9511737
-0.2009494 0.3519881 0.9511550
-0.2017327 0.3550437 0.9510976
-0.2018553 0.3553077 0.9510855
-0.2018981 0.3554934 0.9510665
-0.2007361 0.3231704 0.9519631
-0.2007238 0.3236126 0.9519302
-0.2007303 0.3240998 0.9518959
-0.2007133 0.3245233 0.9518750
-0.2006958 0.3427682 0.9513764
-0.2006759 0.3432696 0.9513594
-0.2006696 0.3437723 0.9513420
-0.2006578 0.3442608 0.9513317
-0.2006611 0.3448342 0.9513185
-0.2006958 0.3453394 0.9513142
-0.2006989 0.3458055 0.9513082
-0.2006890 0.3191010 0.9523904
-0.2006700 0.3196722 0.9523181
-0.2006565 0.3202510 0.9522485
-0.2006545 0.3295932 0.9517280
-0.2006601 0.3373752 0.9515570
-0.2002575 0.3342700 0.9516520
-0.2002665 0.3346881 0.9516380
-0.2003001 0.3351467 0.9516294
-0.2011142 0.3540484 0.9510692
-0.2005136 0.3209567 0.9521737
-0.2004927 0.3276452 0.9517759
-0.2004990 0.3282308 0.9517637
-0.2005290 0.3382365 0.9515240
-0.2005151 0.3387914 0.9514986
-0.2004898 0.3393655 0.9514759
-0.2004329 0.3491966 0.9511815
-0.2003619 0.3146784 0.9530528
-0.2001356 0.3332961 0.9516742
-0.2001457 0.3337690 0.9516673
-0.2001791 0.3358378 0.9516015
-0.2001742 0.3363638 0.9515851
-0.2003564 0.3216209 0.9521029
-0.2003305 0.3221489 0.9520516
-0.2003152 0.3226793 0.9520071
-0.2002986 0.3253632 0.9518417
-0.2003075 0.3258742 0.9518236
-0.2003155 0.3264129 0.9518060
-0.2003386 0.3401845 0.9514374
-0.2003143 0.3407078 0.9514177
-0.2002926 0.3412257 0.9513966
-0.2002738 0.3417503 0.9513751
-0.2002446 0.3422861 0.9513609
-0.2002313 0.3468730 0.9512325
-0.2002513 0.3474531 0.9512154
-0.2002592 0.3479365 0.9512034
-0.2003736 0.3154229 0.9529327
-0.2002922 0.3160344 0.9528378
-0.2002309 0.3166316 0.9527480
-0.2001847 0.3172197 0.9526604
-0.2001490 0.3177948 0.9525761
-0.2001300 0.3183691 0.9524960
-0.2001090 0.3309380 0.9517170
-0.2001100 0.3315363 0.9517078
-0.2001146 0.3321482 0.9516966
-0.2000798 0.3371613 0.9515530
-0.2002355 0.3514651 0.9510807
-0.2002856 0.3520119 0.9510553
-0.2013557 0.3554433 0.9509714
-0.2014155 0.3555550 0.9509692
-0.2014761 0.3557237 0.9509689
-0.2015108 0.3560203 0.9509315
-0.2001708 0.3231729 0.9519747
-0.2001664 0.3236032 0.9519433
-0.2001711 0.3240835 0.9519098
-0.2001541 0.3245144 0.9518864
-0.2000913 0.3427747 0.9513395
-0.2000759 0.3432788 0.9513210
-0.2000545 0.3437780 0.9512996
-0.2000414 0.3442605 0.9512869
-0.2000507 0.3448257 0.9512712
-0.2000850 0.3453362 0.9512611
-0.2000860 0.3458011 0.9512521
-0.2000284 0.3191235 0.9524000
-0.2000081 0.3196914 0.9523284
-0.1999927 0.3202683 0.9522590
-0.1999884 0.3295681 0.9517394
-0.1999654 0.3379896 0.9515208
-0.1999472 0.3385592 0.9514928
-0.1999469 0.3500541 0.9510922
-0.1995068 0.3342584 0.9516597
-0.1995245 0.3346852 0.9516440
-0.1995678 0.3351477 0.9516321
-0.2005033 0.3540163 0.9509739
-0.2006631 0.3543928 0.9509928
-0.2007585 0.3548416 0.9509552
-0.1998624 0.3209692 0.9521844
-0.1998475 0.3276238 0.9517880
-0.1998559 0.3282074 0.9517757
-0.1998400 0.3393957 0.9514576
-0.1997334 0.3481481 0.9511368
-0.1997570 0.3486957 0.9511109
-0.1997034 0.3147027 0.9530626
-0.1994318 0.3332804 0.9516847
-0.1994461 0.3337608 0.9516745
-0.1994724 0.3358480 0.9516014
-0.1994660 0.3363765 0.9515844
-0.1997333 0.3216423 0.9521156
-0.1997110 0.3221656 0.9520640
-0.1997019 0.3226921 0.9520200
-0.1996974 0.3248125 0.9518839
-0.1996913 0.3253496 0.9518580
-0.1997022 0.3258528 0.9518391
-0.1997146 0.3263842 0.9518198
-0.1997047 0.3402221 0.9514179
-0.1996826 0.3407373 0.9513948
-0.1996629 0.3412518 0.9513707
-0.1996418 0.3417688 0.9513480
-0.1996138 0.3423064 0.9513293
-0.1995505 0.3457720 0.9512086
-0.1995680 0.3463203 0.9511919
-0.1995886 0.3468773 0.9511681
-0.1997019 0.3154595 0.9529408
-0.1996235 0.3160680 0.9528467
-0.1995643 0.3166623 0.9527569
-0.1995174 0.3172449 0.9526707
-0.1994791 0.3178152 0.9525883
-0.1994550 0.3183848 0.9525105
-0.1994203 0.3309103 0.9517320
-0.1994244 0.3315081 0.9517206
-0.1994363 0.3321208 0.9517101
-0.1993956 0.3371867 0.9515509
-0.1995697 0.3514787 0.9509929
-0.1996191 0.3520311 0.9509716
-0.2007498 0.3554077 0.9508678
-0.2008252 0.3554781 0.9508674
-0.2009011 0.3556598 0.9508643
-0.1995902 0.3231903 0.9519873
-0.1995847 0.3236120 0.9519581
-0.1995875 0.3240845 0.9519243
-0.1994842 0.3428024 0.9513078
-0.1994707 0.3433017 0.9512865
-0.1994407 0.3437894 0.9512592
-0.1994355 0.3442634 0.9512474
-0.1994421 0.3448190 0.9512260
-0.1993676 0.3191507 0.9524131
-0.1993465 0.3197157 0.9523436
-0.1993311 0.3202860 0.9522741
-0.1993260 0.3295338 0.9517583
-0.1992960 0.3380240 0.9515119
-0.1992774 0.3385894 0.9514851
-0.1992711 0.3500690 0.9510154
-0.1990382 0.3139564 0.9531946
-0.1989861 0.3145616 0.9530981
-0.1987590 0.3342846 0.9516737
-0.1987954 0.3347004 0.9516567
-0.1988304 0.3351696 0.9516409
-0.1998941 0.3539695 0.9508813
-0.2000587 0.3543490 0.9508950
-0.2001532 0.3547724 0.9508595
-0.2004091 0.3560227 0.9507127
-0.2004608 0.3564040 0.9506640
-0.1992165 0.3209895 0.9522002
-0.1992138 0.3275914 0.9518047
-0.1992236 0.3281726 0.9517917
-0.1991846 0.3394357 0.9514472
-0.1990646 0.3481539 0.9510685
-0.1990829 0.3487116 0.9510361
-0.1989830 0.3153220 0.9529794
-0.1987431 0.3332679 0.9517024
-0.1987523 0.3337672 0.9516905
-0.1987701 0.3358743 0.9516087
-0.1987680 0.3364038 0.9515883
-0.1991066 0.3216635 0.9521331
-0.1990903 0.3221853 0.9520807
-0.1990848 0.3227061 0.9520365
-0.1990863 0.3248011 0.9519038
-0.1990836 0.3253284 0.9518784
-0.1991001 0.3258267 0.9518613
-0.1991127 0.3263570 0.9518415
-0.1990606 0.3402670 0.9514017
-0.1990390 0.3407755 0.9513771
-0.1990213 0.3412853 0.9513500
-0.1990059 0.3417967 0.9513260
-0.1989774 0.3423269 0.9513031
-0.1989061 0.3457810 0.9511547
-0.1989150 0.3463214 0.9511370
-0.1989313 0.3468834 0.9511114
-0.1989466 0.3161004 0.9528565
-0.1988919 0.3166919 0.9527670
-0.1988465 0.3172716 0.9526824
-0.1988095 0.3178408 0.9526009
-0.1987843 0.3184077 0.9525241
-0.1987365 0.3308718 0.9517530
-0.1987433 0.3314714 0.9517405
-0.1987609 0.3320860 0.9517294
-0.1987110 0.3372213 0.9515515
-0.1988973 0.3514873 0.9509045
-0.1989471 0.3520449 0.9508798
-0.2001411 0.3553052 0.9507763
-0.2002247 0.3554043 0.9507663
-0.2003213 0.3556307 0.9507576
-0.1990024 0.3232028 0.9520031
-0.1989974 0.3236240 0.9519747
-0.1990031 0.3240862 0.9519425
-0.1988748 0.3428197 0.9512816
-0.1988673 0.3433172 0.9512580
-0.1988255 0.3437969 0.9512268
-0.1988161 0.3442608 0.9512121
-0.1988150 0.3448139 0.9511853
-0.1987070 0.3191767 0.9524264
-0.1986864 0.3197399 0.9523580
-0.1986707 0.3203077 0.9522899
-0.1986677 0.3294935 0.9517849
-0.1986272 0.3380633 0.9515115
-0.1986082 0.3386278 0.9514848
-0.1985977 0.3500773 0.9509380
-0.1983901 0.3139744 0.9532021
-0.1983429 0.3145723 0.9531083
-0.1980281 0.3343038 0.9516956
-0.1980810 0.3347263 0.9516756
-0.1981161 0.3351922 0.9516581
-0.1992739 0.3539261 0.9507874
-0.1994534 0.3543085 0.9507895
-0.1995608 0.3547023 0.9507611
-0.1998230 0.3559687 0.9506096
-0.1998644 0.3563135 0.9505653
-0.1985748 0.3210099 0.9522183
-0.1985868 0.3275531 0.9518283
-0.1985998 0.3281313 0.9518137
-0.1985282 0.3394794 0.9514425
-0.1983967 0.3481563 0.9510068
-0.1984135 0.3487184 0.9509716
-0.1983143 0.3153449 0.9529891
-0.1982732 0.3159306 0.9528993
-0.1982357 0.3165097 0.9528117
-0.1980618 0.3326892 0.9517400
-0.1980653 0.3332429 0.9517255
-0.1980706 0.3337614 0.9517114
-0.1980760 0.3359049 0.9516222
-0.1980774 0.3364359 0.9515988
-0.1984874 0.3216858 0.9521496
-0.1984674 0.3222010 0.9520993
-0.1984671 0.3227185 0.9520553
-0.1984838 0.3247874 0.9519260
-0.1984849 0.3253007 0.9519016
-0.1985049 0.3257912 0.9518822
-0.1985184 0.3263204 0.9518635
-0.1984131 0.3403162 0.9513935
-0.1983917 0.3408167 0.9513653
-0.1983760 0.3413222 0.9513350
-0.1983682 0.3418285 0.9513096
-0.1983435 0.3423495 0.9512838
-0.1983196 0.3428920 0.9512554
-0.1982883 0.3434634 0.9512249
-0.1982785 0.3440192 0.9511974
-0.1982590 0.3457871 0.9511110
-0.1982652 0.3463243 0.9510878
-0.1982798 0.3468865 0.9510604
-0.1981738 0.3172991 0.9526935
-0.1981420 0.3178671 0.9526126
-0.1981167 0.3184310 0.9525365
-0.1980588 0.3308260 0.9517792
-0.1980677 0.3314287 0.9517672
-0.1980300 0.3372611 0.9515611
-0.1982307 0.3514883 0.9508233
-0.1982795 0.3520487 0.9507907
-0.1995393 0.3551731 0.9506801
-0.1996283 0.3553296 0.9506726
-0.1984055 0.3232089 0.9520218
-0.1984039 0.3236294 0.9519949
-0.1984188 0.3240803 0.9519647
-0.1981978 0.3442607 0.9511850
-0.1981891 0.3448057 0.9511522
-0.1980388 0.3192061 0.9524396
-0.1980192 0.3197659 0.9523713
-0.1980010 0.3203323 0.9523062
-0.1980078 0.3294479 0.9518124
-0.1979585 0.3381050 0.9515159
-0.1979384 0.3386681 0.9514897
-0.1979206 0.3500898 0.9508621
-0.1977371 0.3139953 0.9532095
-0.1976984 0.3145869 0.9531173
-0.1973210 0.3343158 0.9517235
-0.1973850 0.3347460 0.9517016
-0.1974104 0.3352174 0.9516805
-0.1986674 0.3538901 0.9506956
-0.1988589 0.3542558 0.9506840
-0.1989609 0.3546030 0.9506700
-0.1991780 0.3555225 0.9505526
-0.1992187 0.3558581 0.9505151
-0.1992687 0.3562189 0.9504636
-0.1979242 0.3210298 0.9522379
-0.1979393 0.3269408 0.9518713
-0.1979557 0.3275088 0.9518568
-0.1979693 0.3280828 0.9518418
-0.1978700 0.3395232 0.9514369
-0.1977223 0.3481616 0.9509478
-0.1977325 0.3487308 0.9509070
-0.1976402 0.3153680 0.9529983
-0.1976060 0.3159528 0.9529095
-0.1975751 0.3165309 0.9528228
-0.1973894 0.3326539 0.9517699
-0.1973941 0.3332166 0.9517536
-0.1973982 0.3337543 0.9517383
-0.1973853 0.3359380 0.9516424
-0.1973933 0.3364699 0.9516156
-0.1978834 0.3216916 0.9521720
-0.1978695 0.3222041 0.9521221
-0.1978642 0.3227239 0.9520772
-0.1978950 0.3247706 0.9519525
-0.1979072 0.3252779 0.9519284
-0.1979265 0.3257590 0.9519079
-0.1977646 0.3403634 0.9513916
-0.1977430 0.3408564 0.9513593
-0.1977291 0.3413570 0.9513258
-0.1977214 0.3418598 0.9512971
-0.1977008 0.3423730 0.9512689
-0.1976821 0.3429107 0.9512367
-0.1976445 0.3434756 0.9512048
-0.1976304 0.3440199 0.9511714
-0.1976266 0.3446171 0.9511385
-0.1976252 0.3452093 0.9510993
-0.1976078 0.3457922 0.9510700
-0.1976095 0.3463258 0.9510443
-0.1976202 0.3468867 0.9510134
-0.1974972 0.3173257 0.9527055
-0.1974687 0.3178939 0.9526254
-0.1974413 0.3184593 0.9525520
-0.1973846 0.3307730 0.9518127
-0.1973947 0.3313818 0.9517984
-0.1973519 0.3373028 0.9515754
-0.1975614 0.3514818 0.9507429
-0.1976062 0.3520435 0.9507123
-0.1978461 0.3232135 0.9520432
-0.1978630 0.3236280 0.9520170
-0.1978978 0.3240549 0.9519913
-0.1973716 0.3192318 0.9524553
-0.1973558 0.3197906 0.9523887
-0.1973408 0.3203561 0.9523278
-0.1973572 0.3293963 0.9518444
-0.1972917 0.3381510 0.9515263
-0.1972697 0.3387115 0.9514943
-0.1972437 0.3500985 0.9507921
-0.1970778 0.3140146 0.9532160
-0.1970450 0.3146032 0.9531250
-0.1966805 0.3331186 0.9517931
-0.1966857 0.3335766 0.9517808
-0.1966814 0.3338879 0.9517706
-0.1966486 0.3343381 0.9517536
-0.1967087 0.3347781 0.9517329
-0.1967210 0.3352534 0.9517080
-0.1980741 0.3538117 0.9506103
-0.1982372 0.3541484 0.9505888
-0.1983209 0.3544803 0.9505742
-0.1983893 0.3548044 0.9505330
-0.1984519 0.3551429 0.9504819
-0.1985359 0.3554421 0.9504503
-0.1972830 0.3210471 0.9522595
-0.1973236 0.3268988 0.9519022
-0.1973391 0.3274612 0.9518886
-0.1973551 0.3280358 0.9518743
-0.1972093 0.3395697 0.9514404
-0.1970468 0.3481673 0.9508914
-0.1970515 0.3487415 0.9508443
-0.1969596 0.3153909 0.9530063
-0.1969335 0.3159754 0.9529183
-0.1969085 0.3165540 0.9528333
-0.1967076 0.3359803 0.9516674
-0.1967129 0.3365148 0.9516378
-0.1979950 0.3559073 0.9502778
-0.1980731 0.3562776 0.9502229
-0.1972616 0.3216955 0.9521947
-0.1972551 0.3222074 0.9521463
-0.1972517 0.3227249 0.9521040
-0.1973104 0.3247513 0.9519788
-0.1973242 0.3252534 0.9519533
-0.1973376 0.3257339 0.9519344
-0.1971124 0.3404107 0.9513913
-0.1970901 0.3409008 0.9513576
-0.1970794 0.3413989 0.9513218
-0.1970711 0.3418982 0.9512902
-0.1970576 0.3424053 0.9512566
-0.1970398 0.3429338 0.9512211
-0.1969956 0.3434856 0.9511863
-0.1969843 0.3440282 0.9511510
-0.1969797 0.3446242 0.9511121
-0.1969722 0.3452085 0.9510713
-0.1969564 0.3457946 0.9510378
-0.1969551 0.3463293 0.9510068
-0.1969584 0.3468885 0.9509712
-0.1968172 0.3173523 0.9527179
-0.1967951 0.3179207 0.9526387
-0.1967684 0.3184872 0.9525676
-0.1967026 0.3301327 0.9518650
-0.1967151 0.3307159 0.9518515
-0.1967263 0.3313312 0.9518366
-0.1966774 0.3373504 0.9515955
-0.1968974 0.3514794 0.9506620
-0.1969514 0.3520452 0.9506250
-0.1975270 0.3569408 0.9499868
-0.1960650 0.3344278 0.9517781
-0.1960787 0.3347935 0.9517622
-0.1972713 0.3232098 0.9520693
-0.1972974 0.3236219 0.9520444
-0.1973414 0.3240356 0.9520145
-0.1967052 0.3192544 0.9524724
-0.1966941 0.3198130 0.9524091
-0.1966806 0.3203788 0.9523483
-0.1966926 0.3281595 0.9519105
-0.1967039 0.3287556 0.9518960
-0.1966228 0.3381999 0.9515399
-0.1966008 0.3387599 0.9515054
-0.1965668 0.3501042 0.9507254
-0.1964142 0.3140331 0.9532202
-0.1963894 0.3146179 0.9531306
-0.1963626 0.3151960 0.9530434
-0.1959943 0.3330883 0.9518320
-0.1960062 0.3335569 0.9518178
-0.1960091 0.3339080 0.9518052
-0.1960447 0.3352852 0.9517381
-0.1960669 0.3357754 0.9517079
-0.1960643 0.3362679 0.9516825
-0.1974770 0.3536862 0.9505297
-0.1976103 0.3540158 0.9505077
-0.1976795 0.3543504 0.9504844
-0.1977441 0.3546697 0.9504451
-0.1978063 0.3550383 0.9503858
-0.1979001 0.3553480 0.9503572
-0.1966375 0.3210590 0.9522821
-0.1966362 0.3216070 0.9522278
-0.1966333 0.3221770 0.9521747
-0.1967058 0.3268554 0.9519380
-0.1965397 0.3396173 0.9514459
-0.1963643 0.3475719 0.9508907
-0.1963713 0.3481689 0.9508420
-0.1963710 0.3487488 0.9507896
-0.1962570 0.3159969 0.9529258
-0.1962397 0.3165746 0.9528426
-0.1960426 0.3314242 0.9518755
-0.1960529 0.3319903 0.9518617
-0.1960377 0.3370887 0.9516315
-0.1973649 0.3557689 0.9501911
-0.1974611 0.3561696 0.9501271
-0.1966350 0.3227235 0.9521316
-0.1966500 0.3232246 0.9520958
-0.1966650 0.3237272 0.9520631
-0.1967242 0.3242256 0.9520352
-0.1967289 0.3247195 0.9520097
-0.1967415 0.3252168 0.9519854
-0.1967518 0.3256891 0.9519683
-0.1964479 0.3404539 0.9513956
-0.1964289 0.3409407 0.9513569
-0.1964218 0.3414375 0.9513218
-0.1964138 0.3419356 0.9512872
-0.1964065 0.3424344 0.9512511
-0.1963898 0.3429544 0.9512138
-0.1963458 0.3434982 0.9511750
-0.1963394 0.3440374 0.9511355
-0.1963305 0.3446281 0.9510920
-0.1963183 0.3452078 0.9510501
-0.1963100 0.3458043 0.9510075
-0.1963014 0.3463342 0.9509744
-0.1961286 0.3173779 0.9527287
-0.1961171 0.3179450 0.9526509
-0.1960966 0.3185120 0.9525795
-0.1960348 0.3300747 0.9519069
-0.1961542 0.3508860 0.9506170
-0.1962326 0.3514670 0.9505788
-0.1962936 0.3520355 0.9505400
-0.1969076 0.3568158 0.9498963
-0.1954322 0.3344306 0.9518134
-0.1954472 0.3348017 0.9517951
-0.1960269 0.3192772 0.9524871
-0.1960179 0.3198363 0.9524239
-0.1960115 0.3204031 0.9523655
-0.1960455 0.3281025 0.9519489
-0.1960576 0.3286975 0.9519359
-0.1959457 0.3382465 0.9515570
-0.1959264 0.3388056 0.9515186
-0.1958210 0.3489073 0.9507425
-0.1958575 0.3495141 0.9507093
-0.1957462 0.3140501 0.9532230
-0.1957295 0.3146327 0.9531324
-0.1957067 0.3152125 0.9530461
-0.1953280 0.3330441 0.9518750
-0.1953460 0.3335267 0.9518586
-0.1953522 0.3339101 0.9518421
-0.1953878 0.3353162 0.9517704
-0.1954085 0.3358098 0.9517382
-0.1954077 0.3363069 0.9517100
-0.1969456 0.3538857 0.9504227
-0.1969842 0.3542299 0.9503772
-0.1970614 0.3545212 0.9503524
-0.1971062 0.3549293 0.9502858
-0.1960010 0.3210646 0.9523024
-0.1960076 0.3216148 0.9522510
-0.1960067 0.3221832 0.9522009
-0.1960681 0.3256744 0.9520076
-0.1960810 0.3262412 0.9519882
-0.1960997 0.3268085 0.9519754
-0.1958573 0.3396634 0.9514583
-0.1956940 0.3475747 0.9508433
-0.1955780 0.3160155 0.9529306
-0.1955645 0.3165953 0.9528489
-0.1953621 0.3313536 0.9519210
-0.1953774 0.3319280 0.9519064
-0.1953702 0.3371341 0.9516574
-0.1962245 0.3531026 0.9504018
-0.1966236 0.3552297 0.9501567
-0.1960672 0.3226944 0.9521565
-0.1960870 0.3231994 0.9521209
-0.1961151 0.3236948 0.9520897
-0.1961689 0.3241919 0.9520644
-0.1961776 0.3246811 0.9520414
-0.1957685 0.3404895 0.9514028
-0.1957547 0.3409750 0.9513631
-0.1957548 0.3414689 0.9513241
-0.1957462 0.3419682 0.9512893
-0.1957481 0.3424605 0.9512475
-0.1957382 0.3429780 0.9512084
-0.1957005 0.3435033 0.9511677
-0.1956919 0.3440402 0.9511231
-0.1956803 0.3446279 0.9510756
-0.1956624 0.3452043 0.9510347
-0.1956543 0.3458069 0.9509819
-0.1956413 0.3463401 0.9509419
-0.1954410 0.3173952 0.9527393
-0.1954353 0.3179646 0.9526622
-0.1954186 0.3185351 0.9525908
-0.1953761 0.3300049 0.9519509
-0.1955579 0.3514371 0.9505057
-0.1956295 0.3520060 0.9504583
-0.1960959 0.3558101 0.9499566
-0.1961849 0.3562578 0.9498753
-0.1946554 0.3336631 0.9518943
-0.1947428 0.3340329 0.9518734
-0.1947857 0.3344321 0.9518512
-0.1948124 0.3348137 0.9518310
-0.1953530 0.3192903 0.9525036
-0.1953499 0.3198515 0.9524413
-0.1953432 0.3204271 0.9523845
-0.1954182 0.3280377 0.9519911
-0.1954383 0.3286352 0.9519771
-0.1952709 0.3382933 0.9515792
-0.1952532 0.3388550 0.9515371
-0.1951451 0.3488939 0.9506950
-0.1951815 0.3495071 0.9506533
-0.1952120 0.3501089 0.9506047
-0.1956598 0.3569417 0.9496409
-0.1950782 0.3140629 0.9532202
-0.1950689 0.3146435 0.9531308
-0.1950498 0.3152251 0.9530472
-0.1946701 0.3329922 0.9519199
-0.1947185 0.3353519 0.9518041
-0.1947436 0.3358501 0.9517696
-0.1947455 0.3363547 0.9517387
-0.1953518 0.3210650 0.9523268
-0.1953634 0.3216211 0.9522758
-0.1953715 0.3221933 0.9522268
-0.1954715 0.3256304 0.9520452
-0.1954888 0.3261932 0.9520278
-0.1955107 0.3267607 0.9520151
-0.1951795 0.3397066 0.9514748
-0.1950219 0.3475696 0.9508051
-0.1951292 0.3577048 0.9493780
-0.1948970 0.3160324 0.9529360
-0.1948888 0.3166130 0.9528546
-0.1946824 0.3312761 0.9519689
-0.1947016 0.3318578 0.9519529
-0.1946982 0.3371838 0.9516857
-0.1955676 0.3530056 0.9503218
-0.1956943 0.3534201 0.9503013
-0.1957833 0.3538323 0.9502484
-0.1958275 0.3542825 0.9501951
-0.1958968 0.3547147 0.9501328
-0.1954733 0.3226658 0.9521852
-0.1955071 0.3231709 0.9521508
-0.1955454 0.3236664 0.9521234
-0.1956030 0.3241582 0.9520972
-0.1956191 0.3246455 0.9520744
-0.1950962 0.3405140 0.9514142
-0.1950874 0.3410004 0.9513745
-0.1950941 0.3414987 0.9513347
-0.1950811 0.3419998 0.9512929
-0.1950901 0.3424863 0.9512491
-0.1950851 0.3429992 0.9512034
-0.1950519 0.3435123 0.9511636
-0.1950380 0.3440415 0.9511191
-0.1950261 0.3446249 0.9510641
-0.1949971 0.3451965 0.9510205
-0.1949878 0.3457956 0.9509634
-0.1949707 0.3463380 0.9509175
-0.1947509 0.3174122 0.9527494
-0.1947525 0.3179837 0.9526731
-0.1947413 0.3185575 0.9526031
-0.1947193 0.3191492 0.9525399
-0.1947258 0.3299369 0.9519969
-0.1946395 0.3380312 0.9516215
-0.1946293 0.3385884 0.9515811
-0.1948858 0.3514039 0.9504371
-0.1949668 0.3519665 0.9503830
-0.1953774 0.3551964 0.9499476
-0.1954617 0.3556885 0.9498775
-0.1955546 0.3561315 0.9497963
-0.1940210 0.3336439 0.9519362
-0.1941002 0.3340272 0.9519148
-0.1941376 0.3344406 0.9518922
-0.1941742 0.3348359 0.9518688
-0.1946762 0.3198632 0.9524581
-0.1946752 0.3204424 0.9524024
-0.1946736 0.3210309 0.9523532
-0.1947728 0.3273762 0.9520484
-0.1947974 0.3279761 0.9520339
-0.1948176 0.3285752 0.9520200
-0.1945632 0.3394483 0.9515157
-0.1944697 0.3488772 0.9506513
-0.1945047 0.3494957 0.9506029
-0.1945334 0.3501039 0.9505509
-0.1950380 0.3568162 0.9495610
-0.1944082 0.3140725 0.9532135
-0.1944078 0.3146518 0.9531263
-0.1943947 0.3152357 0.9530473
-0.1939700 0.3318734 0.9520036
-0.1940045 0.3324178 0.9519839
-0.1940102 0.3329419 0.9519666
-0.1940542 0.3353872 0.9518419
-0.1940800 0.3358901 0.9518063
-0.1940814 0.3364017 0.9517703
-0.1947186 0.3216157 0.9523007
-0.1947421 0.3221880 0.9522546
-0.1947617 0.3227497 0.9522159
-0.1947832 0.3233061 0.9521814
-0.1948084 0.3238831 0.9521498
-0.1948872 0.3255812 0.9520847
-0.1949047 0.3261410 0.9520685
-0.1944851 0.3402842 0.9514491
-0.1944796 0.3408105 0.9514047
-0.1943465 0.3475627 0.9507695
-0.1945094 0.3575858 0.9492976
-0.1942139 0.3160450 0.9529356
-0.1942134 0.3166272 0.9528558
-0.1941963 0.3172118 0.9527792
-0.1939906 0.3306085 0.9520334
-0.1940286 0.3372320 0.9517165
-0.1949085 0.3528920 0.9502530
-0.1950274 0.3533249 0.9502194
-0.1951115 0.3537546 0.9501613
-0.1951539 0.3541857 0.9501089
-0.1952320 0.3545881 0.9500443
-0.1950345 0.3241129 0.9521290
-0.1950561 0.3246012 0.9521065
-0.1944244 0.3415211 0.9513468
-0.1944126 0.3420261 0.9512998
-0.1944255 0.3425121 0.9512538
-0.1944239 0.3430174 0.9512059
-0.1943991 0.3435228 0.9511604
-0.1943837 0.3440496 0.9511135
-0.1943675 0.3446229 0.9510544
-0.1943333 0.3451955 0.9510077
-0.1943218 0.3457931 0.9509453
-0.1943002 0.3463395 0.9508949
-0.1940632 0.3179919 0.9526819
-0.1940602 0.3185719 0.9526129
-0.1940421 0.3191714 0.9525502
-0.1940351 0.3286496 0.9520736
-0.1940645 0.3292633 0.9520585
-0.1939669 0.3380771 0.9516483
-0.1939591 0.3386354 0.9516038
-0.1941937 0.3513755 0.9503720
-0.1942863 0.3519319 0.9503109
-0.1947240 0.3550919 0.9498642
-0.1948062 0.3555670 0.9497946
-0.1949112 0.3559923 0.9497144
-0.1933671 0.3336061 0.9519831
-0.1934449 0.3340045 0.9519594
-0.1934812 0.3344353 0.9519347
-0.1935270 0.3348460 0.9519089
-0.1940015 0.3198695 0.9524725
-0.1940080 0.3204515 0.9524193
-0.1940109 0.3210444 0.9523740
-0.1941673 0.3273156 0.9520930
-0.1938888 0.3394912 0.9515373
-0.1937922 0.3488613 0.9506096
-0.1938253 0.3494838 0.9505565
-0.1938540 0.3501038 0.9504934
-0.1944121 0.3566885 0.9494851
-0.1937405 0.3140768 0.9532066
-0.1937458 0.3146581 0.9531212
-0.1937374 0.3152456 0.9530411
-0.1933040 0.3317865 0.9520544
-0.1933438 0.3323421 0.9520343
-0.1933572 0.3328881 0.9520146
-0.1934007 0.3354228 0.9518801
-0.1934252 0.3359306 0.9518438
-0.1934255 0.3364486 0.9518043
-0.1940723 0.3216020 0.9523246
-0.1941153 0.3221722 0.9522817
-0.1941493 0.3227219 0.9522451
-0.1941794 0.3232804 0.9522136
-0.1942142 0.3238459 0.9521859
-0.1942442 0.3244151 0.9521618
-0.1942793 0.3249858 0.9521401
-0.1943044 0.3255344 0.9521230
-0.1943270 0.3260934 0.9521082
-0.1937986 0.3403197 0.9514678
-0.1938001 0.3408476 0.9514202
-0.1937698 0.3425100 0.9512638
-0.1936913 0.3456792 0.9509435
-0.1936838 0.3462982 0.9508742
-0.1936756 0.3469161 0.9508168
-0.1936710 0.3475563 0.9507389
-0.1938842 0.3574633 0.9492154
-0.1935309 0.3160491 0.9529342
-0.1935365 0.3166374 0.9528570
-0.1933358 0.3305273 0.9520815
-0.1933616 0.3372796 0.9517479
-0.1943505 0.3532411 0.9501270
-0.1944273 0.3536746 0.9500766
-0.1937454 0.3415387 0.9513596
-0.1937335 0.3420496 0.9513103
-0.1937478 0.3430340 0.9512079
-0.1937367 0.3435322 0.9511606
-0.1937214 0.3440572 0.9511107
-0.1937039 0.3446211 0.9510489
-0.1933515 0.3174110 0.9527586
-0.1933714 0.3179924 0.9526870
-0.1933752 0.3185812 0.9526188
-0.1933595 0.3191895 0.9525587
-0.1934045 0.3285786 0.9521189
-0.1934327 0.3291961 0.9521047
-0.1932922 0.3381268 0.9516773
-0.1932863 0.3386859 0.9516278
-0.1935232 0.3513359 0.9503093
-0.1936156 0.3518851 0.9502446
-0.1936955 0.3524546 0.9501706
-0.1939185 0.3540401 0.9499449
-0.1939721 0.3545354 0.9498594
-0.1940531 0.3549819 0.9497817
-0.1927047 0.3331886 0.9520461
-0.1927277 0.3335731 0.9520288
-0.1928054 0.3339852 0.9520038
-0.1928388 0.3344316 0.9519768
-0.1928855 0.3348664 0.9519490
-0.1933307 0.3198583 0.9524846
-0.1933418 0.3204491 0.9524356
-0.1933538 0.3210455 0.9523926
-0.1935653 0.3272613 0.9521347
-0.1932132 0.3395344 0.9515599
-0.1931157 0.3488433 0.9505719
-0.1931461 0.3494720 0.9505083
-0.1931727 0.3501020 0.9504367
-0.1935818 0.3556107 0.9495847
-0.1936680 0.3560991 0.9494887
-0.1930746 0.3140744 0.9531950
-0.1930852 0.3146592 0.9531102
-0.1930783 0.3152555 0.9530301
-0.1926487 0.3317045 0.9521035
-0.1926892 0.3322714 0.9520836
-0.1927514 0.3354607 0.9519183
-0.1927710 0.3359756 0.9518809
-0.1927692 0.3365008 0.9518392
-0.1934424 0.3215637 0.9523492
-0.1934990 0.3221372 0.9523083
-0.1935454 0.3226833 0.9522752
-0.1935822 0.3232416 0.9522462
-0.1936195 0.3238067 0.9522188
-0.1936601 0.3243760 0.9521976
-0.1936962 0.3249459 0.9521771
-0.1937274 0.3254926 0.9521614
-0.1937480 0.3260509 0.9521461
-0.1931187 0.3403533 0.9514872
-0.1931226 0.3408837 0.9514364
-0.1931072 0.3425289 0.9512715
-0.1930197 0.3456670 0.9509329
-0.1930102 0.3462864 0.9508609
-0.1930009 0.3469071 0.9507944
-0.1929962 0.3475492 0.9507119
-0.1931630 0.3568577 0.9492322
-0.1926859 0.3304542 0.9521297
-0.1926941 0.3373295 0.9517802
-0.1930733 0.3415533 0.9513757
-0.1930657 0.3420710 0.9513210
-0.1930799 0.3430490 0.9512127
-0.1930799 0.3435409 0.9511626
-0.1930616 0.3440642 0.9511095
-0.1930410 0.3446200 0.9510457
-0.1926812 0.3576450 0.9489730
-0.1925825 0.3162299 0.9528982
-0.1926218 0.3168171 0.9528275
-0.1926564 0.3174009 0.9527595
-0.1926822 0.3179896 0.9526912
-0.1926913 0.3185858 0.9526244
-0.1926762 0.3192018 0.9525662
-0.1926524 0.3198335 0.9525004
-0.1926270 0.3204772 0.9524524
-0.1927467 0.3278928 0.9521773
-0.1927766 0.3285144 0.9521633
-0.1928000 0.3291339 0.9521507
-0.1926170 0.3381733 0.9517077
-0.1926129 0.3387330 0.9516557
-0.1928476 0.3512872 0.9502466
-0.1929393 0.3518323 0.9501833
-0.1930180 0.3523999 0.9500997
-0.1930909 0.3529294 0.9500225
-0.1931647 0.3534847 0.9499395
-0.1932376 0.3539542 0.9498599
-0.1932885 0.3544365 0.9497814
-0.1920692 0.3331316 0.9520928
-0.1920950 0.3335459 0.9520732
-0.1921713 0.3339717 0.9520469
-0.1921957 0.3344374 0.9520181
-0.1922422 0.3348894 0.9519878
-0.1927046 0.3210324 0.9524122
-0.1927167 0.3216439 0.9523699
-0.1927343 0.3222697 0.9523325
-0.1927541 0.3228985 0.9523008
-0.1927727 0.3235233 0.9522750
-0.1927997 0.3241488 0.9522506
-0.1928306 0.3247730 0.9522315
-0.1928644 0.3253949 0.9522165
-0.1928937 0.3260004 0.9522011
-0.1929271 0.3266093 0.9521868
-0.1925357 0.3395732 0.9515829
-0.1924373 0.3488219 0.9505440
-0.1924639 0.3494566 0.9504687
-0.1924889 0.3500957 0.9503815
-0.1928437 0.3550024 0.9495935
-0.1924141 0.3140650 0.9531774
-0.1924306 0.3146560 0.9530954
-0.1924259 0.3152608 0.9530156
-0.1920070 0.3316275 0.9521508
-0.1920444 0.3322037 0.9521314
-0.1921016 0.3354984 0.9519565
-0.1921146 0.3360206 0.9519172
-0.1921174 0.3365504 0.9518740
-0.1924365 0.3403857 0.9515069
-0.1924440 0.3409176 0.9514513
-0.1924435 0.3414466 0.9514018
-0.1924472 0.3419686 0.9513437
-0.1924409 0.3425475 0.9512800
-0.1924221 0.3431440 0.9512089
-0.1923483 0.3456550 0.9509244
-0.1923353 0.3462750 0.9508475
-0.1923261 0.3468951 0.9507771
-0.1923229 0.3475359 0.9506885
-0.1923653 0.3557210 0.9493711
-0.1924432 0.3562431 0.9492578
-0.1919825 0.3291473 0.9522066
-0.1920166 0.3297712 0.9521901
-0.1920417 0.3303889 0.9521765
-0.1920285 0.3373780 0.9518116
-0.1924208 0.3435511 0.9511636
-0.1923989 0.3440737 0.9511090
-0.1923754 0.3446197 0.9510432
-0.1919764 0.3570185 0.9490067
-0.1920537 0.3575353 0.9488992
-0.1918640 0.3162059 0.9528898
-0.1919104 0.3167944 0.9528234
-0.1919564 0.3173842 0.9527583
-0.1919902 0.3179791 0.9526936
-0.1920081 0.3185854 0.9526305
-0.1919986 0.3192148 0.9525730
-0.1919831 0.3198553 0.9525119
-0.1919648 0.3205061 0.9524669
-0.1921341 0.3278359 0.9522208
-0.1919393 0.3382192 0.9517354
-0.1919388 0.3387798 0.9516829
-0.1920880 0.3506593 0.9502707
-0.1921623 0.3512323 0.9501886
-0.1922612 0.3517732 0.9501180
-0.1923386 0.3523414 0.9500298
-0.1924281 0.3528558 0.9499547
-0.1924894 0.3534078 0.9498629
-0.1925615 0.3538796 0.9497730
-0.1926188 0.3543462 0.9497026
-0.1914362 0.3330790 0.9521384
-0.1914606 0.3335283 0.9521156
-0.1915325 0.3339664 0.9520887
-0.1915484 0.3344468 0.9520598
-0.1915988 0.3349116 0.9520261
-0.1920507 0.3210149 0.9524328
-0.1920799 0.3216205 0.9523936
-0.1921074 0.3222483 0.9523577
-0.1921318 0.3228759 0.9523292
-0.1921578 0.3235018 0.9523049
-0.1921935 0.3241158 0.9522810
-0.1922286 0.3247333 0.9522652
-0.1922662 0.3253534 0.9522509
-0.1922935 0.3259531 0.9522371
-0.1923262 0.3265607 0.9522245
-0.1918568 0.3396130 0.9516096
-0.1917627 0.3488042 0.9505094
-0.1917856 0.3494445 0.9504260
-0.1921803 0.3549054 0.9495194
-0.1917566 0.3140491 0.9531555
-0.1917767 0.3146480 0.9530770
-0.1913462 0.3315489 0.9521973
-0.1913832 0.3321382 0.9521779
-0.1914426 0.3355373 0.9519933
-0.1914493 0.3360682 0.9519519
-0.1914543 0.3366023 0.9519071
-0.1917515 0.3404183 0.9515282
-0.1917613 0.3409534 0.9514700
-0.1917644 0.3414791 0.9514182
-0.1917760 0.3419911 0.9513565
-0.1917713 0.3425659 0.9512910
-0.1917532 0.3431526 0.9512160
-0.1917335 0.3437639 0.9511462
-0.1917115 0.3443766 0.9510718
-0.1916865 0.3450041 0.9509979
-0.1916759 0.3456437 0.9509165
-0.1916579 0.3462665 0.9508348
-0.1916458 0.3468914 0.9507568
-0.1916387 0.3475341 0.9506640
-0.1917217 0.3556252 0.9492955
-0.1917941 0.3561357 0.9491844
-0.1914625 0.3154267 0.9529706
-0.1913564 0.3290749 0.9522483
-0.1913832 0.3297116 0.9522341
-0.1914014 0.3303413 0.9522216
-0.1913470 0.3569167 0.9489355
-0.1914170 0.3574286 0.9488232
-0.1911544 0.3161636 0.9528717
-0.1912034 0.3167522 0.9528081
-0.1912562 0.3173489 0.9527472
-0.1912903 0.3179537 0.9526835
-0.1913138 0.3185719 0.9526265
-0.1913161 0.3192129 0.9525739
-0.1913090 0.3198641 0.9525170
-0.1913011 0.3205184 0.9524729
-0.1915253 0.3277877 0.9522607
-0.1912609 0.3376914 0.9518204
-0.1912641 0.3382579 0.9517655
-0.1912621 0.3388248 0.9517108
-0.1914084 0.3506018 0.9502238
-0.1914818 0.3511730 0.9501411
-0.1915735 0.3517098 0.9500616
-0.1916429 0.3522774 0.9499638
-0.1917399 0.3527735 0.9498896
-0.1917777 0.3533256 0.9497877
-0.1918415 0.3538077 0.9496954
-0.1919073 0.3542512 0.9496244
-0.1907936 0.3330121 0.9521816
-0.1908095 0.3334991 0.9521556
-0.1908664 0.3339617 0.9521287
-0.1908865 0.3344527 0.9520975
-0.1909259 0.3349380 0.9520655
-0.1913874 0.3209706 0.9524456
-0.1914385 0.3215782 0.9524114
-0.1914776 0.3222140 0.9523787
-0.1915073 0.3228357 0.9523524
-0.1915429 0.3234637 0.9523319
-0.1915887 0.3240741 0.9523106
-0.1916326 0.3246847 0.9522964
-0.1916756 0.3253098 0.9522833
-0.1917034 0.3259107 0.9522712
-0.1917348 0.3265251 0.9522603
-0.1911833 0.3396440 0.9516328
-0.1910882 0.3487842 0.9504815
-0.1911100 0.3494280 0.9503872
-0.1914964 0.3548055 0.9494500
-0.1911017 0.3140274 0.9531274
-0.1911228 0.3146359 0.9530539
-0.1905664 0.3296623 0.9522856
-0.1906180 0.3302815 0.9522700
-0.1906603 0.3308903 0.9522555
-0.1906962 0.3314921 0.9522393
-0.1907249 0.3320976 0.9522203
-0.1907779 0.3355773 0.9520286
-0.1910886 0.3404360 0.9515487
-0.1911013 0.3409771 0.9514888
-0.1911030 0.3415042 0.9514336
-0.1911133 0.3420108 0.9513702
-0.1911077 0.3425804 0.9513021
-0.1910895 0.3431622 0.9512229
-0.1910707 0.3437621 0.9511504
-0.1910453 0.3443695 0.9510740
-0.1910173 0.3449968 0.9509942
-0.1910064 0.3456379 0.9509091
-0.1909830 0.3462579 0.9508213
-0.1909696 0.3468890 0.9507359
-0.1909604 0.3475343 0.9506390
-0.1910696 0.3555321 0.9492283
-0.1911329 0.3560344 0.9491133
-0.1906998 0.3283852 0.9522982
-0.1906845 0.3363375 0.9519726
-0.1906847 0.3369110 0.9519221
-0.1907069 0.3568244 0.9488654
-0.1907664 0.3573341 0.9487507
-0.1903982 0.3155462 0.9529040
-0.1904575 0.3161173 0.9528466
-0.1905081 0.3167095 0.9527905
-0.1905609 0.3173102 0.9527276
-0.1905928 0.3179261 0.9526702
-0.1906222 0.3185532 0.9526192
-0.1906317 0.3192018 0.9525739
-0.1906281 0.3198599 0.9525181
-0.1906305 0.3205171 0.9524799
-0.1906315 0.3211857 0.9524515
-0.1906403 0.3218466 0.9524196
-0.1906487 0.3225165 0.9523971
-0.1906689 0.3231876 0.9523709
-0.1906999 0.3238557 0.9523539
-0.1907379 0.3245171 0.9523428
-0.1907777 0.3251741 0.9523333
-0.1908098 0.3258269 0.9523229
-0.1908458 0.3264672 0.9523155
-0.1908819 0.3271124 0.9523045
-0.1905842 0.3377225 0.9518503
-0.1905878 0.3382939 0.9517933
-0.1905852 0.3388656 0.9517347
-0.1907314 0.3505456 0.9501850
-0.1908021 0.3511126 0.9500989
-0.1908979 0.3516515 0.9500115
-0.1909646 0.3522053 0.9499149
-0.1910582 0.3526862 0.9498235
-0.1910748 0.3532398 0.9497249
-0.1900309 0.3319234 0.9522656
-0.1900865 0.3324686 0.9522450
-0.1901311 0.3329693 0.9522224
-0.1901520 0.3334860 0.9521946
-0.1901950 0.3339712 0.9521654
-0.1902180 0.3344703 0.9521345
-0.1902497 0.3349680 0.9521014
-0.1905077 0.3396714 0.9516549
-0.1905033 0.3402268 0.9515931
-0.1904934 0.3408017 0.9515296
-0.1903658 0.3467846 0.9507358
-0.1903741 0.3474487 0.9506358
-0.1903881 0.3481102 0.9505366
-0.1904092 0.3487666 0.9504474
-0.1904320 0.3494135 0.9503454
-0.1906992 0.3537172 0.9495789
-0.1907535 0.3542316 0.9494811
-0.1908151 0.3547173 0.9493852
-0.1904528 0.3140024 0.9530918
-0.1904711 0.3146231 0.9530206
-0.1897232 0.3269914 0.9523619
-0.1897784 0.3276562 0.9523565
-0.1898387 0.3283154 0.9523468
-0.1898959 0.3289610 0.9523339
-0.1899491 0.3295889 0.9523236
-0.1899955 0.3302105 0.9523109
-0.1900303 0.3308287 0.9522952
-0.1901125 0.3356178 0.9520632
-0.1904352 0.3415247 0.9514461
-0.1904450 0.3420286 0.9513831
-0.1904366 0.3425930 0.9513123
-0.1904197 0.3431707 0.9512308
-0.1904013 0.3437595 0.9511559
-0.1903745 0.3443647 0.9510759
-0.1903441 0.3449909 0.9509924
-0.1903313 0.3456289 0.9509045
-0.1904054 0.3554472 0.9491599
-0.1904609 0.3559462 0.9490466
-0.1898843 0.3250340 0.9523686
-0.1899211 0.3257071 0.9523612
-0.1900127 0.3363684 0.9520038
-0.1900114 0.3369489 0.9519526
-0.1900087 0.3375209 0.9519003
-0.1900539 0.3567398 0.9487926
-0.1897042 0.3154953 0.9528725
-0.1897605 0.3160722 0.9528183
-0.1898116 0.3166667 0.9527649
-0.1898633 0.3172724 0.9527141
-0.1898950 0.3178973 0.9526526
-0.1899266 0.3185331 0.9526088
-0.1899431 0.3191881 0.9525707
-0.1899471 0.3198485 0.9525169
-0.1899574 0.3205085 0.9524839
-0.1899695 0.3211749 0.9524608
-0.1899885 0.3218362 0.9524333
-0.1900095 0.3225031 0.9524134
-0.1900409 0.3231658 0.9523901
-0.1900796 0.3238248 0.9523759
-0.1899155 0.3383260 0.9518186
-0.1899104 0.3389031 0.9517589
-0.1898988 0.3394866 0.9516979
-0.1900610 0.3504983 0.9501381
-0.1901288 0.3510652 0.9500456
-0.1902173 0.3516054 0.9499551
-0.1902903 0.3521471 0.9498565
-0.1903789 0.3526267 0.9497630
-0.1903965 0.3531728 0.9496625
-0.1893973 0.3318481 0.9523057
-0.1894402 0.3324059 0.9522847
-0.1894815 0.3329317 0.9522600
-0.1894970 0.3334770 0.9522304
-0.1895192 0.3339868 0.9521999
-0.1896606 0.3575627 0.9485328
-0.1897149 0.3580668 0.9484143
-0.1898315 0.3402534 0.9516112
-0.1898212 0.3408305 0.9515450
-0.1896930 0.3467620 0.9507210
-0.1897003 0.3474272 0.9506172
-0.1897126 0.3480888 0.9505126
-0.1897318 0.3487479 0.9504134
-0.1897534 0.3493979 0.9503067
-0.1900185 0.3536468 0.9495165
-0.1900711 0.3541523 0.9494149
-0.1901267 0.3546343 0.9493103
-0.1891386 0.3269476 0.9523872
-0.1891920 0.3276076 0.9523832
-0.1892457 0.3282594 0.9523748
-0.1892947 0.3289000 0.9523657
-0.1893360 0.3295285 0.9523572
-0.1893740 0.3301583 0.9523471
-0.1894020 0.3307842 0.9523322
-0.1894521 0.3345292 0.9521713
-0.1894462 0.3351064 0.9521346
-0.1894451 0.3356597 0.9520937
-0.1893476 0.3588797 0.9481526
-0.1897693 0.3415439 0.9514564
-0.1897787 0.3420460 0.9513946
-0.1897668 0.3426060 0.9513213
-0.1897514 0.3431786 0.9512379
-0.1897300 0.3437581 0.9511606
-0.1896993 0.3443627 0.9510764
-0.1896696 0.3449907 0.9509874
-0.1896534 0.3456271 0.9508959
-0.1897285 0.3553622 0.9490901
-0.1897758 0.3558578 0.9489734
-0.1894111 0.3147307 0.9529433
-0.1892863 0.3250163 0.9523898
-0.1893246 0.3256792 0.9523832
-0.1893424 0.3363973 0.9520319
-0.1893376 0.3369856 0.9519791
-0.1893333 0.3375654 0.9519253
-0.1893904 0.3566578 0.9487201
-0.1890207 0.3154382 0.9528339
-0.1890713 0.3160193 0.9527819
-0.1891202 0.3166180 0.9527322
-0.1891688 0.3172312 0.9526875
-0.1891998 0.3178690 0.9526275
-0.1892282 0.3185111 0.9525862
-0.1892478 0.3191679 0.9525537
-0.1892595 0.3198292 0.9525078
-0.1892759 0.3204906 0.9524785
-0.1892975 0.3211525 0.9524594
-0.1893247 0.3218140 0.9524375
-0.1893580 0.3224764 0.9524194
-0.1893975 0.3231311 0.9524063
-0.1894435 0.3237819 0.9523912
-0.1892461 0.3383529 0.9518434
-0.1892380 0.3389361 0.9517805
-0.1892237 0.3395231 0.9517141
-0.1893754 0.3504476 0.9500968
-0.1894364 0.3510131 0.9499968
-0.1895149 0.3515560 0.9498972
-0.1895875 0.3520831 0.9497999
-0.1896675 0.3525628 0.9497018
-0.1896815 0.3530995 0.9495985
-0.1885450 0.3294204 0.9523923
-0.1886018 0.3300057 0.9523840
-0.1886566 0.3306157 0.9523721
-0.1887193 0.3312156 0.9523573
-0.1887716 0.3317834 0.9523404
-0.1888053 0.3323511 0.9523197
-0.1888302 0.3329070 0.9522945
-0.1888398 0.3334729 0.9522628
-0.1888479 0.3340006 0.9522309
-0.1890216 0.3574815 0.9484649
-0.1890670 0.3579855 0.9483426
-0.1891656 0.3402744 0.9516286
-0.1891527 0.3408555 0.9515571
-0.1890196 0.3467398 0.9507079
-0.1890261 0.3474064 0.9505992
-0.1890361 0.3480692 0.9504901
-0.1890529 0.3487292 0.9503830
-0.1890742 0.3493802 0.9502697
-0.1893226 0.3535783 0.9494544
-0.1893679 0.3540697 0.9493509
-0.1884809 0.3255790 0.9524127
-0.1885109 0.3262454 0.9524145
-0.1885567 0.3269092 0.9524099
-0.1886043 0.3275658 0.9524069
-0.1886517 0.3282114 0.9524005
-0.1887865 0.3345507 0.9522007
-0.1887794 0.3351372 0.9521606
-0.1887714 0.3357034 0.9521220
-0.1887172 0.3588036 0.9480832
-0.1891234 0.3415571 0.9514677
-0.1891277 0.3420598 0.9514047
-0.1891094 0.3426186 0.9513287
-0.1890904 0.3431871 0.9512437
-0.1890647 0.3437621 0.9511625
-0.1890324 0.3443675 0.9510753
-0.1889987 0.3449954 0.9509810
-0.1889748 0.3456301 0.9508850
-0.1890018 0.3547758 0.9491400
-0.1885913 0.3229679 0.9524166
-0.1886136 0.3236473 0.9524112
-0.1886456 0.3243221 0.9524068
-0.1886785 0.3364229 0.9520580
-0.1886668 0.3370188 0.9520036
-0.1886561 0.3376060 0.9519474
-0.1886446 0.3555626 0.9488998
-0.1886833 0.3560709 0.9487748
-0.1887151 0.3565832 0.9486502
-0.1882958 0.3148074 0.9528472
-0.1883473 0.3153862 0.9527941
-0.1883936 0.3159742 0.9527421
-0.1884380 0.3165776 0.9526946
-0.1884798 0.3171992 0.9526469
-0.1885089 0.3178454 0.9525963
-0.1885335 0.3184924 0.9525571
-0.1885532 0.3191494 0.9525259
-0.1885706 0.3198087 0.9524956
-0.1885907 0.3204676 0.9524686
-0.1886200 0.3211243 0.9524536
-0.1886540 0.3217832 0.9524371
-0.1885791 0.3383729 0.9518657
-0.1885678 0.3389620 0.9517997
-0.1885510 0.3395543 0.9517305
-0.1887454 0.3509658 0.9499512
-0.1888079 0.3515102 0.9498458
-0.1888754 0.3520207 0.9497420
-0.1889439 0.3525009 0.9496456
-0.1879559 0.3293608 0.9524149
-0.1880014 0.3299512 0.9524081
-0.1880474 0.3305551 0.9524000
-0.1881031 0.3311581 0.9523862
-0.1881399 0.3317416 0.9523698
-0.1881719 0.3323163 0.9523488
-0.1881816 0.3328922 0.9523230
-0.1881904 0.3334632 0.9522917
-0.1881878 0.3340111 0.9522584
-0.1883757 0.3574078 0.9483972
-0.1884082 0.3579132 0.9482710
-0.1885028 0.3402887 0.9516445
-0.1884890 0.3408751 0.9515698
-0.1884704 0.3414676 0.9514941
-0.1884462 0.3420746 0.9514131
-0.1884185 0.3427024 0.9513241
-0.1883867 0.3433523 0.9512264
-0.1883471 0.3467171 0.9506932
-0.1883522 0.3473857 0.9505796
-0.1883620 0.3480483 0.9504666
-0.1883770 0.3487103 0.9503532
-0.1883962 0.3493630 0.9502337
-0.1884168 0.3500110 0.9501165
-0.1885896 0.3529964 0.9495120
-0.1886271 0.3535127 0.9493978
-0.1886617 0.3539978 0.9492858
-0.1878758 0.3249084 0.9524187
-0.1879053 0.3255673 0.9524214
-0.1879380 0.3262250 0.9524242
-0.1879773 0.3268748 0.9524253
-0.1880182 0.3275258 0.9524255
-0.1880533 0.3281728 0.9524228
-0.1881225 0.3345674 0.9522267
-0.1881144 0.3351611 0.9521856
-0.1881033 0.3357378 0.9521433
-0.1880864 0.3587350 0.9480130
-0.1883969 0.3437736 0.9511626
-0.1883624 0.3443775 0.9510718
-0.1883255 0.3450037 0.9509729
-0.1882955 0.3456360 0.9508727
-0.1883158 0.3547148 0.9490750
-0.1879584 0.3209218 0.9524380
-0.1879395 0.3216135 0.9524267
-0.1879469 0.3222893 0.9524261
-0.1879641 0.3229637 0.9524194
-0.1879923 0.3236318 0.9524185
-0.1880155 0.3364437 0.9520805
-0.1879989 0.3370469 0.9520244
-0.1879830 0.3376406 0.9519658
-0.1879844 0.3555029 0.9488365
-0.1880105 0.3560094 0.9487096
-0.1876302 0.3147400 0.9527958
-0.1876770 0.3153257 0.9527453
-0.1877166 0.3159263 0.9526952
-0.1877588 0.3165401 0.9526512
-0.1877961 0.3171736 0.9526055
-0.1878213 0.3178265 0.9525598
-0.1878409 0.3184790 0.9525176
-0.1878579 0.3191376 0.9524922
-0.1878777 0.3197930 0.9524727
-0.1879132 0.3383890 0.9518843
-0.1878996 0.3389838 0.9518158
-0.1878812 0.3395805 0.9517446
-0.1880603 0.3509178 0.9499099
-0.1881076 0.3514628 0.9498008
-0.1881658 0.3519719 0.9496909
-0.1882283 0.3524480 0.9495921
-0.1873789 0.3293149 0.9524346
-0.1874173 0.3299111 0.9524283
-0.1874549 0.3305142 0.9524208
-0.1874966 0.3311213 0.9524100
-0.1875263 0.3317068 0.9523928
-0.1875475 0.3322953 0.9523706
-0.1875469 0.3328815 0.9523454
-0.1875560 0.3334587 0.9523142
-0.1875412 0.3340247 0.9522799
-0.1876952 0.3568339 0.9484592
-0.1877187 0.3573451 0.9483285
-0.1877408 0.3578500 0.9481990
-0.1878378 0.3402985 0.9516583
-0.1878238 0.3408906 0.9515805
-0.1878047 0.3414849 0.9514989
-0.1877800 0.3420900 0.9514180
-0.1877515 0.3427138 0.9513264
-0.1877217 0.3433546 0.9512272
-0.1876698 0.3460271 0.9507920
-0.1876718 0.3466977 0.9506778
-0.1876758 0.3473671 0.9505598
-0.1876852 0.3480302 0.9504404
-0.1876992 0.3486934 0.9503197
-0.1877178 0.3493466 0.9501950
-0.1877380 0.3499949 0.9500741
-0.1878998 0.3529522 0.9494538
-0.1879309 0.3534611 0.9493391
-0.1879617 0.3539430 0.9492239
-0.1873035 0.3249126 0.9524218
-0.1873250 0.3255620 0.9524277
-0.1873537 0.3262109 0.9524314
-0.1873856 0.3268553 0.9524347
-0.1874124 0.3275039 0.9524377
-0.1874392 0.3281500 0.9524393
-0.1874608 0.3345815 0.9522475
-0.1874551 0.3351835 0.9522057
-0.1874380 0.3357699 0.9521614
-0.1877194 0.3437888 0.9511599
-0.1876831 0.3443898 0.9510659
-0.1876471 0.3450148 0.9509624
-0.1876268 0.3546622 0.9490129
-0.1873251 0.3209555 0.9524178
-0.1873092 0.3216331 0.9524114
-0.1873098 0.3222995 0.9524149
-0.1873269 0.3229661 0.9524127
-0.1873522 0.3236241 0.9524163
-0.1873527 0.3364565 0.9520997
-0.1873342 0.3370672 0.9520407
-0.1873153 0.3376691 0.9519795
-0.1871557 0.3589766 0.9478253
-0.1873153 0.3554507 0.9487708
-0.1873338 0.3559560 0.9486408
-0.1869629 0.3146691 0.9527405
-0.1871407 0.3178108 0.9525206
-0.1871559 0.3184678 0.9524805
-0.1871702 0.3191268 0.9524581
-0.1871853 0.3197756 0.9524383
-0.1872507 0.3383982 0.9519001
-0.1872347 0.3390015 0.9518292
-0.1872144 0.3396034 0.9517571
-0.1873921 0.3508755 0.9498675
-0.1866788 0.3261794 0.9524336
-0.1866960 0.3268120 0.9524394
-0.1867196 0.3274292 0.9524461
-0.1867516 0.3280305 0.9524519
-0.1867887 0.3286542 0.9524502
-0.1868184 0.3292614 0.9524506
-0.1868474 0.3298649 0.9524435
-0.1868696 0.3304728 0.9524387
-0.1868958 0.3310822 0.9524284
-0.1869085 0.3316783 0.9524126
-0.1869173 0.3322800 0.9523907
-0.1869139 0.3328702 0.9523644
-0.1869143 0.3334611 0.9523317
-0.1868958 0.3340443 0.9522967
-0.1870354 0.3567783 0.9483937
-0.1870548 0.3572890 0.9482601
-0.1870692 0.3577955 0.9481271
-0.1865165 0.3152931 0.9526431
-0.1865674 0.3158648 0.9525997
-0.1866179 0.3164102 0.9525673
-0.1866773 0.3169810 0.9525378
-0.1871727 0.3403028 0.9516693
-0.1871580 0.3409031 0.9515885
-0.1871392 0.3415010 0.9515031
-0.1871137 0.3421053 0.9514205
-0.1870841 0.3427253 0.9513250
-0.1870545 0.3433589 0.9512237
-0.1869956 0.3460103 0.9507793
-0.1869963 0.3466811 0.9506607
-0.1869996 0.3473502 0.9505388
-0.1870073 0.3480154 0.9504151
-0.1870207 0.3486815 0.9502885
-0.1870379 0.3493345 0.9501562
-0.1870578 0.3499815 0.9500308
-0.1871163 0.3512399 0.9497678
-0.1871503 0.3518288 0.9496366
-0.1871876 0.3523908 0.9495116
-0.1872204 0.3529148 0.9493956
-0.1866993 0.3236141 0.9524061
-0.1867055 0.3242805 0.9524132
-0.1867161 0.3249262 0.9524189
-0.1868028 0.3345928 0.9522659
-0.1867915 0.3352028 0.9522226
-0.1867718 0.3357998 0.9521775
-0.1867492 0.3363916 0.9521264
-0.1867267 0.3369798 0.9520668
-0.1870406 0.3438108 0.9511523
-0.1870001 0.3444107 0.9510560
-0.1869630 0.3450338 0.9509486
-0.1868947 0.3535659 0.9492055
-0.1869206 0.3541018 0.9490768
-0.1869410 0.3546125 0.9489507
-0.1866745 0.3209875 0.9523923
-0.1866630 0.3216541 0.9523985
-0.1866603 0.3223145 0.9523981
-0.1866483 0.3376925 0.9519908
-0.1865319 0.3589180 0.9477596
-0.1861772 0.3285027 0.9524592
-0.1862257 0.3290906 0.9524611
-0.1862653 0.3296646 0.9524566
-0.1862930 0.3302174 0.9524514
-0.1866403 0.3553998 0.9487080
-0.1866539 0.3559062 0.9485748
-0.1863060 0.3146000 0.9526714
-0.1864626 0.3177982 0.9524698
-0.1864727 0.3184635 0.9524339
-0.1864819 0.3191246 0.9524155
-0.1864907 0.3197695 0.9523995
-0.1865909 0.3384025 0.9519122
-0.1865729 0.3390127 0.9518392
-0.1865498 0.3396202 0.9517650
-0.1865210 0.3402330 0.9516855
-0.1864873 0.3408567 0.9516006
-0.1867267 0.3508393 0.9498261
-0.1861420 0.3255804 0.9524235
-0.1861397 0.3261799 0.9524321
-0.1861542 0.3267970 0.9524401
-0.1861699 0.3274072 0.9524518
-0.1862786 0.3304465 0.9524507
-0.1862927 0.3310619 0.9524388
-0.1862909 0.3316685 0.9524254
-0.1862940 0.3322707 0.9524044
-0.1862815 0.3328640 0.9523797
-0.1862771 0.3334614 0.9523462
-0.1862556 0.3340583 0.9523113
-0.1863722 0.3567254 0.9483283
-0.1863858 0.3572379 0.9481921
-0.1863923 0.3577466 0.9480569
-0.1858419 0.3152132 0.9525774
-0.1858921 0.3157908 0.9525393
-0.1859381 0.3163471 0.9525098
-0.1859942 0.3169246 0.9524826
-0.1864768 0.3415161 0.9515036
-0.1864495 0.3421188 0.9514171
-0.1864166 0.3427371 0.9513201
-0.1863856 0.3433656 0.9512179
-0.1863598 0.3440086 0.9511132
-0.1863386 0.3446623 0.9510020
-0.1863255 0.3453268 0.9508864
-0.1863202 0.3459955 0.9507654
-0.1863202 0.3466645 0.9506402
-0.1863235 0.3473331 0.9505175
-0.1863309 0.3479977 0.9503879
-0.1863451 0.3486652 0.9502564
-0.1863626 0.3493191 0.9501192
-0.1863828 0.3499658 0.9499900
-0.1864410 0.3512162 0.9497199
-0.1864713 0.3518039 0.9495848
-0.1865059 0.3523629 0.9494560
-0.1865297 0.3528764 0.9493372
-0.1861091 0.3236403 0.9523900
-0.1861135 0.3242968 0.9524011
-0.1861416 0.3346002 0.9522789
-0.1861304 0.3352182 0.9522333
-0.1861097 0.3358246 0.9521808
-0.1860863 0.3364231 0.9521280
-0.1860579 0.3370199 0.9520722
-0.1862123 0.3535312 0.9491469
-0.1862317 0.3540601 0.9490163
-0.1862467 0.3545681 0.9488843
-0.1860302 0.3210123 0.9523641
-0.1860176 0.3216741 0.9523745
-0.1860109 0.3223283 0.9523762
-0.1859840 0.3377117 0.9519975
-0.1859547 0.3383230 0.9519284
-0.1859212 0.3389372 0.9518555
-0.1858993 0.3588639 0.9476923
-0.1856791 0.3284638 0.9524548
-0.1857078 0.3290435 0.9524570
-0.1857425 0.3296119 0.9524540
-0.1857571 0.3301798 0.9524484
-0.1859632 0.3553543 0.9486467
-0.1859713 0.3558622 0.9485104
-0.1856521 0.3145327 0.9526011
-0.1857888 0.3177918 0.9524162
-0.1857943 0.3184633 0.9523861
-0.1858003 0.3191270 0.9523711
-0.1858016 0.3197692 0.9523600
-0.1858846 0.3396354 0.9517688
-0.1858560 0.3402499 0.9516867
-0.1858239 0.3408727 0.9516005
-0.1860602 0.3508057 0.9497832
-0.1856187 0.3255955 0.9524141
-0.1856100 0.3261853 0.9524261
-0.1856148 0.3267956 0.9524343
-0.1856210 0.3274013 0.9524448
