-0.0261092 0.2872445 0.9514470
-0.0261577 0.2877954 0.9514079
-0.0257791 0.2847967 0.9516177
-0.0260076 0.2884031 0.9512949
-0.0260462 0.2890112 0.9512509
-0.0255842 0.2829928 0.9517969
-0.0256215 0.2836332 0.9517213
-0.0258173 0.2896977 0.9511135
-0.0258412 0.2903433 0.9510652
-0.0258697 0.2909950 0.9510226
-0.0255610 0.2916387 0.9508643
-0.0255678 0.2922771 0.9508152
-0.0255814 0.2929224 0.9507701
-0.0255970 0.2935731 0.9507277
-0.0256165 0.2942420 0.9506850
-0.0256379 0.2949170 0.9506437
-0.0256591 0.2955963 0.9506036
-0.0256797 0.2962763 0.9505629
-0.0256990 0.2969561 0.9505228
-0.0257175 0.2976353 0.9504833
-0.0257360 0.2983133 0.9504408
-0.0257538 0.2989936 0.9503994
-0.0257740 0.2996743 0.9503573
-0.0257944 0.3003521 0.9503135
-0.0258147 0.3010277 0.9502692
-0.0258357 0.3017004 0.9502215
-0.0258567 0.3023697 0.9501724
-0.0258803 0.3030363 0.9501187
-0.0259027 0.3036964 0.9500638
-0.0254722 0.3042013 0.9498713
-0.0255099 0.3048763 0.9498123
-0.0255480 0.3055436 0.9497520
-0.0255832 0.3062035 0.9496859
-0.0256172 0.3068563 0.9496167
-0.0256485 0.3075026 0.9495424
-0.0256765 0.3081481 0.9494633
-0.0257010 0.3087965 0.9493775
-0.0254139 0.3093627 0.9491965
-0.0254450 0.3100066 0.9491056
-0.0254720 0.3106556 0.9490060
-0.0255008 0.3113058 0.9489026
-0.0255321 0.3119561 0.9487935
-0.0255683 0.3126092 0.9486838
-0.0256105 0.3132645 0.9485699
-0.0253023 0.3137836 0.9483615
-0.0253373 0.3144317 0.9482408
-0.0253780 0.3150840 0.9481165
-0.0254269 0.3157384 0.9479922
-0.0254827 0.3163890 0.9478696
-0.0255442 0.3170365 0.9477477
-0.0256106 0.3176819 0.9476268
-0.0256807 0.3183259 0.9475055
-0.0252735 0.3188650 0.9472365
-0.0253395 0.3195090 0.9471112
-0.0254099 0.3201530 0.9469870
-0.0249850 0.3206890 0.9467132
-0.0250574 0.3213369 0.9465891
-0.0251297 0.3219828 0.9464669
-0.0252025 0.3226280 0.9463468
-0.0252720 0.3232692 0.9462287
-0.0253377 0.3239086 0.9461118
-0.0253976 0.3245489 0.9459963
-0.0250096 0.3251028 0.9457405
-0.0250784 0.3257482 0.9456319
-0.0251369 0.3263882 0.9455253
-0.0251881 0.3270246 0.9454190
-0.0252319 0.3276616 0.9453144
-0.0253938 0.2857278 0.9513741
-0.0254430 0.2861998 0.9513350
-0.0254867 0.2866634 0.9512964
-0.0255220 0.2871769 0.9512544
-0.0251697 0.2848099 0.9514056
-0.0253669 0.2877271 0.9511455
-0.0254115 0.2883222 0.9511034
-0.0254542 0.2889147 0.9510611
-0.0255013 0.2895452 0.9510197
-0.0249459 0.2830258 0.9515715
-0.0249831 0.2836609 0.9514946
-0.0252404 0.2902515 0.9508661
-0.0252739 0.2908994 0.9508254
-0.0249517 0.2915689 0.9506588
-0.0249706 0.2922106 0.9506147
-0.0249929 0.2928651 0.9505724
-0.0250196 0.2935348 0.9505321
-0.0250471 0.2942168 0.9504904
-0.0250757 0.2949110 0.9504509
-0.0251007 0.2956054 0.9504119
-0.0251278 0.2962970 0.9503730
-0.0251506 0.2969835 0.9503324
-0.0251731 0.2976663 0.9502913
-0.0251937 0.2983456 0.9502504
-0.0252130 0.2990207 0.9502093
-0.0252301 0.2996916 0.9501674
-0.0252467 0.3003629 0.9501239
-0.0252633 0.3010313 0.9500789
-0.0252787 0.3016962 0.9500317
-0.0252962 0.3023558 0.9499824
-0.0253121 0.3030170 0.9499294
-0.0253249 0.3036745 0.9498722
-0.0249049 0.3041486 0.9496854
-0.0249360 0.3048203 0.9496263
-0.0249646 0.3054850 0.9495639
-0.0249916 0.3061432 0.9494968
-0.0250168 0.3067974 0.9494250
-0.0250405 0.3074480 0.9493480
-0.0250615 0.3080995 0.9492656
-0.0250787 0.3087543 0.9491765
-0.0247997 0.3093035 0.9490041
-0.0248280 0.3099530 0.9489109
-0.0248541 0.3106068 0.9488101
-0.0248824 0.3112584 0.9487051
-0.0249136 0.3119079 0.9485984
-0.0249508 0.3125587 0.9484872
-0.0249971 0.3132106 0.9483740
-0.0246963 0.3137478 0.9481649
-0.0247344 0.3143950 0.9480438
-0.0247804 0.3150448 0.9479212
-0.0248349 0.3156916 0.9478002
-0.0248960 0.3163350 0.9476793
-0.0249628 0.3169749 0.9475586
-0.0250349 0.3176158 0.9474384
-0.0251090 0.3182569 0.9473181
-0.0247026 0.3188140 0.9470471
-0.0247724 0.3194541 0.9469233
-0.0248468 0.3200984 0.9468003
-0.0244224 0.3206401 0.9465225
-0.0244951 0.3212830 0.9463995
-0.0245670 0.3219248 0.9462780
-0.0246372 0.3225675 0.9461577
-0.0247039 0.3232102 0.9460380
-0.0247657 0.3238514 0.9459189
-0.0248211 0.3244959 0.9458008
-0.0244321 0.3250322 0.9455470
-0.0244948 0.3256770 0.9454364
-0.0245468 0.3263188 0.9453272
-0.0245908 0.3269595 0.9452196
-0.0246283 0.3276003 0.9451130
-0.0248149 0.2856970 0.9511772
-0.0248578 0.2861575 0.9511375
-0.0249028 0.2866039 0.9511013
-0.0249417 0.2871021 0.9510639
-0.0245652 0.2848093 0.9511914
-0.0247827 0.2876506 0.9509501
-0.0243139 0.2830595 0.9513407
-0.0243513 0.2836876 0.9512651
-0.0245572 0.2882738 0.9508085
-0.0245887 0.2889043 0.9507592
-0.0246149 0.2895220 0.9507112
-0.0243063 0.2902467 0.9505400
-0.0243272 0.2908529 0.9504963
-0.0243571 0.2914806 0.9504515
-0.0243897 0.2921263 0.9504105
-0.0244248 0.2927902 0.9503717
-0.0239925 0.2933701 0.9501715
-0.0240118 0.2940058 0.9501312
-0.0240311 0.2946541 0.9500912
-0.0240525 0.2953154 0.9500531
-0.0240721 0.2959839 0.9500146
-0.0240922 0.2966565 0.9499758
-0.0241113 0.2973303 0.9499360
-0.0241300 0.2980064 0.9498966
-0.0241489 0.2986834 0.9498573
-0.0241685 0.2993659 0.9498179
-0.0241893 0.3000478 0.9497764
-0.0242096 0.3007303 0.9497351
-0.0242307 0.3014120 0.9496929
-0.0242525 0.3020919 0.9496478
-0.0242753 0.3027709 0.9495994
-0.0242993 0.3034446 0.9495480
-0.0243232 0.3041163 0.9494928
-0.0243480 0.3047830 0.9494330
-0.0243708 0.3054456 0.9493693
-0.0243918 0.3061011 0.9493002
-0.0244118 0.3067555 0.9492272
-0.0244290 0.3074075 0.9491490
-0.0241206 0.3079484 0.9489739
-0.0241533 0.3086021 0.9488919
-0.0241816 0.3092538 0.9488068
-0.0242062 0.3099075 0.9487117
-0.0242318 0.3105600 0.9486113
-0.0239769 0.3111014 0.9484314
-0.0239962 0.3117604 0.9483195
-0.0240211 0.3124110 0.9482051
-0.0240514 0.3130576 0.9480872
-0.0240863 0.3137029 0.9479689
-0.0241295 0.3143476 0.9478487
-0.0241819 0.3149909 0.9477290
-0.0242420 0.3156292 0.9476106
-0.0243082 0.3162661 0.9474911
-0.0239347 0.3168422 0.9472324
-0.0239956 0.3174789 0.9471078
-0.0240631 0.3181134 0.9469845
-0.0241361 0.3187508 0.9468615
-0.0237170 0.3193159 0.9465817
-0.0237866 0.3199497 0.9464567
-0.0238609 0.3205871 0.9463344
-0.0239348 0.3212282 0.9462118
-0.0240081 0.3218707 0.9460900
-0.0240776 0.3225150 0.9459683
-0.0241433 0.3231624 0.9458469
-0.0242032 0.3238097 0.9457256
-0.0237921 0.3243292 0.9454655
-0.0238560 0.3249748 0.9453521
-0.0239123 0.3256212 0.9452399
-0.0239603 0.3262677 0.9451271
-0.0236046 0.3267845 0.9449011
-0.0236616 0.3274330 0.9448001
-0.0237101 0.3280789 0.9447015
-0.0242445 0.2856548 0.9509805
-0.0242841 0.2861041 0.9509405
-0.0243330 0.2865304 0.9509098
-0.0243772 0.2870132 0.9508729
-0.0239675 0.2848028 0.9509766
-0.0242058 0.2875608 0.9507550
-0.0236879 0.2830946 0.9511052
-0.0237277 0.2837139 0.9510330
-0.0239642 0.2881890 0.9506020
-0.0240020 0.2888039 0.9505564
-0.0240322 0.2894141 0.9505106
-0.0237141 0.2901354 0.9503301
-0.0237443 0.2907477 0.9502898
-0.0233670 0.2914581 0.9500853
-0.0233834 0.2920586 0.9500425
-0.0234035 0.2926781 0.9500000
-0.0235907 0.2980399 0.9496996
-0.0236075 0.2987157 0.9496600
-0.0236238 0.2993920 0.9496209
-0.0236406 0.3000674 0.9495797
-0.0236572 0.3007433 0.9495375
-0.0236732 0.3014169 0.9494936
-0.0236907 0.3020904 0.9494480
-0.0237073 0.3027621 0.9493990
-0.0237237 0.3034317 0.9493467
-0.0237396 0.3040980 0.9492911
-0.0237544 0.3047592 0.9492296
-0.0237681 0.3054187 0.9491647
-0.0237795 0.3060710 0.9490956
-0.0237923 0.3067250 0.9490205
-0.0229566 0.2932924 0.9497863
-0.0229653 0.2938575 0.9497478
-0.0229788 0.2944656 0.9497084
-0.0229950 0.2950748 0.9496725
-0.0230147 0.2957098 0.9496355
-0.0230322 0.2963547 0.9495999
-0.0230525 0.2970096 0.9495632
-0.0234837 0.3072389 0.9488569
-0.0235123 0.3078980 0.9487791
-0.0235372 0.3085553 0.9486956
-0.0235595 0.3092102 0.9486057
-0.0235803 0.3098645 0.9485107
-0.0236028 0.3105138 0.9484095
-0.0233650 0.3110557 0.9482348
-0.0233829 0.3117142 0.9481233
-0.0234073 0.3123626 0.9480079
-0.0234373 0.3130061 0.9478911
-0.0234743 0.3136469 0.9477728
-0.0235196 0.3142861 0.9476544
-0.0235737 0.3149199 0.9475365
-0.0232489 0.3155117 0.9472959
-0.0232962 0.3161470 0.9471693
-0.0233522 0.3167779 0.9470456
-0.0229828 0.3173808 0.9467760
-0.0230329 0.3180067 0.9466467
-0.0230922 0.3186312 0.9465208
-0.0231576 0.3192598 0.9463956
-0.0232297 0.3198937 0.9462718
-0.0228062 0.3204490 0.9459906
-0.0228767 0.3210778 0.9458680
-0.0229485 0.3217098 0.9457463
-0.0230212 0.3223486 0.9456266
-0.0230916 0.3229900 0.9455070
-0.0231600 0.3236345 0.9453870
-0.0232238 0.3242834 0.9452693
-0.0228228 0.3247712 0.9450225
-0.0228923 0.3254144 0.9449151
-0.0229575 0.3260655 0.9448087
-0.0230158 0.3267211 0.9447033
-0.0230665 0.3273734 0.9446009
-0.0231095 0.3280244 0.9445005
-0.0236795 0.2856027 0.9507793
-0.0237204 0.2860329 0.9507415
-0.0237644 0.2864482 0.9507107
-0.0238174 0.2869148 0.9506754
-0.0233760 0.2847876 0.9507630
-0.0236255 0.2874665 0.9505515
-0.0230712 0.2831247 0.9508700
-0.0231116 0.2837371 0.9508000
-0.0233755 0.2880966 0.9503959
-0.0234212 0.2886934 0.9503538
-0.0234573 0.2892982 0.9503094
-0.0231337 0.2900210 0.9501236
-0.0231739 0.2906344 0.9500827
-0.0227816 0.2913545 0.9498721
-0.0228090 0.2919634 0.9498318
-0.0228399 0.2925897 0.9497945
-0.0230559 0.2980701 0.9494945
-0.0230680 0.2987464 0.9494554
-0.0230783 0.2994187 0.9494156
-0.0230895 0.3000904 0.9493747
-0.0231004 0.3007620 0.9493331
-0.0231100 0.3014309 0.9492882
-0.0231220 0.3021001 0.9492415
-0.0231317 0.3027667 0.9491923
-0.0231408 0.3034332 0.9491406
-0.0231494 0.3040946 0.9490840
-0.0231559 0.3047522 0.9490229
-0.0231620 0.3054109 0.9489589
-0.0231649 0.3060602 0.9488894
-0.0231737 0.3067177 0.9488140
-0.0223820 0.2932157 0.9495703
-0.0224025 0.2938072 0.9495330
-0.0224239 0.2944321 0.9494945
-0.0224458 0.2950624 0.9494590
-0.0224680 0.2957128 0.9494232
-0.0224891 0.2963715 0.9493883
-0.0225103 0.2970351 0.9493534
-0.0228711 0.3071970 0.9486526
-0.0228941 0.3078588 0.9485757
-0.0229148 0.3085174 0.9484908
-0.0229331 0.3091739 0.9484019
-0.0229524 0.3098252 0.9483063
-0.0229742 0.3104696 0.9482033
-0.0227414 0.3110085 0.9480384
-0.0227603 0.3116647 0.9479264
-0.0227859 0.3123087 0.9478123
-0.0228186 0.3129462 0.9476959
-0.0228595 0.3135804 0.9475803
-0.0229092 0.3142108 0.9474646
-0.0229655 0.3148342 0.9473474
-0.0226490 0.3154512 0.9471037
-0.0227029 0.3160752 0.9469807
-0.0227645 0.3166964 0.9468598
-0.0224018 0.3173290 0.9465871
-0.0224570 0.3179465 0.9464605
-0.0225216 0.3185663 0.9463357
-0.0225917 0.3191940 0.9462116
-0.0226682 0.3198311 0.9460874
-0.0222483 0.3203966 0.9458052
-0.0223195 0.3210236 0.9456814
-0.0223914 0.3216581 0.9455589
-0.0224625 0.3222997 0.9454372
-0.0225307 0.3229445 0.9453148
-0.0225954 0.3235938 0.9451929
-0.0226548 0.3242504 0.9450716
-0.0222507 0.3247206 0.9448290
-0.0223153 0.3253683 0.9447184
-0.0223736 0.3260213 0.9446088
-0.0224249 0.3266763 0.9445023
-0.0224695 0.3273300 0.9443982
-0.0225078 0.3279840 0.9442953
-0.0230947 0.2855567 0.9505660
-0.0231369 0.2859687 0.9505317
-0.0231868 0.2863622 0.9505058
-0.0232444 0.2868152 0.9504757
-0.0228095 0.2847612 0.9505532
-0.0230537 0.2873609 0.9503472
-0.0224643 0.2831490 0.9506311
-0.0225106 0.2837541 0.9505648
-0.0227968 0.2879916 0.9501879
-0.0228467 0.2885735 0.9501498
-0.0225250 0.2892837 0.9499545
-0.0225638 0.2898924 0.9499143
-0.0226117 0.2905029 0.9498785
-0.0222105 0.2912367 0.9496615
-0.0217865 0.2919434 0.9494347
-0.0218014 0.2925370 0.9493933
-0.0218210 0.2931313 0.9493551
-0.0218500 0.2937472 0.9493208
-0.0218780 0.2943874 0.9492857
-0.0219057 0.2950423 0.9492527
-0.0219314 0.2957088 0.9492189
-0.0219550 0.2963821 0.9491848
-0.0219754 0.2970557 0.9491499
-0.0219951 0.2977315 0.9491140
-0.0220124 0.2984056 0.9490785
-0.0220286 0.2990796 0.9490441
-0.0220453 0.2997558 0.9490072
-0.0220615 0.3004326 0.9489694
-0.0220782 0.3011102 0.9489300
-0.0220947 0.3017872 0.9488901
-0.0221127 0.3024658 0.9488473
-0.0221311 0.3031437 0.9488030
-0.0221505 0.3038208 0.9487554
-0.0221709 0.3044958 0.9487046
-0.0221922 0.3051690 0.9486489
-0.0222136 0.3058393 0.9485883
-0.0222359 0.3065079 0.9485211
-0.0222561 0.3071718 0.9484497
-0.0222754 0.3078340 0.9483726
-0.0222943 0.3084907 0.9482852
-0.0223099 0.3091451 0.9481954
-0.0223283 0.3097891 0.9481001
-0.0223477 0.3104269 0.9480021
-0.0221126 0.3109613 0.9478371
-0.0221343 0.3116125 0.9477285
-0.0221622 0.3122486 0.9476163
-0.0221982 0.3128762 0.9475017
-0.0222423 0.3135007 0.9473884
-0.0222932 0.3141209 0.9472732
-0.0223504 0.3147352 0.9471608
-0.0220475 0.3153751 0.9469149
-0.0221039 0.3159893 0.9467953
-0.0217640 0.3166486 0.9465266
-0.0218172 0.3172590 0.9464014
-0.0218798 0.3178699 0.9462772
-0.0219512 0.3184875 0.9461551
-0.0215495 0.3191068 0.9458667
-0.0216151 0.3197180 0.9457441
-0.0216878 0.3203380 0.9456211
-0.0217618 0.3209691 0.9454965
-0.0218364 0.3216111 0.9453724
-0.0214031 0.3221220 0.9451024
-0.0214756 0.3227528 0.9449827
-0.0215466 0.3233907 0.9448652
-0.0216154 0.3240348 0.9447489
-0.0216794 0.3246837 0.9446329
-0.0217387 0.3253369 0.9445194
-0.0217914 0.3259919 0.9444073
-0.0218371 0.3266462 0.9442987
-0.0218769 0.3272999 0.9441912
-0.0219098 0.3279545 0.9440887
-0.0222586 0.2847288 0.9503443
-0.0223193 0.2852098 0.9503077
-0.0223634 0.2857062 0.9502684
-0.0224045 0.2861836 0.9502267
-0.0224573 0.2866856 0.9501895
-0.0218656 0.2831745 0.9503911
-0.0219177 0.2837706 0.9503291
-0.0221850 0.2872913 0.9500221
-0.0222334 0.2878707 0.9499838
-0.0222921 0.2884357 0.9499522
-0.0219638 0.2891468 0.9497478
-0.0215815 0.2899053 0.9495288
-0.0216147 0.2905063 0.9494888
-0.0212069 0.2912492 0.9492568
-0.0212273 0.2918319 0.9492154
-0.0212519 0.2924294 0.9491763
-0.0215076 0.2997854 0.9488017
-0.0215189 0.3004591 0.9487643
-0.0215292 0.3011322 0.9487244
-0.0215390 0.3018042 0.9486850
-0.0215506 0.3024788 0.9486409
-0.0215621 0.3031529 0.9485949
-0.0215742 0.3038264 0.9485466
-0.0215889 0.3044982 0.9484967
-0.0216030 0.3051688 0.9484411
-0.0216162 0.3058342 0.9483806
-0.0216312 0.3065003 0.9483116
-0.0216444 0.3071629 0.9482389
-0.0216561 0.3078243 0.9481608
-0.0216665 0.3084769 0.9480751
-0.0216769 0.3091249 0.9479846
-0.0207849 0.2930674 0.9489425
-0.0207968 0.2936357 0.9489051
-0.0208178 0.2942308 0.9488722
-0.0208384 0.2948330 0.9488405
-0.0208641 0.2954582 0.9488081
-0.0208875 0.2960984 0.9487752
-0.0209107 0.2967458 0.9487450
-0.0209306 0.2974018 0.9487135
-0.0209494 0.2980620 0.9486837
-0.0209676 0.2987294 0.9486540
-0.0214424 0.3095967 0.9478420
-0.0214634 0.3102592 0.9477406
-0.0214842 0.3109142 0.9476380
-0.0215068 0.3115560 0.9475291
-0.0215337 0.3121799 0.9474181
-0.0215677 0.3127958 0.9473072
-0.0216106 0.3134096 0.9471956
-0.0216566 0.3140178 0.9470824
-0.0213876 0.3146752 0.9468507
-0.0210919 0.3153540 0.9465989
-0.0211283 0.3159644 0.9464708
-0.0211743 0.3165721 0.9463448
-0.0208333 0.3172599 0.9460649
-0.0208750 0.3178527 0.9459371
-0.0209272 0.3184448 0.9458122
-0.0209860 0.3190389 0.9456893
-0.0210543 0.3196518 0.9455640
-0.0206430 0.3202358 0.9452797
-0.0207123 0.3208397 0.9451587
-0.0207799 0.3214527 0.9450381
-0.0208506 0.3220797 0.9449164
-0.0209193 0.3227141 0.9447934
-0.0209864 0.3233575 0.9446739
-0.0210497 0.3240086 0.9445539
-0.0211094 0.3246639 0.9444352
-0.0211607 0.3253207 0.9443185
-0.0212051 0.3259784 0.9442035
-0.0208455 0.3263826 0.9439992
-0.0209010 0.3270449 0.9438954
-0.0209507 0.3277057 0.9437968
-0.0217803 0.2851413 0.9501022
-0.0218200 0.2856269 0.9500618
-0.0212851 0.2831930 0.9501563
-0.0213404 0.2837780 0.9500990
-0.0214008 0.2843369 0.9500502
-0.0215293 0.2860554 0.9498973
-0.0215851 0.2866147 0.9498552
-0.0216369 0.2871702 0.9498173
-0.0216884 0.2877388 0.9497803
-0.0217494 0.2882929 0.9497520
-0.0214098 0.2890092 0.9495424
-0.0210179 0.2897708 0.9493128
-0.0210595 0.2903711 0.9492752
-0.0206379 0.2911184 0.9490386
-0.0206683 0.2917044 0.9490007
-0.0207023 0.2923100 0.9489659
-0.0209700 0.2998153 0.9485933
-0.0209776 0.3004879 0.9485564
-0.0209826 0.3011610 0.9485174
-0.0209865 0.3018311 0.9484788
-0.0209909 0.3025046 0.9484355
-0.0209942 0.3031777 0.9483883
-0.0209975 0.3038494 0.9483384
-0.0210049 0.3045183 0.9482846
-0.0210108 0.3051863 0.9482278
-0.0210144 0.3058458 0.9481653
-0.0210201 0.3065087 0.9480969
-0.0210253 0.3071687 0.9480241
-0.0210316 0.3078301 0.9479478
-0.0210355 0.3084755 0.9478633
-0.0210424 0.3091125 0.9477760
-0.0202309 0.2929663 0.9487238
-0.0202530 0.2935521 0.9486891
-0.0202798 0.2941657 0.9486570
-0.0203077 0.2947931 0.9486258
-0.0203342 0.2954398 0.9485956
-0.0203605 0.2960979 0.9485655
-0.0203823 0.2967604 0.9485359
-0.0204014 0.2974258 0.9485061
-0.0204195 0.2980927 0.9484761
-0.0204359 0.2987601 0.9484460
-0.0208123 0.3095631 0.9476398
-0.0208337 0.3102199 0.9475403
-0.0208542 0.3108669 0.9474369
-0.0208751 0.3114985 0.9473302
-0.0209001 0.3121093 0.9472227
-0.0209309 0.3127134 0.9471125
-0.0209726 0.3133177 0.9470042
-0.0210146 0.3139150 0.9468924
-0.0207680 0.3145848 0.9466653
-0.0204896 0.3152855 0.9464148
-0.0205294 0.3158838 0.9462889
-0.0205770 0.3164777 0.9461646
-0.0202452 0.3171926 0.9458818
-0.0202922 0.3177754 0.9457575
-0.0203490 0.3183607 0.9456343
-0.0204168 0.3189577 0.9455119
-0.0204919 0.3195780 0.9453877
-0.0200797 0.3201804 0.9451004
-0.0201515 0.3207887 0.9449778
-0.0202219 0.3214060 0.9448519
-0.0202956 0.3220428 0.9447295
-0.0203654 0.3226864 0.9446043
-0.0204318 0.3233395 0.9444806
-0.0204922 0.3240002 0.9443561
-0.0205451 0.3246616 0.9442353
-0.0205886 0.3253225 0.9441162
-0.0206251 0.3259812 0.9439983
-0.0202549 0.3263565 0.9437977
-0.0203055 0.3270177 0.9436923
-0.0203506 0.3276777 0.9435909
-0.0212206 0.2850724 0.9498874
-0.0212618 0.2855393 0.9498488
-0.0207196 0.2832056 0.9499241
-0.0207766 0.2837787 0.9498696
-0.0208329 0.2843207 0.9498207
-0.0209695 0.2859716 0.9496791
-0.0210276 0.2865123 0.9496427
-0.0210859 0.2870517 0.9496098
-0.0207597 0.2877096 0.9494064
-0.0208085 0.2882864 0.9493699
-0.0204230 0.2890365 0.9491387
-0.0204677 0.2896196 0.9491009
-0.0205168 0.2902160 0.9490671
-0.0200827 0.2909654 0.9488227
-0.0204085 0.3078442 0.9477363
-0.0204062 0.3084805 0.9476516
-0.0196272 0.2916964 0.9485686
-0.0196563 0.2922656 0.9485367
-0.0196861 0.2928522 0.9485069
-0.0198729 0.2974461 0.9482982
-0.0198888 0.2981186 0.9482694
-0.0199045 0.2987878 0.9482399
-0.0199194 0.2994598 0.9482080
-0.0199303 0.3001305 0.9481768
-0.0199413 0.3008037 0.9481429
-0.0199512 0.3014780 0.9481081
-0.0199629 0.3021533 0.9480716
-0.0199758 0.3028301 0.9480333
-0.0199885 0.3035045 0.9479940
-0.0200037 0.3041795 0.9479521
-0.0200208 0.3048541 0.9479063
-0.0200405 0.3055273 0.9478560
-0.0200633 0.3062017 0.9478019
-0.0200875 0.3068741 0.9477431
-0.0201612 0.3088666 0.9475241
-0.0201799 0.3095327 0.9474345
-0.0202013 0.3101815 0.9473361
-0.0202195 0.3108194 0.9472359
-0.0202379 0.3114379 0.9471334
-0.0202617 0.3120332 0.9470289
-0.0202876 0.3126233 0.9469221
-0.0203270 0.3132134 0.9468148
-0.0203676 0.3137972 0.9467036
-0.0191919 0.2934576 0.9482514
-0.0192154 0.2940271 0.9482239
-0.0192389 0.2946103 0.9481978
-0.0192674 0.2952074 0.9481751
-0.0192935 0.2958256 0.9481489
-0.0193188 0.2964578 0.9481262
-0.0201433 0.3144849 0.9464803
-0.0198800 0.3152037 0.9462325
-0.0199206 0.3157893 0.9461082
-0.0199712 0.3163730 0.9459880
-0.0196542 0.3171086 0.9457047
-0.0197051 0.3176825 0.9455822
-0.0197683 0.3182647 0.9454607
-0.0193900 0.3189517 0.9451638
-0.0194507 0.3195286 0.9450429
-0.0195217 0.3201184 0.9449240
-0.0190917 0.3206962 0.9446332
-0.0191596 0.3212766 0.9445157
-0.0192320 0.3218708 0.9444022
-0.0193045 0.3224875 0.9442834
-0.0193723 0.3231088 0.9441655
-0.0194411 0.3237444 0.9440470
-0.0195074 0.3243900 0.9439294
-0.0195675 0.3250400 0.9438155
-0.0196216 0.3256930 0.9437030
-0.0196710 0.3263482 0.9435953
-0.0197159 0.3270053 0.9434888
-0.0197552 0.3276618 0.9433857
-0.0206715 0.2849911 0.9496731
-0.0207123 0.2854417 0.9496373
-0.0201685 0.2832091 0.9496935
-0.0202246 0.2837659 0.9496418
-0.0202819 0.2842824 0.9495959
-0.0204120 0.2858793 0.9494608
-0.0204715 0.2864046 0.9494262
-0.0205343 0.2869258 0.9493946
-0.0202145 0.2875682 0.9491940
-0.0202635 0.2881338 0.9491578
-0.0198811 0.2888803 0.9489271
-0.0194668 0.2896443 0.9486774
-0.0195017 0.2902292 0.9486399
-0.0190601 0.2909855 0.9483838
-0.0190913 0.2915526 0.9483491
-0.0191222 0.2921348 0.9483183
-0.0194019 0.3015077 0.9479005
-0.0194081 0.3021798 0.9478640
-0.0194161 0.3028536 0.9478270
-0.0194211 0.3035296 0.9477870
-0.0194289 0.3042026 0.9477428
-0.0194381 0.3048739 0.9476971
-0.0194496 0.3055440 0.9476469
-0.0194635 0.3062126 0.9475927
-0.0194805 0.3068804 0.9475301
-0.0194975 0.3075432 0.9474654
-0.0195153 0.3082022 0.9473938
-0.0195321 0.3088568 0.9473151
-0.0195457 0.3095094 0.9472280
-0.0195628 0.3101470 0.9471307
-0.0195775 0.3107706 0.9470338
-0.0195912 0.3113734 0.9469334
-0.0196107 0.3119511 0.9468341
-0.0196301 0.3125255 0.9467279
-0.0186477 0.2928063 0.9480683
-0.0188189 0.2971160 0.9478886
-0.0188381 0.2977702 0.9478656
-0.0188549 0.2984294 0.9478432
-0.0188694 0.2990947 0.9478168
-0.0188841 0.2997596 0.9477932
-0.0188984 0.3004273 0.9477673
-0.0194390 0.3132073 0.9465269
-0.0194684 0.3137936 0.9464106
-0.0181649 0.2933628 0.9478210
-0.0181930 0.2938938 0.9477988
-0.0182084 0.2944413 0.9477756
-0.0182280 0.2949908 0.9477511
-0.0182511 0.2955785 0.9477292
-0.0182786 0.2961784 0.9477104
-0.0192371 0.3145283 0.9461761
-0.0192658 0.3151106 0.9460516
-0.0193034 0.3156838 0.9459298
-0.0190228 0.3164471 0.9456566
-0.0186960 0.3172272 0.9453587
-0.0187255 0.3177730 0.9452345
-0.0187684 0.3183176 0.9451127
-0.0188243 0.3188695 0.9449935
-0.0188904 0.3194457 0.9448745
-0.0184822 0.3200870 0.9445784
-0.0185457 0.3206482 0.9444585
-0.0186131 0.3212318 0.9443403
-0.0190916 0.3263577 0.9433928
-0.0191282 0.3270077 0.9432818
-0.0191588 0.3276582 0.9431782
-0.0181758 0.3217468 0.9440706
-0.0182406 0.3223022 0.9439590
-0.0183076 0.3228916 0.9438450
-0.0183753 0.3234919 0.9437348
-0.0184443 0.3241060 0.9436259
-0.0185158 0.3247384 0.9435143
-0.0185874 0.3253730 0.9434094
-0.0196144 0.2832141 0.9494570
-0.0196751 0.2837506 0.9494100
-0.0197333 0.2842425 0.9493698
-0.0197938 0.2847408 0.9493370
-0.0198247 0.2852878 0.9492827
-0.0198704 0.2857791 0.9492450
-0.0199298 0.2862855 0.9492120
-0.0196364 0.2868666 0.9490237
-0.0196813 0.2874168 0.9489854
-0.0197276 0.2879728 0.9489487
-0.0193419 0.2887207 0.9487114
-0.0189214 0.2894867 0.9484590
-0.0189609 0.2900711 0.9484213
-0.0185125 0.2908278 0.9481648
-0.0185485 0.2914036 0.9481312
-0.0185840 0.2920014 0.9480999
-0.0188476 0.3015414 0.9476976
-0.0188485 0.3022108 0.9476610
-0.0188526 0.3028851 0.9476227
-0.0188516 0.3035630 0.9475783
-0.0188526 0.3042345 0.9475344
-0.0188532 0.3049042 0.9474881
-0.0188563 0.3055721 0.9474362
-0.0188615 0.3062376 0.9473800
-0.0188689 0.3069008 0.9473177
-0.0188768 0.3075572 0.9472528
-0.0188875 0.3082082 0.9471808
-0.0188980 0.3088538 0.9471046
-0.0189087 0.3094918 0.9470222
-0.0189230 0.3101179 0.9469287
-0.0189371 0.3107260 0.9468335
-0.0189450 0.3113106 0.9467395
-0.0189577 0.3118702 0.9466426
-0.0189755 0.3124303 0.9465368
-0.0181098 0.2926757 0.9478443
-0.0182839 0.2971307 0.9476720
-0.0183021 0.2977933 0.9476505
-0.0183186 0.2984555 0.9476269
-0.0183334 0.2991220 0.9476028
-0.0183466 0.2997873 0.9475784
-0.0183562 0.3004536 0.9475557
-0.0188008 0.3131209 0.9463388
-0.0188258 0.3136922 0.9462256
-0.0176285 0.2932535 0.9475983
-0.0176579 0.2938012 0.9475768
-0.0176804 0.2943715 0.9475532
-0.0177023 0.2949451 0.9475336
-0.0177279 0.2955510 0.9475120
-0.0177558 0.2961660 0.9474960
-0.0186122 0.3144403 0.9459942
-0.0186417 0.3150114 0.9458739
-0.0186803 0.3155691 0.9457554
-0.0184184 0.3163500 0.9454832
-0.0181055 0.3171525 0.9451862
-0.0181424 0.3176867 0.9450657
-0.0181925 0.3182244 0.9449461
-0.0182541 0.3187724 0.9448296
-0.0183271 0.3193500 0.9447088
-0.0179296 0.3200237 0.9444097
-0.0179981 0.3205968 0.9442880
-0.0180658 0.3211847 0.9441676
-0.0185074 0.3263844 0.9431856
-0.0185343 0.3270268 0.9430742
-0.0185562 0.3276691 0.9429704
-0.0176303 0.3217080 0.9438966
-0.0176971 0.3222743 0.9437833
-0.0177607 0.3228658 0.9436664
-0.0178273 0.3234744 0.9435546
-0.0178932 0.3240964 0.9434412
-0.0179605 0.3247318 0.9433257
-0.0180227 0.3253725 0.9432165
-0.0190650 0.2832151 0.9492202
-0.0191297 0.2837315 0.9491808
-0.0191881 0.2842014 0.9491445
-0.0192517 0.2846791 0.9491142
-0.0192836 0.2852009 0.9490619
-0.0193287 0.2856760 0.9490256
-0.0193895 0.2861666 0.9489950
-0.0191049 0.2867268 0.9488096
-0.0187212 0.2874157 0.9485730
-0.0187668 0.2879880 0.9485355
-0.0188218 0.2885541 0.9485038
-0.0183871 0.2893184 0.9482436
-0.0184352 0.2899058 0.9482103
-0.0179750 0.2906595 0.9479415
-0.0182549 0.3062777 0.9471673
-0.0182529 0.3069352 0.9471052
-0.0182541 0.3075870 0.9470387
-0.0182578 0.3082288 0.9469691
-0.0182617 0.3088625 0.9468944
-0.0182695 0.3094829 0.9468163
-0.0182779 0.3100926 0.9467246
-0.0182916 0.3106843 0.9466353
-0.0182950 0.3112489 0.9465437
-0.0183036 0.3117913 0.9464491
-0.0183174 0.3123403 0.9463486
-0.0175024 0.2913871 0.9476714
-0.0175369 0.2919555 0.9476448
-0.0178198 0.3018229 0.9472991
-0.0178263 0.3024953 0.9472693
-0.0178311 0.3031641 0.9472388
-0.0178403 0.3038316 0.9472034
-0.0178536 0.3044998 0.9471666
-0.0178700 0.3051647 0.9471281
-0.0181573 0.3130323 0.9461546
-0.0181796 0.3135913 0.9460428
-0.0170537 0.2925897 0.9473905
-0.0170818 0.2931351 0.9473670
-0.0171161 0.2937062 0.9473472
-0.0171454 0.2943002 0.9473293
-0.0171728 0.2949037 0.9473101
-0.0172006 0.2955265 0.9472921
-0.0172261 0.2961591 0.9472774
-0.0172474 0.2967990 0.9472594
-0.0172660 0.2974413 0.9472429
-0.0172829 0.2980879 0.9472275
-0.0172974 0.2987415 0.9472110
-0.0173113 0.2994001 0.9471926
-0.0173229 0.3000629 0.9471731
-0.0173358 0.3007238 0.9471558
-0.0179826 0.3143492 0.9458156
-0.0180125 0.3149065 0.9456983
-0.0180522 0.3154500 0.9455833
-0.0178036 0.3162452 0.9453139
-0.0175120 0.3170664 0.9450173
-0.0175525 0.3175904 0.9448990
-0.0176053 0.3181173 0.9447825
-0.0172590 0.3188822 0.9444768
-0.0173099 0.3194008 0.9443613
-0.0173724 0.3199525 0.9442420
-0.0169656 0.3205890 0.9439470
-0.0170174 0.3211179 0.9438344
-0.0170799 0.3216723 0.9437200
-0.0171509 0.3222550 0.9436050
-0.0172131 0.3228539 0.9434854
-0.0172799 0.3234732 0.9433686
-0.0173431 0.3241047 0.9432523
-0.0174025 0.3247443 0.9431343
-0.0174551 0.3253888 0.9430198
-0.0175039 0.3260296 0.9429133
-0.0175513 0.3266806 0.9428060
-0.0175951 0.3273381 0.9427047
-0.0176361 0.3279963 0.9426048
-0.0185162 0.2832035 0.9489818
-0.0185834 0.2837078 0.9489440
-0.0186382 0.2841540 0.9489106
-0.0186976 0.2846181 0.9488799
-0.0187374 0.2850990 0.9488361
-0.0187853 0.2855600 0.9488031
-0.0188403 0.2860308 0.9487731
-0.0185793 0.2865695 0.9485991
-0.0182010 0.2872546 0.9483631
-0.0182475 0.2878154 0.9483260
-0.0178201 0.2885671 0.9480608
-0.0173689 0.2893391 0.9477887
-0.0174076 0.2899149 0.9477541
-0.0176204 0.3076314 0.9468231
-0.0176178 0.3082614 0.9467559
-0.0176169 0.3088830 0.9466843
-0.0176218 0.3094818 0.9466096
-0.0176240 0.3100739 0.9465207
-0.0176353 0.3106443 0.9464354
-0.0176339 0.3111857 0.9463471
-0.0176341 0.3117095 0.9462579
-0.0176439 0.3122474 0.9461581
-0.0169355 0.2906668 0.9474791
-0.0172832 0.3051972 0.9469229
-0.0172974 0.3058578 0.9468817
-0.0173151 0.3065180 0.9468359
-0.0175014 0.3129396 0.9459684
-0.0175188 0.3134837 0.9458596
-0.0164537 0.2913698 0.9472091
-0.0164922 0.2919062 0.9471892
-0.0165264 0.2924560 0.9471687
-0.0165574 0.2930287 0.9471464
-0.0165906 0.2936230 0.9471268
-0.0166213 0.2942398 0.9471101
-0.0167771 0.2994268 0.9469851
-0.0167879 0.3000903 0.9469681
-0.0167995 0.3007485 0.9469541
-0.0168105 0.3014122 0.9469364
-0.0168211 0.3020763 0.9469173
-0.0168330 0.3027373 0.9468981
-0.0168478 0.3033911 0.9468783
-0.0168626 0.3040583 0.9468534
-0.0173462 0.3142494 0.9456373
-0.0161468 0.2946895 0.9468812
-0.0161772 0.2952702 0.9468676
-0.0162054 0.2958720 0.9468580
-0.0162307 0.2964829 0.9468504
-0.0162517 0.2971075 0.9468367
-0.0162745 0.2977292 0.9468266
-0.0162909 0.2983636 0.9468159
-0.0171324 0.3150597 0.9453861
-0.0171538 0.3155998 0.9452647
-0.0171852 0.3161317 0.9451449
-0.0169209 0.3169699 0.9448531
-0.0169600 0.3174790 0.9447377
-0.0166493 0.3182888 0.9444315
-0.0166941 0.3187999 0.9443169
-0.0167482 0.3193152 0.9442000
-0.0163788 0.3200403 0.9438986
-0.0168464 0.3247726 0.9429397
-0.0168904 0.3254175 0.9428243
-0.0169286 0.3260586 0.9427143
-0.0169686 0.3267070 0.9426046
-0.0170043 0.3273574 0.9425026
-0.0170385 0.3280069 0.9424013
-0.0159686 0.3206727 0.9436021
-0.0159957 0.3211264 0.9434987
-0.0160403 0.3216049 0.9433950
-0.0160974 0.3221100 0.9432927
-0.0161540 0.3226570 0.9431780
-0.0162163 0.3232283 0.9430686
-0.0162819 0.3238112 0.9429598
-0.0177364 0.2833125 0.9486195
-0.0177978 0.2838340 0.9485767
-0.0178451 0.2843870 0.9485275
-0.0179061 0.2848939 0.9484934
-0.0179492 0.2854120 0.9484524
-0.0180064 0.2859044 0.9484225
-0.0180524 0.2864108 0.9483867
-0.0176855 0.2870897 0.9481505
-0.0177368 0.2876386 0.9481165
-0.0173006 0.2883970 0.9478453
-0.0168426 0.2891602 0.9475670
-0.0168847 0.2897421 0.9475345
-0.0169839 0.3076737 0.9466174
-0.0169768 0.3082939 0.9465475
-0.0169704 0.3089068 0.9464769
-0.0169702 0.3094827 0.9464056
-0.0169635 0.3100545 0.9463174
-0.0169720 0.3106043 0.9462350
-0.0169632 0.3111265 0.9461488
-0.0169539 0.3116283 0.9460632
-0.0169615 0.3121532 0.9459619
-0.0164059 0.2904883 0.9472576
-0.0166837 0.3052410 0.9467136
-0.0166903 0.3058958 0.9466726
-0.0167001 0.3065480 0.9466283
-0.0168361 0.3128448 0.9457832
-0.0168459 0.3133759 0.9456758
-0.0159228 0.2911931 0.9469838
-0.0159629 0.2917484 0.9469593
-0.0159982 0.2923230 0.9469401
-0.0160308 0.2929225 0.9469180
-0.0160640 0.2935423 0.9468981
-0.0160909 0.2941817 0.9468810
-0.0162293 0.2994530 0.9467685
-0.0162395 0.3001166 0.9467517
-0.0162480 0.3007742 0.9467415
-0.0162560 0.3014372 0.9467276
-0.0162627 0.3020994 0.9467119
-0.0162706 0.3027602 0.9466933
-0.0162806 0.3034135 0.9466730
-0.0162892 0.3040772 0.9466493
-0.0167031 0.3141470 0.9454588
-0.0156261 0.2946336 0.9466606
-0.0156565 0.2952373 0.9466467
-0.0156836 0.2958531 0.9466406
-0.0157089 0.2964748 0.9466348
-0.0157286 0.2971070 0.9466249
-0.0157489 0.2977379 0.9466177
-0.0157645 0.2983757 0.9466105
-0.0165106 0.3149666 0.9452169
-0.0165278 0.3154924 0.9450973
-0.0165578 0.3160142 0.9449775
-0.0163177 0.3168620 0.9446923
-0.0163568 0.3173639 0.9445773
-0.0160752 0.3181983 0.9442741
-0.0161127 0.3186938 0.9441595
-0.0161711 0.3192160 0.9440420
-0.0158272 0.3199638 0.9437390
-0.0162923 0.3248166 0.9427445
-0.0163282 0.3254664 0.9426258
-0.0163554 0.3261082 0.9425154
-0.0163867 0.3267518 0.9424037
-0.0164150 0.3273928 0.9422985
-0.0164421 0.3280327 0.9421985
-0.0154371 0.3206279 0.9434420
-0.0154665 0.3210905 0.9433376
-0.0155040 0.3215726 0.9432283
-0.0155644 0.3220962 0.9431225
-0.0156173 0.3226513 0.9430037
-0.0156813 0.3232356 0.9428923
-0.0157404 0.3238279 0.9427789
-0.0172183 0.2832879 0.9483829
-0.0172882 0.2837783 0.9483498
-0.0173314 0.2843197 0.9483012
-0.0173963 0.2848066 0.9482735
-0.0174500 0.2852966 0.9482388
-0.0175130 0.2857732 0.9482125
-0.0171385 0.2863884 0.9479738
-0.0167036 0.2870856 0.9477044
-0.0167505 0.2876520 0.9476685
-0.0162819 0.2884008 0.9473829
-0.0163297 0.2889852 0.9473518
-0.0163785 0.2895817 0.9473218
-0.0163176 0.3083438 0.9463359
-0.0163085 0.3089366 0.9462658
-0.0163122 0.3094930 0.9461985
-0.0163010 0.3100410 0.9461139
-0.0163089 0.3105699 0.9460371
-0.0162983 0.3110745 0.9459552
-0.0162847 0.3115574 0.9458717
-0.0162906 0.3120704 0.9457743
-0.0160766 0.3059453 0.9464608
-0.0160804 0.3065892 0.9464180
-0.0160882 0.3072289 0.9463693
-0.0161744 0.3127596 0.9456050
-0.0161824 0.3132776 0.9454952
-0.0153417 0.2904562 0.9467765
-0.0153882 0.2910141 0.9467560
-0.0154350 0.2915956 0.9467363
-0.0156967 0.3027937 0.9464874
-0.0157048 0.3034463 0.9464691
-0.0157133 0.3041037 0.9464466
-0.0157266 0.3047560 0.9464183
-0.0160553 0.3140481 0.9452874
-0.0149469 0.2922009 0.9464813
-0.0149857 0.2927689 0.9464678
-0.0150259 0.2933571 0.9464544
-0.0150593 0.2939626 0.9464428
-0.0150898 0.2945784 0.9464330
-0.0151177 0.2952042 0.9464211
-0.0151430 0.2958345 0.9464154
-0.0151642 0.2964719 0.9464104
-0.0151842 0.2971133 0.9464041
-0.0152024 0.2977547 0.9463994
-0.0152193 0.2983974 0.9463948
-0.0152343 0.2990501 0.9463889
-0.0152478 0.2996976 0.9463847
-0.0152614 0.3003501 0.9463768
-0.0152752 0.3010016 0.9463710
-0.0152867 0.3016589 0.9463632
-0.0158799 0.3148745 0.9450470
-0.0158949 0.3153879 0.9449282
-0.0159238 0.3158971 0.9448122
-0.0157013 0.3167535 0.9445317
-0.0157413 0.3172473 0.9444173
-0.0154832 0.3180978 0.9441170
-0.0151815 0.3189160 0.9438099
-0.0152262 0.3193969 0.9436955
-0.0158544 0.3280701 0.9419988
-0.0148713 0.3201066 0.9433994
-0.0152500 0.3244659 0.9424778
-0.0152959 0.3250914 0.9423615
-0.0153400 0.3257102 0.9422536
-0.0153863 0.3263424 0.9421521
-0.0154316 0.3269877 0.9420485
-0.0144789 0.3207905 0.9430982
-0.0145108 0.3212219 0.9429999
-0.0145307 0.3216457 0.9428980
-0.0145602 0.3220895 0.9427996
-0.0145908 0.3225210 0.9427045
-0.0146326 0.3230189 0.9426009
-0.0146941 0.3235537 0.9424950
-0.0167031 0.2832507 0.9481510
-0.0167780 0.2837125 0.9481251
-0.0168143 0.2842406 0.9480747
-0.0168839 0.2847052 0.9480513
-0.0165428 0.2851794 0.9478374
-0.0166014 0.2856977 0.9478054
-0.0166435 0.2862216 0.9477652
-0.0156859 0.2870613 0.9472368
-0.0157353 0.2876437 0.9472014
-0.0157842 0.2882219 0.9471693
-0.0156464 0.3083990 0.9461157
-0.0156336 0.3089722 0.9460523
-0.0156364 0.3095118 0.9459877
-0.0156187 0.3100377 0.9459071
-0.0156225 0.3105462 0.9458318
-0.0156098 0.3110301 0.9457556
-0.0155895 0.3114953 0.9456722
-0.0155907 0.3119966 0.9455802
-0.0154549 0.3072733 0.9461600
-0.0154959 0.3126749 0.9454216
-0.0154958 0.3131808 0.9453115
-0.0147250 0.2891511 0.9465950
-0.0147798 0.2897124 0.9465742
-0.0151423 0.3047920 0.9462150
-0.0151608 0.3054308 0.9461923
-0.0151843 0.3060729 0.9461610
-0.0153921 0.3139503 0.9451125
-0.0142765 0.2904074 0.9462899
-0.0143327 0.2909446 0.9462764
-0.0143839 0.2914925 0.9462643
-0.0144285 0.2920714 0.9462501
-0.0144630 0.2926648 0.9462356
-0.0144973 0.2932754 0.9462253
-0.0145291 0.2938999 0.9462146
-0.0146354 0.2971254 0.9461805
-0.0146531 0.2977742 0.9461780
-0.0146723 0.2984213 0.9461785
-0.0146877 0.2990755 0.9461745
-0.0147010 0.2997257 0.9461726
-0.0147159 0.3003753 0.9461694
-0.0147295 0.3010248 0.9461677
-0.0147400 0.3016795 0.9461652
-0.0147433 0.3023378 0.9461561
-0.0147607 0.3029653 0.9461498
-0.0147845 0.3036005 0.9461417
-0.0152484 0.3147825 0.9448758
-0.0152535 0.3152848 0.9447603
-0.0152726 0.3157805 0.9446440
-0.0140829 0.2943117 0.9460066
-0.0141186 0.2949149 0.9460034
-0.0141492 0.2955297 0.9460041
-0.0141824 0.2961390 0.9460118
-0.0148593 0.3170557 0.9441978
-0.0148716 0.3175285 0.9440791
-0.0148923 0.3179981 0.9439616
-0.0146318 0.3188459 0.9436585
-0.0146602 0.3193072 0.9435435
-0.0143406 0.3200590 0.9432495
-0.0147728 0.3257669 0.9420565
-0.0148103 0.3263906 0.9419542
-0.0148488 0.3270255 0.9418503
-0.0148842 0.3276680 0.9417497
-0.0139869 0.3207579 0.9429534
-0.0140063 0.3211864 0.9428507
-0.0142147 0.3241323 0.9422117
-0.0142750 0.3247088 0.9421068
-0.0136020 0.3216550 0.9426050
-0.0136282 0.3220650 0.9425120
-0.0136450 0.3224909 0.9424111
-0.0136670 0.3229089 0.9423146
-0.0136978 0.3233455 0.9422220
-0.0163441 0.2841413 0.9478680
-0.0158322 0.2829516 0.9477879
-0.0158929 0.2834824 0.9477446
-0.0160024 0.2845378 0.9476633
-0.0160662 0.2850396 0.9476323
-0.0161362 0.2855367 0.9476086
-0.0161850 0.2860577 0.9475727
-0.0151985 0.2868900 0.9470219
-0.0152526 0.2874673 0.9469913
-0.0153071 0.2880495 0.9469642
-0.0149935 0.3084451 0.9459122
-0.0149748 0.3090036 0.9458514
-0.0149736 0.3095307 0.9457856
-0.0149476 0.3100391 0.9457073
-0.0149384 0.3105259 0.9456317
-0.0149150 0.3109928 0.9455558
-0.0148862 0.3114362 0.9454754
-0.0148824 0.3119227 0.9453875
-0.0148182 0.3073209 0.9459574
-0.0148106 0.3125889 0.9452400
-0.0148018 0.3130854 0.9451284
-0.0142166 0.2889460 0.9463778
-0.0142729 0.2895218 0.9463562
-0.0145354 0.3048424 0.9460054
-0.0145468 0.3054762 0.9459836
-0.0145629 0.3061104 0.9459557
-0.0147234 0.3138577 0.9449384
-0.0137623 0.2902125 0.9460669
-0.0138186 0.2907701 0.9460523
-0.0138694 0.2913474 0.9460396
-0.0139109 0.2919499 0.9460255
-0.0139468 0.2925693 0.9460108
-0.0139787 0.2932004 0.9459977
-0.0140024 0.2938445 0.9459884
-0.0140683 0.2971373 0.9459549
-0.0140821 0.2977944 0.9459548
-0.0140981 0.2984453 0.9459585
-0.0141119 0.2991028 0.9459559
-0.0141266 0.2997542 0.9459576
-0.0141403 0.3004049 0.9459580
-0.0141538 0.3010549 0.9459586
-0.0141648 0.3017071 0.9459579
-0.0141720 0.3023630 0.9459535
-0.0141873 0.3029953 0.9459491
-0.0142056 0.3036301 0.9459391
-0.0146067 0.3146926 0.9447103
-0.0146025 0.3151826 0.9445927
-0.0146129 0.3156663 0.9444760
-0.0135529 0.2942701 0.9457796
-0.0135858 0.2948852 0.9457787
-0.0136167 0.2955105 0.9457816
-0.0136465 0.2961312 0.9457890
-0.0142599 0.3169680 0.9440431
-0.0142627 0.3174313 0.9439237
-0.0142749 0.3178934 0.9438049
-0.0140568 0.3187636 0.9435060
-0.0140756 0.3192163 0.9433909
-0.0138114 0.3200111 0.9430965
-0.0141993 0.3258226 0.9418606
-0.0142276 0.3264451 0.9417542
-0.0142611 0.3270754 0.9416501
-0.0142915 0.3277113 0.9415511
-0.0134839 0.3207208 0.9428107
-0.0134927 0.3211531 0.9427026
-0.0136703 0.3241644 0.9420283
-0.0137242 0.3247489 0.9419192
-0.0131039 0.3216436 0.9424531
-0.0131251 0.3220625 0.9423540
-0.0131366 0.3225041 0.9422454
-0.0131493 0.3229320 0.9421454
-0.0131770 0.3233713 0.9420530
-0.0158899 0.2840438 0.9476698
-0.0153581 0.2829299 0.9475643
-0.0154240 0.2834231 0.9475289
-0.0155450 0.2844165 0.9474630
-0.0156165 0.2849003 0.9474389
-0.0156938 0.2853820 0.9474198
-0.0152336 0.2860249 0.9471273
-0.0147316 0.2867180 0.9468194
-0.0147900 0.2872977 0.9467914
-0.0143050 0.3095621 0.9455822
-0.0142729 0.3100542 0.9455069
-0.0142614 0.3105233 0.9454333
-0.0142381 0.3109691 0.9453614
-0.0142030 0.3113931 0.9452843
-0.0141904 0.3118644 0.9452013
-0.0141683 0.3079852 0.9456983
-0.0141671 0.3085870 0.9456466
-0.0141356 0.3125171 0.9450589
-0.0141178 0.3130012 0.9449475
-0.0136634 0.2881673 0.9461818
-0.0137257 0.2887510 0.9461595
-0.0137831 0.2893461 0.9461407
-0.0139203 0.3049000 0.9458018
-0.0139278 0.3055305 0.9457787
-0.0139395 0.3061564 0.9457502
-0.0139567 0.3067761 0.9457233
-0.0140544 0.3137727 0.9447652
-0.0132525 0.2900269 0.9458427
-0.0135671 0.3010894 0.9457521
-0.0135772 0.3017438 0.9457548
-0.0135870 0.3023975 0.9457538
-0.0135994 0.3030340 0.9457522
-0.0136124 0.3036719 0.9457404
-0.0139591 0.3146121 0.9445443
-0.0139479 0.3150886 0.9444260
-0.0139499 0.3155558 0.9443087
-0.0127575 0.2906083 0.9455777
-0.0128188 0.2911811 0.9455721
-0.0128703 0.2917646 0.9455681
-0.0129133 0.2923606 0.9455660
-0.0129523 0.2929760 0.9455514
-0.0129874 0.2935945 0.9455506
-0.0130164 0.2942212 0.9455501
-0.0130448 0.2948501 0.9455511
-0.0130695 0.2954867 0.9455559
-0.0130904 0.2961215 0.9455623
-0.0131092 0.2967652 0.9455660
-0.0131278 0.2974002 0.9455767
-0.0131476 0.2980351 0.9455880
-0.0131658 0.2986828 0.9455972
-0.0131853 0.2993192 0.9456076
-0.0132023 0.2999630 0.9456170
-0.0136527 0.3168827 0.9438864
-0.0136491 0.3173392 0.9437668
-0.0134503 0.3182473 0.9434663
-0.0132142 0.3191012 0.9431660
-0.0132197 0.3195119 0.9430575
-0.0132344 0.3199476 0.9429413
-0.0136291 0.3258759 0.9416667
-0.0136535 0.3264968 0.9415562
-0.0136832 0.3271247 0.9414512
-0.0137081 0.3277539 0.9413548
-0.0131178 0.3241971 0.9418442
-0.0131617 0.3247921 0.9417296
-0.0126066 0.3208618 0.9425078
-0.0125935 0.3212320 0.9424051
-0.0125979 0.3216526 0.9422957
-0.0126030 0.3220618 0.9421950
-0.0126129 0.3225113 0.9420827
-0.0126218 0.3229454 0.9419797
-0.0126464 0.3233933 0.9418839
-0.0148948 0.2828988 0.9473442
-0.0149660 0.2833482 0.9473161
-0.0150365 0.2838033 0.9472923
-0.0150936 0.2842856 0.9472606
-0.0146476 0.2848021 0.9469847
-0.0147148 0.2853270 0.9469581
-0.0142153 0.2859750 0.9466496
-0.0136163 0.3096071 0.9453689
-0.0135930 0.3100813 0.9453017
-0.0135762 0.3105292 0.9452284
-0.0135542 0.3109507 0.9451606
-0.0135122 0.3113536 0.9450911
-0.0134904 0.3118097 0.9450064
-0.0135158 0.3080405 0.9454876
-0.0135154 0.3086298 0.9454398
-0.0134530 0.3124491 0.9448772
-0.0134266 0.3129189 0.9447672
-0.0130727 0.2867972 0.9460225
-0.0131332 0.2873903 0.9459986
-0.0133024 0.3055940 0.9455742
-0.0133138 0.3062112 0.9455450
-0.0133274 0.3068220 0.9455205
-0.0133781 0.3136877 0.9445908
-0.0125783 0.2881153 0.9456765
-0.0126440 0.2886942 0.9456581
-0.0127041 0.2892748 0.9456439
-0.0129943 0.3024402 0.9455453
-0.0130080 0.3030818 0.9455452
-0.0130207 0.3037198 0.9455370
-0.0130355 0.3043463 0.9455292
-0.0133070 0.3145309 0.9443774
-0.0132847 0.3149936 0.9442581
-0.0132706 0.3154458 0.9441430
-0.0121933 0.2898879 0.9453659
-0.0122571 0.2904631 0.9453563
-0.0123112 0.2910563 0.9453464
-0.0123570 0.2916609 0.9453401
-0.0123972 0.2922756 0.9453379
-0.0124288 0.2929124 0.9453279
-0.0125338 0.2961188 0.9453389
-0.0125478 0.2967718 0.9453422
-0.0125649 0.2974135 0.9453548
-0.0125833 0.2980552 0.9453688
-0.0126017 0.2987058 0.9453812
-0.0126226 0.2993450 0.9453934
-0.0126441 0.2999875 0.9454070
-0.0126644 0.3006233 0.9454218
-0.0126832 0.3012633 0.9454333
-0.0119706 0.2933257 0.9451234
-0.0120137 0.2939294 0.9451258
-0.0120529 0.2945359 0.9451394
-0.0120956 0.2951479 0.9451553
-0.0130450 0.3167970 0.9437331
-0.0130311 0.3172433 0.9436120
-0.0128643 0.3181672 0.9433147
-0.0126753 0.3190495 0.9430195
-0.0126694 0.3194518 0.9429085
-0.0124167 0.3202237 0.9426219
-0.0126571 0.3260648 0.9413245
-0.0126888 0.3266851 0.9412167
-0.0127199 0.3273156 0.9411152
-0.0121390 0.3208743 0.9423638
-0.0121155 0.3212406 0.9422583
-0.0120949 0.3225167 0.9419220
-0.0121009 0.3229520 0.9418169
-0.0121194 0.3234097 0.9417156
-0.0121469 0.3239233 0.9416008
-0.0121772 0.3244408 0.9414975
-0.0122156 0.3250049 0.9413860
-0.0117727 0.3217312 0.9420251
-0.0117471 0.3220822 0.9419290
-0.0144449 0.2828473 0.9471321
-0.0145236 0.2832582 0.9471142
-0.0145971 0.2836875 0.9470955
-0.0146653 0.2841352 0.9470714
-0.0142028 0.2846503 0.9467900
-0.0142750 0.2851601 0.9467674
-0.0137694 0.2857983 0.9464555
-0.0129402 0.3096477 0.9451569
-0.0129154 0.3101144 0.9450965
-0.0128906 0.3105410 0.9450254
-0.0128744 0.3109412 0.9449651
-0.0128319 0.3113209 0.9449005
-0.0128020 0.3117649 0.9448176
-0.0128692 0.3080879 0.9452893
-0.0128667 0.3086660 0.9452432
-0.0127745 0.3123866 0.9446986
-0.0127457 0.3128485 0.9445914
-0.0126051 0.2866165 0.9458168
-0.0126632 0.2872133 0.9457908
-0.0126714 0.3056535 0.9453726
-0.0126795 0.3062668 0.9453485
-0.0126917 0.3068710 0.9453224
-0.0127057 0.3136086 0.9444152
-0.0121032 0.2879202 0.9454702
-0.0121677 0.2885106 0.9454519
-0.0122296 0.2891120 0.9454324
-0.0123786 0.3024881 0.9453380
-0.0123939 0.3031338 0.9453405
-0.0124075 0.3037720 0.9453373
-0.0124228 0.3043971 0.9453324
-0.0126519 0.3144508 0.9442110
-0.0126200 0.3149030 0.9440910
-0.0125897 0.3153419 0.9439751
-0.0117020 0.2897290 0.9451485
-0.0117589 0.2903325 0.9451342
-0.0118071 0.2909485 0.9451253
-0.0118509 0.2915741 0.9451166
-0.0118841 0.2922159 0.9451111
-0.0119102 0.2928647 0.9451027
-0.0119715 0.2961292 0.9451112
-0.0119803 0.2967863 0.9451161
-0.0119924 0.2974309 0.9451314
-0.0120065 0.2980737 0.9451489
-0.0120187 0.2987263 0.9451632
-0.0120344 0.2993696 0.9451789
-0.0120551 0.3000126 0.9451977
-0.0120747 0.3006541 0.9452151
-0.0120949 0.3012962 0.9452295
-0.0114444 0.2932685 0.9448951
-0.0114820 0.2938841 0.9449041
-0.0115127 0.2945102 0.9449147
-0.0115509 0.2951279 0.9449310
-0.0124266 0.3167127 0.9435770
-0.0124011 0.3171487 0.9434558
-0.0122622 0.3180854 0.9431625
-0.0121125 0.3189875 0.9428727
-0.0120972 0.3193795 0.9427587
-0.0118929 0.3201819 0.9424767
-0.0120781 0.3261226 0.9411281
-0.0121084 0.3267404 0.9410214
-0.0121354 0.3273652 0.9409203
-0.0116576 0.3208646 0.9422240
-0.0116197 0.3212325 0.9421123
-0.0115684 0.3225177 0.9417611
-0.0115690 0.3229619 0.9416505
-0.0115813 0.3234351 0.9415415
-0.0115993 0.3239549 0.9414227
-0.0116271 0.3244882 0.9413138
-0.0116562 0.3250549 0.9412001
-0.0113260 0.3217547 0.9418845
-0.0112777 0.3221033 0.9417810
-0.0135191 0.2825317 0.9467182
-0.0135831 0.2830337 0.9466845
-0.0136556 0.2835106 0.9466582
-0.0137182 0.2839875 0.9466304
-0.0131970 0.2845477 0.9463121
-0.0132647 0.2850852 0.9462851
-0.0122813 0.3096919 0.9449599
-0.0122493 0.3101416 0.9448981
-0.0122118 0.3105465 0.9448298
-0.0121992 0.3109355 0.9447741
-0.0121598 0.3113099 0.9447117
-0.0121311 0.3117475 0.9446300
-0.0127177 0.2857506 0.9459518
-0.0122241 0.3081405 0.9450914
-0.0122202 0.3087102 0.9450473
-0.0121080 0.3123402 0.9445204
-0.0120745 0.3127931 0.9444169
-0.0120378 0.3057140 0.9451691
-0.0120418 0.3063232 0.9451474
-0.0120493 0.3069238 0.9451207
-0.0120357 0.3135407 0.9442439
-0.0115205 0.2865280 0.9453017
-0.0115822 0.2871356 0.9452777
-0.0117759 0.3031872 0.9451351
-0.0117876 0.3038259 0.9451362
-0.0118004 0.3044518 0.9451338
-0.0119943 0.3143774 0.9440460
-0.0119552 0.3148234 0.9439255
-0.0119135 0.3152543 0.9438094
-0.0110308 0.2878099 0.9449677
-0.0110969 0.2883906 0.9449542
-0.0111589 0.2889865 0.9449399
-0.0114139 0.2968028 0.9448952
-0.0114201 0.2974524 0.9449109
-0.0114286 0.2980985 0.9449276
-0.0114353 0.2987514 0.9449458
-0.0114462 0.2993986 0.9449652
-0.0114606 0.3000447 0.9449858
-0.0114742 0.3006916 0.9450043
-0.0114894 0.3013363 0.9450202
-0.0115020 0.3019834 0.9450354
-0.0106432 0.2895567 0.9446669
-0.0107080 0.2901395 0.9446648
-0.0107686 0.2907328 0.9446637
-0.0108162 0.2913428 0.9446633
-0.0108516 0.2919683 0.9446643
-0.0108896 0.2925921 0.9446650
-0.0109229 0.2932208 0.9446711
-0.0109524 0.2938484 0.9446800
-0.0109737 0.2944883 0.9446877
-0.0110025 0.2951140 0.9447048
-0.0110240 0.2957448 0.9447240
-0.0118008 0.3166325 0.9434181
-0.0117672 0.3170599 0.9432960
-0.0116527 0.3180103 0.9430083
-0.0115202 0.3189240 0.9427188
-0.0114955 0.3193117 0.9426032
-0.0113219 0.3201352 0.9423228
-0.0115795 0.3280403 0.9406256
-0.0111148 0.3208335 0.9420725
-0.0110774 0.3212113 0.9419582
-0.0110902 0.3251177 0.9410103
-0.0111078 0.3256995 0.9409017
-0.0111258 0.3262947 0.9407933
-0.0111492 0.3269143 0.9406865
-0.0108336 0.3217707 0.9417342
-0.0107811 0.3221293 0.9416247
-0.0107379 0.3225355 0.9415061
-0.0107219 0.3229403 0.9413965
-0.0107212 0.3233781 0.9412905
-0.0107046 0.3237689 0.9411923
-0.0106983 0.3241970 0.9410919
-0.0125761 0.2828040 0.9462174
-0.0126444 0.2833374 0.9461817
-0.0127040 0.2838566 0.9461494
-0.0115821 0.3101782 0.9447011
-0.0115342 0.3105654 0.9446341
-0.0115253 0.3109428 0.9445831
-0.0114910 0.3113092 0.9445227
-0.0114494 0.3117320 0.9444384
-0.0121521 0.2844279 0.9458142
-0.0122115 0.2850012 0.9457808
-0.0115789 0.3081985 0.9448928
-0.0115729 0.3087570 0.9448496
-0.0115686 0.3093173 0.9447970
-0.0114331 0.3122980 0.9443393
-0.0113901 0.3127425 0.9442384
-0.0113966 0.3057790 0.9449658
-0.0114007 0.3063846 0.9449481
-0.0114090 0.3069815 0.9449207
-0.0113593 0.3134784 0.9440719
-0.0110120 0.2857456 0.9451281
-0.0111765 0.3045116 0.9449336
-0.0113359 0.3143061 0.9438776
-0.0112860 0.3147462 0.9437582
-0.0112298 0.3151689 0.9436396
-0.0104497 0.2864382 0.9447969
-0.0105102 0.2870404 0.9447777
-0.0105700 0.2876351 0.9447613
-0.0108704 0.3007313 0.9447953
-0.0108844 0.3013775 0.9448134
-0.0108979 0.3020268 0.9448295
-0.0109167 0.3026497 0.9448501
-0.0109373 0.3032706 0.9448583
-0.0100409 0.2882645 0.9444608
-0.0101047 0.2888398 0.9444556
-0.0102687 0.2906454 0.9444425
-0.0104352 0.2944752 0.9444688
-0.0104532 0.2951115 0.9444848
-0.0104692 0.2957479 0.9445051
-0.0104843 0.2963928 0.9445212
-0.0105071 0.2970228 0.9445456
-0.0105268 0.2976569 0.9445730
-0.0105454 0.2982935 0.9445999
-0.0105628 0.2989394 0.9446275
-0.0105833 0.2995713 0.9446568
-0.0111783 0.3165567 0.9432629
-0.0111308 0.3169784 0.9431387
-0.0096519 0.2893337 0.9442221
-0.0097153 0.2898927 0.9442265
-0.0098189 0.2910759 0.9442349
-0.0098610 0.2916705 0.9442438
-0.0098960 0.2922741 0.9442487
-0.0099381 0.2928802 0.9442629
-0.0099768 0.2934909 0.9442791
-0.0110500 0.3179420 0.9428573
-0.0109511 0.3188695 0.9425727
-0.0109074 0.3192479 0.9424537
-0.0107754 0.3200915 0.9421766
-0.0106051 0.3208023 0.9419311
-0.0105642 0.3211921 0.9418114
