-0.1275776 0.2526088 0.8412463
-0.1278348 0.2605768 0.8364676
-0.1278003 0.2574327 0.8378441
-0.1277521 0.2610246 0.8363704
-0.1275488 0.2536412 0.8404800
-0.1276269 0.2556117 0.8390469
-0.1276828 0.2614943 0.8362702
-0.1273242 0.2511143 0.8426554
-0.1272152 0.2503764 0.8433797
-0.1274908 0.2550025 0.8395502
-0.1275087 0.2559081 0.8389290
-0.1275471 0.2568315 0.8383228
-0.1275500 0.2581302 0.8376413
-0.1271491 0.2513316 0.8425907
-0.1274038 0.2639480 0.8359092
-0.1273619 0.2644565 0.8358558
-0.1274434 0.2571956 0.8381899
-0.1273216 0.2649617 0.8358107
-0.1274553 0.2585208 0.8375037
-0.1273804 0.2562391 0.8387802
-0.1274616 0.2602008 0.8368083
-0.1272412 0.2535906 0.8407185
-0.1273861 0.2606391 0.8366969
-0.1271099 0.2528607 0.8413644
-0.1273597 0.2589188 0.8373681
-0.1273380 0.2575786 0.8380484
-0.1273040 0.2610733 0.8366001
-0.1270866 0.2538741 0.8406097
-0.1272616 0.2593429 0.8372489
-0.1272370 0.2615270 0.8365058
-0.1268695 0.2513747 0.8427572
-0.1271720 0.2619747 0.8364289
-0.1267610 0.2506330 0.8434769
-0.1271705 0.2597933 0.8371278
-0.1271090 0.2624569 0.8363433
-0.1270512 0.2629349 0.8362747
-0.1269946 0.2634174 0.8362080
-0.1267094 0.2515970 0.8426786
-0.1269492 0.2639120 0.8361503
-0.1269056 0.2644106 0.8360989
-0.1268644 0.2555072 0.8396003
-0.1268930 0.2564170 0.8389771
-0.1267486 0.2538319 0.8408635
-0.1268973 0.2590243 0.8375934
-0.1268590 0.2577151 0.8382583
-0.1267306 0.2548192 0.8401458
-0.1267453 0.2558187 0.8394643
-0.1267755 0.2567551 0.8388238
-0.1268072 0.2594378 0.8374719
-0.1267833 0.2615651 0.8367496
-0.1266113 0.2541071 0.8407514
-0.1267628 0.2581174 0.8381153
-0.1267158 0.2619980 0.8366717
-0.1267212 0.2598726 0.8373513
-0.1266707 0.2571308 0.8386871
-0.1266510 0.2624630 0.8365881
-0.1266599 0.2585379 0.8379683
-0.1265902 0.2629265 0.8365196
-0.1263641 0.2526224 0.8420727
-0.1266386 0.2603248 0.8372256
-0.1265320 0.2633972 0.8364598
-0.1265578 0.2607937 0.8371061
-0.1261547 0.2511015 0.8434960
-0.1264749 0.2612661 0.8370025
-0.1263595 0.2557026 0.8397861
-0.1263904 0.2565923 0.8391682
-0.1260189 0.2513135 0.8434052
-0.1262939 0.2569264 0.8390289
-0.1262457 0.2560098 0.8396523
-0.1262886 0.2582601 0.8383278
-0.1261242 0.2643281 0.8365267
-0.1261938 0.2572933 0.8388873
-0.1260011 0.2536154 0.8415220
-0.1260841 0.2648600 0.8364652
-0.1261941 0.2586644 0.8381845
-0.1261936 0.2603997 0.8374573
-0.1259917 0.2546262 0.8407816
-0.1261153 0.2608471 0.8373456
-0.1260851 0.2576881 0.8387344
-0.1260972 0.2590740 0.8380497
-0.1258657 0.2538889 0.8414062
-0.1260299 0.2613069 0.8372471
-0.1259948 0.2595073 0.8379191
-0.1259598 0.2617723 0.8371548
-0.1256574 0.2523398 0.8427937
-0.1258816 0.2567735 0.8393734
-0.1258359 0.2559075 0.8399785
-0.1258959 0.2622562 0.8370617
-0.1259030 0.2599780 0.8377778
-0.1254681 0.2508192 0.8442344
-0.1258290 0.2627571 0.8369720
-0.1257941 0.2570925 0.8392470
-0.1257704 0.2632573 0.8369028
-0.1257355 0.2561954 0.8398495
-0.1257958 0.2583900 0.8385535
-0.1257170 0.2637718 0.8368325
-0.1257019 0.2574540 0.8391012
-0.1257325 0.2604652 0.8376960
-0.1257149 0.2587864 0.8384142
-0.1255096 0.2538597 0.8416680
-0.1256592 0.2609001 0.8375826
-0.1255055 0.2548448 0.8409437
-0.1256041 0.2578328 0.8389506
-0.1256295 0.2591829 0.8382747
-0.1255771 0.2613524 0.8374833
-0.1253857 0.2541231 0.8415471
-0.1255395 0.2596056 0.8381455
-0.1255048 0.2618025 0.8373994
-0.1251800 0.2526005 0.8429071
-0.1254367 0.2622668 0.8373116
-0.1254541 0.2600594 0.8380077
-0.1253139 0.2647725 0.8368828
-0.1252839 0.2653336 0.8368264
-0.1250014 0.2510691 0.8443362
-0.1253685 0.2627553 0.8372231
-0.1253074 0.2632453 0.8371551
-0.1252530 0.2637466 0.8370845
-0.1252937 0.2572632 0.8394606
-0.1248948 0.2512674 0.8442365
-0.1252119 0.2576036 0.8393212
-0.1251098 0.2557549 0.8405569
-0.1250082 0.2541063 0.8418217
-0.1251293 0.2566796 0.8398959
-0.1251609 0.2592950 0.8385024
-0.1250071 0.2550634 0.8411113
-0.1251208 0.2579784 0.8391621
-0.1250102 0.2560653 0.8404034
-0.1248970 0.2543603 0.8416990
-0.1250784 0.2596988 0.8383734
-0.1250286 0.2583816 0.8390130
-0.1249968 0.2601384 0.8382452
-0.1246940 0.2528555 0.8430293
-0.1248587 0.2647163 0.8371317
-0.1248239 0.2652654 0.8370776
-0.1249396 0.2588010 0.8388635
-0.1249169 0.2605984 0.8381170
-0.1248387 0.2610695 0.8379958
-0.1247650 0.2615557 0.8378894
-0.1246916 0.2620444 0.8377924
-0.1246020 0.2559532 0.8407454
-0.1246336 0.2568413 0.8401040
-0.1246443 0.2581173 0.8393874
-0.1246222 0.2625525 0.8376937
-0.1245000 0.2552758 0.8412863
-0.1245534 0.2630717 0.8375978
-0.1245513 0.2571851 0.8399637
-0.1245038 0.2562519 0.8405891
-0.1245508 0.2585162 0.8392346
-0.1244947 0.2636004 0.8375169
-0.1244434 0.2641304 0.8374485
-0.1242957 0.2538554 0.8424880
-0.1243992 0.2646649 0.8373877
-0.1244557 0.2575573 0.8398090
-0.1243576 0.2652004 0.8373320
-0.1244614 0.2589293 0.8390806
-0.1244618 0.2606598 0.8383578
-0.1241801 0.2541229 0.8423574
-0.1243824 0.2611142 0.8382411
-0.1243750 0.2593451 0.8389433
-0.1240286 0.2525519 0.8437367
-0.1238961 0.2510038 0.8451749
-0.1243067 0.2615884 0.8381350
-0.1242808 0.2597864 0.8388144
-0.1242381 0.2620641 0.8380380
-0.1238300 0.2511719 0.8450675
-0.1241703 0.2625594 0.8379422
-0.1240953 0.2561437 0.8409461
-0.1241323 0.2570090 0.8403180
-0.1241916 0.2602778 0.8386658
-0.1241453 0.2582547 0.8396165
-0.1241008 0.2630632 0.8378534
-0.1239943 0.2554838 0.8414712
-0.1240391 0.2635806 0.8377731
-0.1240517 0.2573398 0.8401840
-0.1240010 0.2564291 0.8407918
-0.1240600 0.2586436 0.8394680
-0.1239875 0.2640978 0.8377035
-0.1239410 0.2646202 0.8376398
-0.1238966 0.2651461 0.8375861
-0.1237964 0.2540956 0.8426406
-0.1239623 0.2577035 0.8400271
-0.1239959 0.2607196 0.8386042
-0.1239824 0.2590439 0.8393163
-0.1347999 0.2594904 0.8331558
-0.1347340 0.2598628 0.8330575
-0.1346661 0.2602439 0.8329738
-0.1346077 0.2606210 0.8328977
-0.1345542 0.2609883 0.8328273
-0.1344887 0.2613734 0.8327632
-0.1340919 0.2566459 0.8347251
-0.1340850 0.2579597 0.8341170
-0.1340804 0.2596013 0.8334691
-0.1340067 0.2600032 0.8333713
-0.1339968 0.2583666 0.8339892
-0.1339899 0.2570366 0.8345879
-0.1338306 0.2531558 0.8369504
-0.1339410 0.2604289 0.8332828
-0.1339154 0.2587773 0.8338548
-0.1338759 0.2608356 0.8332048
-0.1338845 0.2574514 0.8344448
-0.1337941 0.2541449 0.8363386
-0.1338126 0.2612574 0.8331227
-0.1338529 0.2592271 0.8337274
-0.1337588 0.2616811 0.8330579
-0.1336764 0.2534903 0.8368135
-0.1337014 0.2621190 0.8330014
-0.1336585 0.2544905 0.8362027
-0.1336439 0.2625604 0.8329495
-0.1335935 0.2630139 0.8328986
-0.1336424 0.2567523 0.8349078
-0.1335653 0.2558283 0.8354511
-0.1335276 0.2548456 0.8360454
-0.1335400 0.2571455 0.8347711
-0.1334468 0.2562085 0.8353021
-0.1333116 0.2640385 0.8328951
-0.1333984 0.2552101 0.8358921
-0.1334378 0.2575560 0.8346266
-0.1333380 0.2579845 0.8344919
-0.1330160 0.2512386 0.8387963
-0.1330451 0.2651737 0.8329158
-0.1328657 0.2505072 0.8394543
-0.1329590 0.2522825 0.8380589
-0.1327176 0.2497774 0.8401387
-0.1328184 0.2515627 0.8386711
-0.1325078 0.2496952 0.8403641
-0.1322838 0.2499977 0.8402439
-0.1378781 0.2536303 0.8345739
-0.1378506 0.2555581 0.8334591
-0.1378022 0.2539653 0.8344045
-0.1377787 0.2549591 0.8338283
-0.1377889 0.2559091 0.8332930
-0.1377925 0.2567995 0.8328384
-0.1377341 0.2543131 0.8342307
-0.1377523 0.2571738 0.8326883
-0.1377364 0.2562605 0.8331328
-0.1376873 0.2575470 0.8325434
-0.1374749 0.2509595 0.8365386
-0.1374294 0.2502337 0.8370965
-0.1376391 0.2579287 0.8324059
-0.1375823 0.2583233 0.8322702
-0.1374389 0.2527338 0.8353468
-0.1373648 0.2512987 0.8363549
-0.1373977 0.2520196 0.8358431
-0.1375333 0.2587136 0.8321268
-0.1374869 0.2591394 0.8319976
-0.1374107 0.2537649 0.8347145
-0.1373501 0.2530689 0.8351743
-0.1374246 0.2595707 0.8318713
-0.1373269 0.2540987 0.8345525
-0.1373660 0.2600242 0.8317544
-0.1373450 0.2568894 0.8330034
-0.1373211 0.2604750 0.8316489
-0.1372765 0.2609341 0.8315470
-0.1373001 0.2572636 0.8328541
-0.1372429 0.2544436 0.8343881
-0.1372682 0.2563561 0.8333033
-0.1372315 0.2614168 0.8314499
-0.1372367 0.2554248 0.8338221
-0.1371937 0.2618999 0.8313658
-0.1371626 0.2623932 0.8312858
-0.1372299 0.2576366 0.8327189
-0.1371386 0.2629020 0.8312116
-0.1371750 0.2548061 0.8342065
-0.1369979 0.2511153 0.8366640
-0.1371714 0.2557865 0.8336491
-0.1371683 0.2580116 0.8325876
-0.1369348 0.2503900 0.8372215
-0.1368685 0.2496598 0.8378060
-0.1371048 0.2583922 0.8324603
-0.1369747 0.2528771 0.8354807
-0.1369563 0.2639558 0.8311410
-0.1369305 0.2645038 0.8310921
-0.1369114 0.2650562 0.8310484
-0.1369151 0.2521664 0.8359762
-0.1370591 0.2587799 0.8323257
-0.1368744 0.2514526 0.8364860
-0.1370100 0.2591894 0.8322043
-0.1368721 0.2532091 0.8353131
-0.1369460 0.2596121 0.8320822
-0.1368593 0.2542289 0.8346995
-0.1368825 0.2600493 0.8319729
-0.1367795 0.2535527 0.8351426
-0.1368361 0.2604841 0.8318757
-0.1368149 0.2564555 0.8334688
-0.1367852 0.2609252 0.8317806
-0.1367663 0.2545728 0.8345410
-0.1365316 0.2495062 0.8381097
-0.1367988 0.2577244 0.8328845
-0.1367709 0.2555433 0.8339822
-0.1367304 0.2613922 0.8316885
-0.1367469 0.2568175 0.8333243
-0.1366886 0.2618629 0.8316085
-0.1367341 0.2580962 0.8327574
-0.1366556 0.2623433 0.8315330
-0.1366871 0.2549253 0.8343675
-0.1365290 0.2512773 0.8367892
-0.1366976 0.2558986 0.8338133
-0.1366316 0.2628380 0.8314629
-0.1364606 0.2505562 0.8373449
-0.1366799 0.2572111 0.8331764
-0.1366680 0.2584671 0.8326391
-0.1363834 0.2498291 0.8379291
-0.1365207 0.2530284 0.8356102
-0.1366090 0.2588523 0.8325099
-0.1364462 0.2523229 0.8361075
-0.1363973 0.2516139 0.8366167
-0.1364532 0.2638971 0.8313879
-0.1365564 0.2592486 0.8323912
-0.1364098 0.2533580 0.8354537
-0.1364874 0.2596601 0.8322797
-0.1364062 0.2543638 0.8348408
-0.1364256 0.2600834 0.8321769
-0.1363758 0.2605055 0.8320884
-0.1362388 0.2650006 0.8313749
-0.1363090 0.2536980 0.8352903
-0.1363703 0.2565547 0.8336304
-0.1363608 0.2578040 0.8330573
-0.1363170 0.2609287 0.8320022
-0.1363045 0.2547040 0.8346912
-0.1363189 0.2556625 0.8341333
-0.1362591 0.2613804 0.8319183
-0.1362916 0.2569090 0.8334955
-0.1362910 0.2581685 0.8329369
-0.1362176 0.2618358 0.8318414
-0.1362153 0.2550476 0.8345249
-0.1362332 0.2560098 0.8339892
-0.1362177 0.2572903 0.8333587
-0.1362161 0.2585385 0.8328188
-0.1361586 0.2589222 0.8326980
-0.1361062 0.2593070 0.8325859
-0.1360183 0.2627842 0.8317600
-0.1359837 0.2633070 0.8316919
-0.1359525 0.2638323 0.8316354
-0.1358512 0.2510643 0.8372954
-0.1360374 0.2597059 0.8324775
-0.1357573 0.2503379 0.8378855
-0.1359578 0.2544978 0.8349810
-0.1359743 0.2601189 0.8323823
-0.1358615 0.2528195 0.8360797
-0.1357979 0.2521227 0.8365794
-0.1356528 0.2496029 0.8385073
-0.1359199 0.2605304 0.8322949
-0.1358465 0.2538431 0.8354380
-0.1357094 0.2514024 0.8371281
-0.1358659 0.2609375 0.8322134
-0.1357405 0.2649432 0.8316226
-0.1358473 0.2548323 0.8348394
-0.1357465 0.2531593 0.8359178
-0.1358068 0.2613669 0.8321343
-0.1358507 0.2570120 0.8336645
-0.1358541 0.2582498 0.8331166
-0.1357609 0.2618056 0.8320663
-0.1357506 0.2551740 0.8346875
-0.1357812 0.2586130 0.8329983
-0.1357577 0.2573796 0.8335346
-0.1357217 0.2589934 0.8328845
-0.1357046 0.2564762 0.8340009
-0.1356554 0.2555400 0.8345308
-0.1356848 0.2577812 0.8333972
-0.1356699 0.2593653 0.8327794
-0.1355234 0.2627367 0.8320052
-0.1355999 0.2597528 0.8326703
-0.1354889 0.2632484 0.8319397
-0.1355627 0.2559225 0.8343612
-0.1354590 0.2637642 0.8318840
-0.1355334 0.2601562 0.8325796
-0.1352883 0.2505177 0.8380078
-0.1354066 0.2529805 0.8362128
-0.1354728 0.2605570 0.8325014
-0.1353329 0.2522913 0.8367102
-0.1351870 0.2497904 0.8386219
-0.1354198 0.2609484 0.8324235
-0.1353574 0.2613627 0.8323499
-0.1352399 0.2648760 0.8318687
-0.1352803 0.2533192 0.8360597
-0.1351232 0.2508492 0.8378481
-0.1353057 0.2617850 0.8322902
-0.1352750 0.2543362 0.8354347
-0.1351608 0.2536639 0.8359029
-0.1352432 0.2594230 0.8329685
-0.1352390 0.2578609 0.8335798
-0.1351943 0.2556677 0.8346920
-0.1351628 0.2546868 0.8352695
-0.1349647 0.2511799 0.8376892
-0.1351736 0.2598055 0.8328625
-0.1351618 0.2569533 0.8340294
-0.1351672 0.2582493 0.8334519
-0.1350361 0.2626845 0.8322470
-0.1351004 0.2560436 0.8345346
-0.1351014 0.2601987 0.8327731
-0.1350025 0.2631857 0.8321834
-0.1350586 0.2550489 0.8351032
-0.1350997 0.2586412 0.8333155
-0.1348268 0.2506962 0.8381231
-0.1349630 0.2531444 0.8363371
-0.1350697 0.2573601 0.8338874
-0.1350441 0.2605884 0.8327002
-0.1348791 0.2524610 0.8368323
-0.1350383 0.2590627 0.8331911
-0.1349900 0.2609697 0.8326223
-0.1350028 0.2564295 0.8343774
-0.1349237 0.2613681 0.8325551
-0.1348263 0.2534778 0.8362001
-0.1347735 0.2642631 0.8321577
-0.1346593 0.2510330 0.8379697
-0.1347440 0.2648010 0.8321167
-0.1348208 0.2544841 0.8355805
-0.1347992 0.2579479 0.8337634
-0.1346986 0.2538211 0.8360484
-0.1347377 0.2557890 0.8348533
-0.1347068 0.2548280 0.8354320
-0.1344077 0.2495665 0.8392429
-0.1344947 0.2513666 0.8378170
-0.1347158 0.2570559 0.8342102
-0.1347207 0.2583288 0.8336418
-0.1346107 0.2621635 0.8325492
-0.1346419 0.2561596 0.8347043
-0.1345656 0.2626367 0.8324861
-0.1346446 0.2587143 0.8335109
-0.1345891 0.2551789 0.8352711
-0.1345239 0.2631222 0.8324258
-0.1346178 0.2574511 0.8340725
-0.1345835 0.2591319 0.8333882
-0.1345474 0.2565398 0.8345515
-0.1342079 0.2512241 0.8380950
-0.1342784 0.2529752 0.8368190
-0.1342804 0.2641896 0.8324054
-0.1340935 0.2505036 0.8387038
-0.1341603 0.2522737 0.8373570
-0.1342435 0.2539851 0.8361968
-0.1339536 0.2497706 0.8393623
-0.1340358 0.2515578 0.8379419
-0.1341323 0.2533162 0.8366764
-0.1341493 0.2621366 0.8327809
-0.1341148 0.2543329 0.8360451
-0.1340991 0.2625971 0.8327225
-0.1341347 0.2553198 0.8354387
-0.1340519 0.2630643 0.8326669
-0.1340173 0.2556944 0.8352788
-0.1339843 0.2546975 0.8358872
-0.1337608 0.2514181 0.8382183
-0.1336560 0.2507081 0.8388161
-0.1337923 0.2641150 0.8326520
-0.1339055 0.2560882 0.8351226
-0.1335870 0.2517569 0.8380722
-0.1335368 0.2652616 0.8326671
-0.1334147 0.2520913 0.8379326
-0.1331617 0.2495713 0.8400375
-0.1411484 0.2496201 0.8358450
-0.1413152 0.2548509 0.8323213
-0.1412882 0.2552126 0.8321206
-0.1412614 0.2558329 0.8317806
-0.1410974 0.2503657 0.8353143
-0.1412406 0.2562020 0.8315973
-0.1412381 0.2571094 0.8311552
-0.1412181 0.2565896 0.8314134
-0.1410527 0.2506940 0.8350946
-0.1412089 0.2574970 0.8309812
-0.1410061 0.2514524 0.8345857
-0.1411133 0.2579017 0.8308432
-0.1409619 0.2521959 0.8341035
-0.1410693 0.2583743 0.8306583
-0.1409278 0.2525259 0.8339029
-0.1408993 0.2528589 0.8337021
-0.1408631 0.2535843 0.8332683
-0.1408364 0.2539291 0.8330725
-0.1408116 0.2542804 0.8328742
-0.1407912 0.2549523 0.8324859
-0.1406085 0.2497517 0.8359713
-0.1407641 0.2553073 0.8322893
-0.1407398 0.2559253 0.8319602
-0.1405694 0.2504966 0.8354424
-0.1407179 0.2562893 0.8317799
-0.1407172 0.2571846 0.8313489
-0.1406979 0.2566719 0.8315997
-0.1406900 0.2575684 0.8311859
-0.1405193 0.2508253 0.8352253
-0.1404793 0.2515812 0.8347190
-0.1405945 0.2587816 0.8307112
-0.1405932 0.2579533 0.8310501
-0.1404503 0.2523224 0.8342379
-0.1405524 0.2584132 0.8308709
-0.1404069 0.2526491 0.8340439
-0.1403731 0.2529826 0.8338475
-0.1403424 0.2536979 0.8334210
-0.1403126 0.2540422 0.8332292
-0.1402876 0.2543921 0.8330337
-0.1402723 0.2550502 0.8326512
-0.1400775 0.2498868 0.8360963
-0.1402467 0.2554076 0.8324618
-0.1402359 0.2560212 0.8321390
-0.1400490 0.2506287 0.8355699
-0.1402047 0.2563729 0.8319567
-0.1401874 0.2567531 0.8317838
-0.1401787 0.2576347 0.8313849
-0.1399927 0.2509613 0.8353599
-0.1401563 0.2571492 0.8316099
-0.1401425 0.2580103 0.8312290
-0.1401103 0.2584042 0.8310762
-0.1399643 0.2517092 0.8348544
-0.1400806 0.2588262 0.8309245
-0.1399489 0.2524504 0.8343714
-0.1400355 0.2592540 0.8307829
-0.1399921 0.2597155 0.8306480
-0.1398985 0.2527780 0.8341831
-0.1398560 0.2531095 0.8339932
-0.1398164 0.2534510 0.8338009
-0.1397718 0.2538079 0.8336039
-0.1397683 0.2545050 0.8331945
-0.1397667 0.2551525 0.8328121
-0.1395567 0.2500229 0.8362200
-0.1397359 0.2555098 0.8326266
-0.1397386 0.2561110 0.8323059
-0.1395413 0.2507604 0.8356953
-0.1397071 0.2564673 0.8321405
-0.1396824 0.2568391 0.8319673
-0.1396713 0.2577085 0.8315753
-0.1396478 0.2572292 0.8317956
-0.1394743 0.2510956 0.8354908
-0.1396326 0.2580788 0.8314260
-0.1396031 0.2584617 0.8312852
-0.1394617 0.2518429 0.8349906
-0.1395741 0.2588739 0.8311329
-0.1394582 0.2525786 0.8345082
-0.1393974 0.2529017 0.8343232
-0.1394787 0.2597366 0.8308733
-0.1394473 0.2601824 0.8307509
-0.1394248 0.2594676 0.8309818
-0.1393456 0.2532341 0.8341388
-0.1392996 0.2535771 0.8339480
-0.1393014 0.2609818 0.8305893
-0.1392540 0.2539342 0.8337576
-0.1392742 0.2552549 0.8329784
-0.1392554 0.2546158 0.8333528
-0.1390436 0.2494296 0.8368993
-0.1392506 0.2561933 0.8324768
-0.1390493 0.2501677 0.8363474
-0.1392326 0.2556107 0.8327952
-0.1390419 0.2509021 0.8358243
-0.1392097 0.2565536 0.8323186
-0.1391797 0.2569198 0.8321499
-0.1391662 0.2577817 0.8317709
-0.1391445 0.2573114 0.8319884
-0.1389667 0.2512390 0.8356273
-0.1391287 0.2581423 0.8316317
-0.1390965 0.2585160 0.8314915
-0.1389817 0.2527093 0.8346392
-0.1390646 0.2589244 0.8313465
-0.1388908 0.2515763 0.8354292
-0.1389132 0.2530364 0.8344630
-0.1389688 0.2597580 0.8310987
-0.1389314 0.2601941 0.8309829
-0.1388477 0.2533658 0.8342821
-0.1389139 0.2594875 0.8312068
-0.1387905 0.2537098 0.8340996
-0.1387910 0.2609708 0.8308286
-0.1387936 0.2553560 0.8331376
-0.1387368 0.2540636 0.8339121
-0.1387519 0.2614833 0.8307215
-0.1387797 0.2562809 0.8326453
-0.1387524 0.2547336 0.8335125
-0.1385328 0.2495824 0.8370289
-0.1387226 0.2619967 0.8306297
-0.1386930 0.2625220 0.8305396
-0.1387402 0.2557071 0.8329663
-0.1386657 0.2630583 0.8304575
-0.1387337 0.2566377 0.8324926
-0.1386971 0.2570060 0.8323337
-0.1384311 0.2499121 0.8368279
-0.1384563 0.2506468 0.8362778
-0.1386517 0.2573908 0.8321745
-0.1386087 0.2577888 0.8320233
-0.1385628 0.2581888 0.8318726
-0.1383609 0.2509806 0.8360865
-0.1384106 0.2646490 0.8303652
-0.1383828 0.2652115 0.8303216
-0.1383787 0.2517187 0.8355670
-0.1385227 0.2586005 0.8317160
-0.1384008 0.2524493 0.8350716
-0.1384720 0.2590542 0.8315702
-0.1383584 0.2534978 0.8344287
-0.1383273 0.2527879 0.8348876
-0.1384095 0.2595116 0.8314283
-0.1383656 0.2599884 0.8313009
-0.1382915 0.2538379 0.8342525
-0.1383192 0.2604667 0.8311860
-0.1383169 0.2554541 0.8333006
-0.1382815 0.2609571 0.8310687
-0.1382609 0.2548449 0.8336706
-0.1382338 0.2541907 0.8340685
-0.1382415 0.2614576 0.8309666
-0.1382620 0.2558104 0.8331268
-0.1380322 0.2497347 0.8371534
-0.1382660 0.2567195 0.8326621
-0.1382110 0.2619635 0.8308757
-0.1381823 0.2624803 0.8307882
-0.1381537 0.2630082 0.8307067
-0.1382255 0.2570893 0.8325103
-0.1382136 0.2561714 0.8329584
-0.1381676 0.2574689 0.8323601
-0.1379613 0.2507998 0.8364059
-0.1379250 0.2500691 0.8369585
-0.1381248 0.2578595 0.8322137
-0.1379597 0.2640555 0.8306510
-0.1380735 0.2582551 0.8320696
-0.1379274 0.2646118 0.8306029
-0.1379002 0.2651705 0.8305572
-0.1378567 0.2511370 0.8362194
-0.1378812 0.2518662 0.8357055
-0.1379143 0.2525899 0.8352113
-0.1380278 0.2586561 0.8319189
-0.1379776 0.2590987 0.8317833
-0.1378340 0.2529264 0.8350288
-0.1379146 0.2595393 0.8316531
-0.1378621 0.2600048 0.8315309
-0.1378164 0.2604694 0.8314195
-0.1377764 0.2609429 0.8313089
-0.1377339 0.2614350 0.8312104
-0.1376988 0.2619314 0.8311214
-0.1376679 0.2624398 0.8310354
-0.1376429 0.2629587 0.8309588
-0.1373680 0.2494974 0.8376856
-0.1374586 0.2640076 0.8308955
-0.1374301 0.2645617 0.8308482
-0.1374084 0.2651189 0.8308071
-0.1239203 0.2611591 0.8384876
-0.1239024 0.2594550 0.8391713
-0.1236872 0.2543577 0.8425066
-0.1238464 0.2616235 0.8383826
-0.1234109 0.2512573 0.8452818
-0.1235282 0.2528156 0.8438579
-0.1238192 0.2598792 0.8390361
-0.1237781 0.2620857 0.8382870
-0.1233604 0.2514221 0.8451705
-0.1237069 0.2625687 0.8381955
-0.1237340 0.2603448 0.8389042
-0.1236375 0.2630603 0.8381109
-0.1236499 0.2583793 0.8398523
-0.1235736 0.2635681 0.8380289
-0.1234796 0.2556897 0.8416613
-0.1235563 0.2574866 0.8403985
-0.1235177 0.2640735 0.8379579
-0.1235753 0.2587666 0.8396989
-0.1234696 0.2645803 0.8378954
-0.1234247 0.2650986 0.8378435
-0.1234778 0.2578446 0.8402463
-0.1233957 0.2559709 0.8415185
-0.1235020 0.2591601 0.8395492
-0.1232922 0.2543338 0.8428001
-0.1234117 0.2569048 0.8408424
-0.1234364 0.2595612 0.8394060
-0.1233008 0.2562905 0.8413500
-0.1231922 0.2545918 0.8426638
-0.1233567 0.2599696 0.8392729
-0.1233158 0.2621110 0.8385429
-0.1229118 0.2515146 0.8453962
-0.1230277 0.2530693 0.8439864
-0.1232716 0.2604103 0.8391502
-0.1232423 0.2625809 0.8384509
-0.1228706 0.2516817 0.8452779
-0.1231932 0.2608683 0.8390140
-0.1231166 0.2613557 0.8388813
-0.1230651 0.2576265 0.8406221
-0.1230843 0.2588827 0.8399344
-0.1230451 0.2618465 0.8387721
-0.1230168 0.2592638 0.8397882
-0.1229814 0.2579879 0.8404661
-0.1228856 0.2561630 0.8417149
-0.1227779 0.2545676 0.8429628
-0.1229547 0.2596607 0.8396486
-0.1229066 0.2583605 0.8403138
-0.1227861 0.2555346 0.8422328
-0.1227973 0.2564686 0.8415441
-0.1228918 0.2600583 0.8395215
-0.1228300 0.2633820 0.8384723
-0.1226912 0.2548206 0.8428269
-0.1227712 0.2639207 0.8383873
-0.1227193 0.2644559 0.8383185
-0.1228088 0.2604770 0.8393963
-0.1223532 0.2510173 0.8462301
-0.1225213 0.2533148 0.8441243
-0.1224018 0.2517678 0.8455224
-0.1226756 0.2649984 0.8382590
-0.1227017 0.2568053 0.8413695
-0.1223634 0.2519344 0.8454022
-0.1227338 0.2609185 0.8392644
-0.1226582 0.2613932 0.8391381
-0.1225896 0.2618734 0.8390299
-0.1225873 0.2589933 0.8401830
-0.1225522 0.2577553 0.8408500
-0.1225154 0.2623565 0.8389291
-0.1225203 0.2593674 0.8400376
-0.1224836 0.2581190 0.8406961
-0.1224448 0.2628616 0.8388295
-0.1223729 0.2563538 0.8419158
-0.1224170 0.2572175 0.8412840
-0.1224620 0.2597527 0.8398994
-0.1222540 0.2548004 0.8431288
-0.1224113 0.2584995 0.8405454
-0.1223743 0.2633739 0.8387328
-0.1222681 0.2557500 0.8424119
-0.1224057 0.2601339 0.8397723
-0.1222929 0.2566431 0.8417505
-0.1223135 0.2639019 0.8386457
-0.1221816 0.2550470 0.8429922
-0.1222611 0.2644275 0.8385787
-0.1218789 0.2509529 0.8466166
-0.1223350 0.2605284 0.8396496
-0.1222131 0.2649586 0.8385139
-0.1218594 0.2511104 0.8464844
-0.1220118 0.2535591 0.8442661
-0.1218395 0.2512676 0.8463533
-0.1218891 0.2520200 0.8456505
-0.1222627 0.2609644 0.8395192
-0.1218575 0.2521842 0.8455286
-0.1221890 0.2614275 0.8393920
-0.1221174 0.2618967 0.8392839
-0.1220490 0.2623700 0.8391880
-0.1219791 0.2628688 0.8390903
-0.1219109 0.2573734 0.8415058
-0.1219105 0.2633744 0.8389929
-0.1218490 0.2565340 0.8421086
-0.1219141 0.2586137 0.8407784
-0.1219200 0.2602235 0.8400162
-0.1218481 0.2638926 0.8389036
-0.1217210 0.2550337 0.8432994
-0.1217518 0.2559590 0.8426026
-0.1217934 0.2644074 0.8388346
-0.1218367 0.2577069 0.8413390
-0.1217893 0.2568123 0.8419553
-0.1218414 0.2590059 0.8406228
-0.1218596 0.2605868 0.8399045
-0.1217449 0.2649296 0.8387721
-0.1216637 0.2552731 0.8431645
-0.1217884 0.2610084 0.8397741
-0.1217507 0.2580656 0.8411636
-0.1213413 0.2512127 0.8467456
-0.1217722 0.2593963 0.8404715
-0.1213305 0.2513646 0.8466136
-0.1214967 0.2537973 0.8444135
-0.1213204 0.2515168 0.8464809
-0.1213713 0.2522687 0.8457809
-0.1217156 0.2614622 0.8396525
-0.1217077 0.2598042 0.8403241
-0.1213469 0.2524327 0.8456550
-0.1216438 0.2619199 0.8395490
-0.1215756 0.2623863 0.8394498
-0.1215058 0.2628771 0.8393481
-0.1214408 0.2633757 0.8392513
-0.1213436 0.2567032 0.8423096
-0.1213791 0.2638859 0.8391638
-0.1213224 0.2643914 0.8390934
-0.1213403 0.2578463 0.8415649
-0.1212723 0.2649050 0.8390258
-0.1213533 0.2591122 0.8408608
-0.1211926 0.2552646 0.8434713
-0.1212827 0.2569897 0.8421591
-0.1212311 0.2561604 0.8427877
-0.1211435 0.2554949 0.8433379
-0.1212915 0.2594948 0.8407118
-0.1212593 0.2582111 0.8413918
-0.1212087 0.2573016 0.8419989
-0.1212331 0.2598897 0.8405668
-0.1209795 0.2540317 0.8445615
-0.1211811 0.2586007 0.8412285
-0.1207975 0.2517607 0.8466121
-0.1208499 0.2525118 0.8459158
-0.1211682 0.2603054 0.8404306
-0.1208296 0.2526769 0.8457865
-0.1210840 0.2607299 0.8403055
-0.1210091 0.2611868 0.8401680
-0.1209334 0.2616677 0.8400411
-0.1208310 0.2568802 0.8425182
-0.1208454 0.2579835 0.8417905
-0.1208665 0.2592068 0.8411047
-0.1208642 0.2621549 0.8399347
-0.1207746 0.2571545 0.8423649
-0.1206785 0.2554802 0.8436471
-0.1207051 0.2563655 0.8429760
-0.1208065 0.2595890 0.8409560
-0.1207862 0.2626508 0.8398210
-0.1207670 0.2583381 0.8416252
-0.1207153 0.2574511 0.8422101
-0.1206259 0.2557072 0.8435116
-0.1207533 0.2599764 0.8408146
-0.1207155 0.2631643 0.8397127
-0.1206940 0.2587257 0.8414586
-0.1206478 0.2636899 0.8396113
-0.1204656 0.2542620 0.8447146
-0.1206955 0.2603707 0.8406796
-0.1205876 0.2642178 0.8395278
-0.1203240 0.2527538 0.8460546
-0.1202694 0.2520008 0.8467463
-0.1205331 0.2647543 0.8394514
-0.1206140 0.2607797 0.8405538
-0.1202911 0.2529322 0.8459246
-0.1204849 0.2652976 0.8393835
-0.1205450 0.2612281 0.8404278
-0.1204665 0.2616949 0.8403017
-0.1203370 0.2570403 0.8427216
-0.1203961 0.2621753 0.8401902
-0.1202707 0.2573267 0.8425695
-0.1203199 0.2626643 0.8400769
-0.1201874 0.2565626 0.8431543
-0.1202493 0.2631687 0.8399710
-0.1202069 0.2576253 0.8424123
-0.1201836 0.2636871 0.8398704
-0.1202063 0.2588378 0.8416882
-0.1202163 0.2604349 0.8409340
-0.1200326 0.2552268 0.8442491
-0.1201395 0.2579404 0.8422525
-0.1201238 0.2642071 0.8397841
-0.1199475 0.2544921 0.8448676
-0.1200691 0.2647321 0.8397056
-0.1201450 0.2608295 0.8408050
-0.1201326 0.2592349 0.8415301
-0.1199652 0.2554811 0.8441054
-0.1200215 0.2652676 0.8396355
-0.1198005 0.2529882 0.8461937
-0.1197427 0.2522347 0.8468802
-0.1200614 0.2583142 0.8420854
-0.1200781 0.2612677 0.8406765
-0.1200591 0.2596412 0.8413775
-0.1197548 0.2531798 0.8460608
-0.1200025 0.2617241 0.8405518
-0.1199878 0.2600535 0.8412352
-0.1199302 0.2621929 0.8404420
-0.1198538 0.2626747 0.8403316
-0.1197830 0.2631710 0.8402265
-0.1197213 0.2577709 0.8426297
-0.1197209 0.2636834 0.8401239
-0.1196588 0.2641945 0.8400333
-0.1196299 0.2569836 0.8431992
-0.1196493 0.2580855 0.8424672
-0.1195242 0.2554429 0.8444127
-0.1196055 0.2647127 0.8399554
-0.1196527 0.2593345 0.8417669
-0.1195264 0.2563748 0.8437103
-0.1195592 0.2652393 0.8398849
-0.1194422 0.2547130 0.8450181
-0.1195658 0.2572702 0.8430471
-0.1194530 0.2556976 0.8442705
-0.1195744 0.2584273 0.8423121
-0.1195841 0.2597359 0.8416195
-0.1192780 0.2532186 0.8463296
-0.1192152 0.2524669 0.8470121
-0.1195169 0.2601302 0.8414765
-0.1192189 0.2534203 0.8461995
-0.1194865 0.2588313 0.8421403
-0.1194421 0.2605501 0.8413314
-0.1193663 0.2610021 0.8411901
-0.1192868 0.2614685 0.8410509
-0.1192351 0.2579091 0.8428316
-0.1191404 0.2571469 0.8433859
-0.1192105 0.2619538 0.8409281
-0.1191603 0.2582318 0.8426787
-0.1191719 0.2594301 0.8420017
-0.1190185 0.2556462 0.8445739
-0.1190743 0.2574232 0.8432419
-0.1191337 0.2624455 0.8408136
-0.1190215 0.2565552 0.8438907
-0.1189377 0.2549284 0.8451696
-0.1190893 0.2585566 0.8425242
-0.1191040 0.2598297 0.8418535
-0.1189478 0.2559026 0.8444338
-0.1190558 0.2629499 0.8407020
-0.1187660 0.2534417 0.8464640
-0.1190475 0.2602003 0.8417180
-0.1186969 0.2526917 0.8471442
-0.1189826 0.2634711 0.8405896
-0.1190021 0.2589464 0.8423661
-0.1189799 0.2606074 0.8415751
-0.1189166 0.2640019 0.8404830
-0.1186881 0.2536538 0.8463385
-0.1188573 0.2645385 0.8403952
-0.1189024 0.2610451 0.8414374
-0.1188054 0.2650783 0.8403170
-0.1188226 0.2614989 0.8413064
-0.1187641 0.2580416 0.8430423
-0.1187488 0.2619749 0.8411857
-0.1186589 0.2573153 0.8435692
-0.1186798 0.2583689 0.8428881
-0.1186739 0.2624592 0.8410702
-0.1185125 0.2558486 0.8447385
-0.1185898 0.2575794 0.8434383
-0.1185263 0.2567393 0.8440658
-0.1186049 0.2587025 0.8427338
-0.1185973 0.2629593 0.8409562
-0.1184284 0.2551427 0.8453206
-0.1184379 0.2560975 0.8445963
-0.1185251 0.2634719 0.8408445
-0.1185307 0.2590454 0.8425874
-0.1182558 0.2536613 0.8465962
-0.1184588 0.2639939 0.8407359
-0.1183987 0.2645199 0.8406503
-0.1184361 0.2594542 0.8424316
-0.1183471 0.2650513 0.8405730
-0.1181666 0.2538792 0.8464751
-0.1183655 0.2615262 0.8415568
-0.1183529 0.2598770 0.8422736
-0.1182914 0.2619913 0.8414365
-0.1181928 0.2574734 0.8437507
-0.1182642 0.2603035 0.8421225
-0.1182282 0.2584826 0.8431001
-0.1182144 0.2624683 0.8413211
-0.1181825 0.2607602 0.8419706
-0.1181165 0.2577358 0.8436262
-0.1180279 0.2560403 0.8448949
-0.1181421 0.2588186 0.8429529
-0.1181388 0.2629618 0.8412053
-0.1180563 0.2568982 0.8442418
-0.1180694 0.2634664 0.8410947
-0.1181001 0.2612330 0.8418309
-0.1180419 0.2580277 0.8434861
-0.1180654 0.2591662 0.8428041
-0.1179416 0.2562860 0.8447589
-0.1180041 0.2639813 0.8409879
-0.1177567 0.2538772 0.8467250
-0.1179432 0.2644996 0.8408999
-0.1179766 0.2595343 0.8426645
-0.1178894 0.2650247 0.8408201
-0.1177557 0.2548547 0.8459515
-0.1176538 0.2541021 0.8466064
-0.1178913 0.2599496 0.8425151
-0.1178055 0.2603655 0.8423677
-0.1177321 0.2575957 0.8439428
-0.1177707 0.2585810 0.8433111
-0.1177249 0.2608068 0.8422213
-0.1176449 0.2578762 0.8438168
-0.1176848 0.2589264 0.8431713
-0.1175549 0.2562176 0.8450523
-0.1175863 0.2570518 0.8444190
-0.1176350 0.2612640 0.8420810
-0.1175623 0.2581663 0.8436834
-0.1175962 0.2592692 0.8430312
-0.1174576 0.2564577 0.8449201
-0.1175525 0.2617448 0.8419408
-0.1172731 0.2540873 0.8468485
-0.1175109 0.2596233 0.8428901
-0.1174749 0.2622367 0.8418137
-0.1172664 0.2550609 0.8460908
-0.1174299 0.2600229 0.8427463
-0.1173952 0.2627398 0.8416885
-0.1171551 0.2543164 0.8467354
-0.1173486 0.2604241 0.8426070
-0.1173162 0.2632563 0.8415656
-0.1172460 0.2637774 0.8414598
-0.1172735 0.2608531 0.8424645
-0.1171809 0.2643129 0.8413567
-0.1170922 0.2563819 0.8452059
-0.1171206 0.2648527 0.8412679
-0.1171813 0.2612972 0.8423277
-0.1171381 0.2593583 0.8432482
-0.1170955 0.2583034 0.8438773
-0.1169963 0.2566204 0.8450887
-0.1170357 0.2574565 0.8444577
-0.1171002 0.2617708 0.8421861
-0.1170485 0.2597149 0.8431109
-0.1170162 0.2586096 0.8437383
-0.1170202 0.2622515 0.8420601
-0.1167895 0.2542946 0.8469731
-0.1169453 0.2577405 0.8443256
-0.1168896 0.2568891 0.8449556
-0.1169717 0.2600938 0.8429746
-0.1167807 0.2552600 0.8462319
-0.1169309 0.2589618 0.8435882
-0.1169398 0.2627472 0.8419368
-0.1168887 0.2604745 0.8428424
-0.1166615 0.2545241 0.8468629
-0.1168607 0.2632544 0.8418171
-0.1167938 0.2637718 0.8417112
-0.1168163 0.2608942 0.8427023
-0.1167279 0.2642981 0.8416071
-0.1166679 0.2648308 0.8415180
-0.1167249 0.2613274 0.8425693
-0.1166157 0.2653710 0.8414399
-0.1165768 0.2576041 0.8446314
-0.1166436 0.2617945 0.8424304
-0.1165890 0.2597878 0.8433408
-0.1165526 0.2587431 0.8439351
-0.1165630 0.2622665 0.8423065
-0.1164127 0.2561533 0.8457796
-0.1164818 0.2578828 0.8445080
-0.1165114 0.2601709 0.8432013
-0.1164157 0.2570487 0.8451246
-0.1164826 0.2627512 0.8421869
-0.1164699 0.2590661 0.8438031
-0.1164305 0.2605311 0.8430761
-0.1162941 0.2564147 0.8456452
-0.1164049 0.2632496 0.8420701
-0.1163762 0.2582128 0.8443586
-0.1163744 0.2594274 0.8436499
-0.1163346 0.2637587 0.8419633
-0.1162707 0.2642792 0.8418585
-0.1162130 0.2648080 0.8417694
-0.1160353 0.2549757 0.8468717
-0.1161589 0.2653434 0.8416880
-0.1161257 0.2577506 0.8448056
-0.1161218 0.2598642 0.8435709
-0.1160918 0.2588604 0.8441385
-0.1159535 0.2563275 0.8459193
-0.1160130 0.2580279 0.8446908
-0.1159591 0.2571973 0.8452803
-0.1160347 0.2602364 0.8434361
-0.1159948 0.2591905 0.8440016
-0.1159951 0.2610667 0.8430934
-0.1159589 0.2605964 0.8433104
-0.1159070 0.2583324 0.8445535
-0.1158283 0.2565888 0.8457957
-0.1158960 0.2595146 0.8438732
-0.1158951 0.2615206 0.8429540
-0.1158108 0.2620183 0.8428176
-0.1155611 0.2551840 0.8469978
-0.1157285 0.2625168 0.8426806
-0.1156447 0.2630290 0.8425499
-0.1155722 0.2635530 0.8424322
-0.1155384 0.2611111 0.8433291
-0.1155011 0.2640786 0.8423306
-0.1154464 0.2584665 0.8447380
-0.1154348 0.2646203 0.8422242
-0.1154370 0.2596242 0.8440785
-0.1153733 0.2576276 0.8453224
-0.1153777 0.2651652 0.8421372
-0.1154423 0.2615572 0.8431903
-0.1153397 0.2588024 0.8446079
-0.1152174 0.2560892 0.8465142
-0.1153584 0.2620422 0.8430538
-0.1153478 0.2599636 0.8439646
-0.1152187 0.2570373 0.8458280
-0.1152547 0.2579262 0.8451999
-0.1152769 0.2625321 0.8429249
-0.1152691 0.2603170 0.8438345
-0.1150833 0.2553785 0.8471181
-0.1152333 0.2591674 0.8444579
-0.1150746 0.2563718 0.8463904
-0.1151894 0.2630318 0.8427965
-0.1151758 0.2607241 0.8437007
-0.1151169 0.2635463 0.8426843
-0.1150840 0.2611466 0.8435659
-0.1150447 0.2640681 0.8425802
-0.1149761 0.2645997 0.8424770
-0.1149321 0.2577630 0.8454877
-0.1149865 0.2615853 0.8434296
-0.1149184 0.2651389 0.8423915
-0.1148850 0.2589271 0.8447945
-0.1149041 0.2620623 0.8432999
-0.1148042 0.2580666 0.8453645
-0.1147565 0.2571944 0.8459749
-0.1148215 0.2625442 0.8431700
-0.1147740 0.2592678 0.8446574
-0.1147317 0.2630306 0.8430492
-0.1146802 0.2583892 0.8452260
-0.1147169 0.2607861 0.8439294
-0.1146744 0.2596146 0.8445168
-0.1146594 0.2635368 0.8429405
-0.1146256 0.2611883 0.8438011
-0.1145827 0.2640488 0.8428365
-0.1144481 0.2558426 0.8471265
-0.1145668 0.2599937 0.8443855
-0.1145005 0.2578947 0.8456483
-0.1145132 0.2645737 0.8427333
-0.1145292 0.2616138 0.8436692
-0.1144552 0.2651093 0.8426441
-0.1144436 0.2590425 0.8449811
-0.1144609 0.2604047 0.8442407
-0.1144445 0.2620769 0.8435430
-0.1142768 0.2561355 0.8470057
-0.1143612 0.2581924 0.8455369
-0.1143096 0.2573456 0.8461155
-0.1143230 0.2593786 0.8448461
-0.1142278 0.2585104 0.8454113
-0.1142576 0.2608518 0.8441557
-0.1142123 0.2597102 0.8447304
-0.1141661 0.2612364 0.8440356
-0.1139833 0.2560324 0.8472418
-0.1141080 0.2600816 0.8446022
-0.1140741 0.2616497 0.8439055
-0.1140018 0.2604718 0.8444676
-0.1139883 0.2621032 0.8437834
-0.1139745 0.2627928 0.8435421
-0.1138095 0.2563234 0.8471325
-0.1138931 0.2633152 0.8434132
-0.1138203 0.2638446 0.8432984
-0.1137747 0.2586562 0.8455885
-0.1137464 0.2643793 0.8431903
-0.1137040 0.2577876 0.8461603
-0.1137587 0.2598109 0.8449293
-0.1136828 0.2649271 0.8430915
-0.1136421 0.2589854 0.8454631
-0.1136507 0.2601748 0.8448068
-0.1135140 0.2562158 0.8473635
-0.1135585 0.2581037 0.8460441
-0.1135089 0.2571803 0.8466829
-0.1135491 0.2605451 0.8446859
-0.1135145 0.2593522 0.8453160
-0.1135187 0.2628016 0.8437847
-0.1133355 0.2565052 0.8472507
-0.1134362 0.2633153 0.8436606
-0.1134395 0.2609727 0.8445507
-0.1133584 0.2638366 0.8435494
-0.1133369 0.2613780 0.8444181
-0.1132832 0.2643641 0.8434387
-0.1132166 0.2649036 0.8433398
-0.1132457 0.2618571 0.8442806
-0.1131939 0.2591218 0.8456289
-0.1131541 0.2623289 0.8441512
-0.1130580 0.2594611 0.8454977
-0.1130640 0.2628108 0.8440289
-0.1129541 0.2585885 0.8460701
-0.1129796 0.2633165 0.8439075
-0.1128786 0.2576480 0.8466973
-0.1129487 0.2598189 0.8453726
-0.1128986 0.2638291 0.8438009
-0.1128290 0.2602121 0.8452342
-0.1126878 0.2569912 0.8472595
-0.1127302 0.2579775 0.8465739
-0.1127524 0.2592404 0.8457987
-0.1127108 0.2606401 0.8450938
-0.1126159 0.2595751 0.8456763
-0.1125956 0.2610920 0.8449533
-0.1125078 0.2587255 0.8462408
-0.1124975 0.2599288 0.8455694
-0.1124212 0.2578125 0.8468421
-0.1124888 0.2615418 0.8448096
-0.1124463 0.2647128 0.8437919
-0.1123837 0.2652722 0.8436953
-0.1123915 0.2620417 0.8446712
-0.1123788 0.2603006 0.8454430
-0.1122639 0.2581342 0.8467230
-0.1122136 0.2571660 0.8473912
-0.1122981 0.2625515 0.8445343
-0.1122578 0.2607194 0.8453094
-0.1122044 0.2630651 0.8443971
-0.1121436 0.2611500 0.8451730
-0.1121281 0.2636027 0.8442717
-0.1120520 0.2641441 0.8441524
-0.1120382 0.2600389 0.8457566
-0.1120375 0.2615935 0.8450332
-0.1119794 0.2646900 0.8440398
-0.1119152 0.2652397 0.8439404
-0.1119384 0.2620774 0.8448996
-0.1119005 0.2592029 0.8462831
-0.1119151 0.2604120 0.8456371
-0.1118443 0.2625747 0.8447683
-0.1118006 0.2608096 0.8455141
-0.1117609 0.2595574 0.8461489
-0.1117472 0.2630766 0.8446328
-0.1116495 0.2586273 0.8467546
-0.1116895 0.2612137 0.8453838
-0.1116684 0.2636017 0.8445128
-0.1115653 0.2576467 0.8473934
-0.1115900 0.2641329 0.8443984
-0.1115815 0.2616474 0.8452539
-0.1115146 0.2646669 0.8442896
-0.1114507 0.2652120 0.8441935
-0.1114815 0.2621134 0.8451268
-0.1114132 0.2579832 0.8472680
-0.1114531 0.2605153 0.8458339
-0.1113893 0.2626031 0.8450006
-0.1113390 0.2609052 0.8457182
-0.1112908 0.2630898 0.8448686
-0.1112260 0.2612845 0.8455903
-0.1111816 0.2587781 0.8469143
-0.1112085 0.2636029 0.8447532
-0.1111750 0.2600599 0.8462051
-0.1111241 0.2641228 0.8446429
-0.1111239 0.2617137 0.8454690
-0.1110380 0.2591367 0.8467827
-0.1110455 0.2646452 0.8445370
-0.1110221 0.2621578 0.8453480
-0.1109776 0.2651839 0.8444433
-0.1109953 0.2606324 0.8460168
-0.1109331 0.2581426 0.8474188
-0.1109304 0.2626292 0.8452299
-0.1108936 0.2595039 0.8466329
-0.1108803 0.2609937 0.8459128
-0.1108307 0.2631075 0.8451049
-0.1107660 0.2613637 0.8457929
-0.1107134 0.2589297 0.8470697
-0.1107447 0.2636075 0.8449948
-0.1107133 0.2601791 0.8463902
-0.1106567 0.2641203 0.8448872
-0.1106653 0.2617815 0.8456858
-0.1105670 0.2592722 0.8469408
-0.1105731 0.2646343 0.8447817
-0.1105604 0.2622080 0.8455670
-0.1104679 0.2626690 0.8454554
-0.1104302 0.2596357 0.8468077
-0.1103699 0.2631353 0.8453346
-0.1102799 0.2636254 0.8452316
-0.1101886 0.2641293 0.8451276
-0.1101162 0.2606874 0.8464559
-0.1101043 0.2646336 0.8450268
-0.1100818 0.2594127 0.8471003
-0.1100047 0.2610741 0.8463304
-0.1099572 0.2597758 0.8469832
-0.1098961 0.2614735 0.8462082
-0.1098190 0.2588075 0.8475903
-0.1098291 0.2601637 0.8468544
-0.1097276 0.2577861 0.8482342
-0.1097873 0.2619264 0.8460846
-0.1096815 0.2623907 0.8459599
-0.1095783 0.2581255 0.8481000
-0.1095066 0.2570604 0.8488047
-0.1094633 0.2559582 0.8495580
-0.1095863 0.2628719 0.8458344
-0.1094903 0.2633700 0.8457129
-0.1093239 0.2562954 0.8493963
-0.1094213 0.2615679 0.8464083
-0.1094080 0.2638964 0.8455994
-0.1093533 0.2602921 0.8470345
-0.1093264 0.2644220 0.8454891
-0.1093153 0.2620019 0.8462992
-0.1090100 0.2509214 0.8534994
-0.1092509 0.2649555 0.8453826
-0.1092337 0.2606966 0.8469051
-0.1091963 0.2593117 0.8476134
-0.1092100 0.2624524 0.8461819
-0.1089016 0.2512791 0.8532571
-0.1091165 0.2611113 0.8467686
-0.1091158 0.2629185 0.8460622
-0.1090666 0.2596911 0.8474762
-0.1088290 0.2523715 0.8524394
-0.1087963 0.2516384 0.8530130
-0.1090188 0.2634038 0.8459459
-0.1089451 0.2586511 0.8481128
-0.1087208 0.2527250 0.8522112
-0.1088564 0.2575671 0.8487891
-0.1089443 0.2616715 0.8466160
-0.1089333 0.2639172 0.8458324
-0.1088520 0.2644325 0.8457270
-0.1086483 0.2538231 0.8514256
-0.1088416 0.2620828 0.8465096
-0.1086088 0.2530796 0.8519885
-0.1086750 0.2556929 0.8500999
-0.1087171 0.2579300 0.8486434
-0.1087720 0.2649531 0.8456256
-0.1086745 0.2568091 0.8493584
-0.1087541 0.2608195 0.8470916
-0.1085841 0.2549343 0.8506717
-0.1087408 0.2625214 0.8463987
-0.1087069 0.2594440 0.8477776
-0.1084500 0.2510339 0.8536042
-0.1085317 0.2541757 0.8512201
-0.1084208 0.2503226 0.8541745
-0.1085438 0.2560498 0.8499152
-0.1086459 0.2612186 0.8469652
-0.1086467 0.2629698 0.8462847
-0.1083428 0.2513985 0.8533609
-0.1085822 0.2598309 0.8476500
-0.1085469 0.2634419 0.8461735
-0.1082745 0.2525009 0.8525493
-0.1084498 0.2588041 0.8482696
-0.1082398 0.2517631 0.8531157
-0.1084604 0.2602314 0.8475107
-0.1084571 0.2639443 0.8460615
-0.1083490 0.2577257 0.8489303
-0.1081706 0.2528616 0.8523185
-0.1083749 0.2644503 0.8459635
-0.1082931 0.2649602 0.8458662
-0.1081082 0.2539715 0.8515394
-0.1082205 0.2580890 0.8487828
-0.1081454 0.2558469 0.8502260
-0.1080645 0.2532235 0.8520916
-0.1082594 0.2609462 0.8472811
-0.1081607 0.2569701 0.8494948
-0.1081974 0.2595769 0.8479572
-0.1080547 0.2550902 0.8507909
-0.1079948 0.2543311 0.8513269
-0.1081555 0.2613322 0.8471528
-0.1080220 0.2562059 0.8500393
-0.1078798 0.2511406 0.8537097
-0.1078551 0.2504281 0.8542689
-0.1080813 0.2599652 0.8478325
-0.1080564 0.2617567 0.8470398
-0.1077818 0.2515150 0.8534626
-0.1079708 0.2603563 0.8476919
-0.1079395 0.2589501 0.8484290
-0.1079536 0.2621906 0.8469083
-0.1077165 0.2526245 0.8526626
-0.1076888 0.2518885 0.8532161
-0.1078316 0.2578808 0.8490785
-0.1078604 0.2626647 0.8467907
-0.1076217 0.2529915 0.8524232
-0.1077122 0.2582419 0.8489284
-0.1077647 0.2631443 0.8466625
-0.1076134 0.2559977 0.8503619
-0.1075668 0.2541109 0.8516564
-0.1076418 0.2571248 0.8496322
-0.1075273 0.2533643 0.8521925
-0.1076789 0.2636581 0.8465475
-0.1075240 0.2552361 0.8509098
-0.1074650 0.2544818 0.8514357
-0.1074995 0.2563605 0.8501727
-0.1075972 0.2641893 0.8464285
-0.1072895 0.2505286 0.8543658
-0.1073007 0.2512465 0.8538183
-0.1075185 0.2647231 0.8463148
-0.1074660 0.2604867 0.8478775
-0.1074512 0.2652692 0.8462105
-0.1072154 0.2516245 0.8535641
-0.1073657 0.2609079 0.8477423
-0.1073142 0.2594601 0.8484510
-0.1071350 0.2520012 0.8533147
-0.1072859 0.2632070 0.8468821
-0.1072664 0.2613232 0.8475964
-0.1070567 0.2523828 0.8530613
-0.1072044 0.2598612 0.8483082
-0.1071995 0.2637076 0.8467675
-0.1070699 0.2561392 0.8505023
-0.1071692 0.2617869 0.8474641
-0.1069736 0.2527642 0.8528188
-0.1069856 0.2534940 0.8523035
-0.1070852 0.2587764 0.8489367
-0.1071179 0.2642258 0.8466559
-0.1069817 0.2553761 0.8510401
-0.1070009 0.2576419 0.8496024
-0.1069681 0.2565071 0.8503089
-0.1070687 0.2622712 0.8473239
-0.1068933 0.2538789 0.8520663
-0.1070377 0.2647484 0.8465495
-0.1069665 0.2652809 0.8464503
-0.1069738 0.2627862 0.8471875
-0.1068097 0.2542716 0.8518351
-0.1068620 0.2568833 0.8501218
-0.1068905 0.2580289 0.8494325
-0.1067167 0.2506223 0.8544592
-0.1067209 0.2513483 0.8539240
-0.1068750 0.2610279 0.8479283
-0.1066437 0.2517320 0.8536702
-0.1067806 0.2614371 0.8477941
-0.1065699 0.2521118 0.8534199
-0.1066866 0.2618850 0.8476650
-0.1064997 0.2524980 0.8531677
-0.1065723 0.2589186 0.8490954
-0.1066001 0.2604055 0.8483378
-0.1064247 0.2528847 0.8529214
-0.1064310 0.2536184 0.8524168
-0.1065924 0.2623575 0.8475344
-0.1064756 0.2577891 0.8497559
-0.1063486 0.2540100 0.8521798
-0.1064620 0.2593137 0.8489351
-0.1065000 0.2628478 0.8474026
-0.1063420 0.2558911 0.8509632
-0.1063762 0.2581756 0.8495836
-0.1063354 0.2570303 0.8502622
-0.1062939 0.2551470 0.8514660
-0.1062730 0.2544107 0.8519486
-0.1064113 0.2633603 0.8472698
-0.1063773 0.2611448 0.8481209
-0.1063534 0.2597335 0.8487769
-0.1062442 0.2562795 0.8507606
-0.1061408 0.2507171 0.8545562
-0.1063321 0.2639031 0.8471443
-0.1061333 0.2514564 0.8540312
-0.1062600 0.2644504 0.8470212
-0.1061908 0.2650070 0.8469021
-0.1059298 0.2634151 0.8474904
-0.1058495 0.2639404 0.8473706
-0.1057759 0.2644780 0.8472525
-0.1057056 0.2650222 0.8471376
-0.1052897 0.2645185 0.8474805
-0.1052195 0.2650505 0.8473735
-0.1212972 0.2504386 0.8474871
-0.1207657 0.2508482 0.8474614
-0.1207648 0.2510093 0.8473149
-0.1202405 0.2510880 0.8475858
-0.1202298 0.2512481 0.8474452
-0.1196989 0.2505572 0.8484257
-0.1197205 0.2513248 0.8477072
-0.1196966 0.2514844 0.8475744
-0.1191702 0.2507964 0.8485375
-0.1191997 0.2515591 0.8478246
-0.1191636 0.2517223 0.8477032
-0.1186626 0.2509991 0.8486631
-0.1186962 0.2517695 0.8479517
-0.1186377 0.2519459 0.8478319
-0.1181449 0.2512040 0.8487878
-0.1181883 0.2519724 0.8480832
-0.1181812 0.2529128 0.8472740
-0.1181138 0.2521638 0.8479615
-0.1176730 0.2531330 0.8473991
-0.1175090 0.2508486 0.8494953
-0.1175421 0.2516111 0.8487870
-0.1174599 0.2518190 0.8486535
-0.1171760 0.2533470 0.8475202
-0.1169767 0.2510519 0.8496193
-0.1170188 0.2518150 0.8489163
-0.1169222 0.2520395 0.8487771
-0.1165001 0.2520080 0.8490467
-0.1164483 0.2512449 0.8497445
-0.1164611 0.2530118 0.8482149
-0.1163922 0.2522503 0.8489003
-0.1159935 0.2521973 0.8491719
-0.1159273 0.2514402 0.8498692
-0.1160652 0.2539800 0.8476475
-0.1159511 0.2532150 0.8483371
-0.1158685 0.2524526 0.8490242
-0.1159163 0.2542267 0.8475387
-0.1155825 0.2541890 0.8477643
-0.1152802 0.2518972 0.8498330
-0.1154259 0.2544346 0.8476567
-0.1152166 0.2511490 0.8505233
-0.1152155 0.2529180 0.8490001
-0.1151453 0.2521693 0.8496748
-0.1151009 0.2543855 0.8478769
-0.1149403 0.2546345 0.8477720
-0.1147607 0.2520840 0.8499511
-0.1146897 0.2513353 0.8506393
-0.1145778 0.2499039 0.8520079
-0.1146969 0.2531139 0.8491195
-0.1146163 0.2523664 0.8497939
-0.1144229 0.2502028 0.8517977
-0.1143089 0.2540669 0.8485576
-0.1140502 0.2500692 0.8521204
-0.1142866 0.2551005 0.8477703
-0.1140169 0.2518068 0.8505876
-0.1141411 0.2543453 0.8484331
-0.1139517 0.2510780 0.8512516
-0.1138984 0.2503759 0.8519156
-0.1139409 0.2528426 0.8497492
-0.1138638 0.2520946 0.8504179
-0.1138120 0.2553026 0.8478855
-0.1135255 0.2502365 0.8522371
-0.1134946 0.2519900 0.8507010
-0.1134230 0.2512526 0.8513627
-0.1133717 0.2505459 0.8520252
-0.1135171 0.2537820 0.8492038
-0.1134188 0.2530320 0.8498626
-0.1133341 0.2522827 0.8505270
-0.1133558 0.2540780 0.8490551
-0.1131427 0.2500707 0.8525524
-0.1133323 0.2554960 0.8479931
-0.1130001 0.2503939 0.8523492
-0.1129749 0.2521642 0.8508111
-0.1129036 0.2514253 0.8514776
-0.1130084 0.2539679 0.8493177
-0.1128472 0.2507055 0.8521314
-0.1129041 0.2532149 0.8499758
-0.1128142 0.2524632 0.8506351
-0.1128475 0.2542689 0.8491695
-0.1126038 0.2502191 0.8526676
-0.1124667 0.2505426 0.8524599
-0.1126697 0.2559681 0.8479915
-0.1123781 0.2515884 0.8515882
-0.1123246 0.2508603 0.8522417
-0.1124883 0.2552176 0.8486359
-0.1124897 0.2562630 0.8478709
-0.1122282 0.2518967 0.8513908
-0.1122278 0.2536952 0.8499236
-0.1121378 0.2529444 0.8505713
-0.1120813 0.2522098 0.8512019
-0.1119293 0.2506861 0.8525681
-0.1120675 0.2540068 0.8497604
-0.1118806 0.2499609 0.8532241
-0.1117897 0.2510074 0.8523494
-0.1117015 0.2520575 0.8514992
-0.1116494 0.2513274 0.8521325
-0.1118179 0.2557082 0.8486097
-0.1117125 0.2538735 0.8500365
-0.1115254 0.2504961 0.8528973
-0.1116203 0.2531166 0.8506772
-0.1116688 0.2549489 0.8492479
-0.1115564 0.2523739 0.8513044
-0.1116394 0.2560244 0.8484742
-0.1115551 0.2541876 0.8498700
-0.1113911 0.2508250 0.8526799
-0.1112537 0.2511503 0.8524566
-0.1113269 0.2558918 0.8487195
-0.1111725 0.2522147 0.8516106
-0.1113567 0.2569499 0.8479751
-0.1111160 0.2514765 0.8522370
-0.1111936 0.2540461 0.8501502
-0.1110994 0.2532838 0.8507848
-0.1111593 0.2551280 0.8493619
-0.1109687 0.2506217 0.8530177
-0.1110305 0.2525338 0.8514070
-0.1111564 0.2562072 0.8485868
-0.1110417 0.2543626 0.8499773
-0.1108422 0.2509551 0.8527894
-0.1110846 0.2578074 0.8475457
-0.1107129 0.2512884 0.8525662
-0.1108731 0.2571313 0.8481020
-0.1105851 0.2516241 0.8523469
-0.1104565 0.2519569 0.8521226
-0.1104322 0.2537704 0.8507096
-0.1104939 0.2556233 0.8493165
-0.1103681 0.2530209 0.8513155
-0.1103260 0.2522894 0.8519076
-0.1102378 0.2503391 0.8535383
-0.1103854 0.2548633 0.8499243
-0.1102897 0.2540983 0.8505237
-0.1103417 0.2559505 0.8491523
-0.1101226 0.2506881 0.8532992
-0.1100433 0.2517616 0.8524542
-0.1100051 0.2510306 0.8530516
-0.1102205 0.2576198 0.8480898
-0.1099266 0.2521018 0.8522243
-0.1100648 0.2579623 0.8479599
-0.1099803 0.2557953 0.8494374
-0.1099059 0.2539332 0.8508237
-0.1100070 0.2568888 0.8486783
-0.1098437 0.2531782 0.8514219
-0.1098082 0.2524404 0.8520015
-0.1098616 0.2550328 0.8500423
-0.1096843 0.2504548 0.8536420
-0.1097688 0.2542665 0.8506350
-0.1098333 0.2561264 0.8492744
-0.1095701 0.2508083 0.8533997
-0.1094941 0.2518926 0.8525613
-0.1094545 0.2511567 0.8531538
-0.1093787 0.2522395 0.8523318
-0.1093722 0.2540860 0.8509365
-0.1093057 0.2533274 0.8515270
-0.1092640 0.2525849 0.8521048
-0.1093356 0.2551939 0.8501608
-0.1092430 0.2544270 0.8507471
-0.1091203 0.2505646 0.8537486
-0.0991826 0.2649885 0.8503320
-0.0986837 0.2533818 0.8554823
-0.0986810 0.2650968 0.8505468
-0.0986262 0.2538728 0.8552369
-0.0986010 0.2554532 0.8544082
-0.0985597 0.2543734 0.8549980
-0.0985330 0.2559613 0.8541817
-0.0984855 0.2548767 0.8547626
-0.0984582 0.2564663 0.8539572
-0.0984688 0.2645222 0.8508019
-0.0983939 0.2585806 0.8529780
-0.0983778 0.2569757 0.8537401
-0.0983654 0.2628994 0.8513271
-0.0983400 0.2519943 0.8564320
-0.0983267 0.2509540 0.8570474
-0.0982943 0.2524732 0.8561777
-0.0983056 0.2591001 0.8527921
-0.0982914 0.2574884 0.8535344
-0.0982985 0.2634085 0.8512049
-0.0982748 0.2514169 0.8568043
-0.0982749 0.2612485 0.8519421
-0.0982386 0.2529576 0.8559278
-0.0982351 0.2639223 0.8510845
-0.0982154 0.2596132 0.8526153
-0.0981994 0.2580026 0.8533368
-0.0981975 0.2617549 0.8517970
-0.0981779 0.2534502 0.8556769
-0.0981282 0.2601175 0.8524482
-0.0981131 0.2539475 0.8554366
-0.0981239 0.2622588 0.8516584
