0.2626638 0.2857428 0.9219522
0.2626470 0.2863951 0.9219193
0.2626302 0.2870454 0.9218857
0.2626119 0.2876940 0.9218519
0.2625944 0.2883428 0.9218186
0.2625761 0.2889931 0.9217831
0.2625576 0.2896385 0.9217494
0.2625393 0.2902842 0.9217147
0.2625211 0.2909310 0.9216803
0.2625047 0.2915661 0.9216455
0.2624889 0.2921957 0.9216120
0.2624773 0.2928264 0.9215800
0.2624628 0.2934614 0.9215465
0.2623053 0.3022132 0.9210945
0.2623093 0.3028443 0.9210585
0.2623180 0.3034775 0.9210243
0.2623318 0.3041135 0.9209905
0.2623531 0.3047553 0.9209528
0.2623801 0.3054040 0.9209168
0.2623991 0.2713427 0.9224922
0.2622206 0.2744912 0.9224483
0.2621863 0.2751212 0.9224375
0.2621516 0.2757523 0.9224259
0.2621171 0.2763811 0.9224120
0.2627653 0.2788065 0.9222623
0.2627486 0.2794372 0.9222400
0.2627304 0.2800695 0.9222174
0.2627125 0.2807104 0.9221927
0.2626939 0.2813555 0.9221673
0.2625156 0.2946076 0.9214889
0.2625264 0.2952563 0.9214577
0.2625366 0.2959035 0.9214269
0.2626634 0.3004033 0.9212138
0.2626875 0.3010304 0.9211806
0.2627115 0.3016621 0.9211463
0.2624151 0.2721820 0.9224781
0.2623577 0.2727788 0.9224722
0.2622977 0.2733600 0.9224686
0.2622382 0.2739468 0.9224626
0.2627859 0.2762962 0.9223482
0.2627615 0.2769355 0.9223307
0.2627354 0.2775740 0.9223114
0.2627086 0.2782124 0.9222912
0.2627223 0.2969664 0.9213626
0.2627690 0.2975689 0.9213331
0.2628159 0.2981826 0.9212993
0.2628617 0.2987770 0.9212732
0.2629245 0.2993440 0.9212511
0.2629707 0.2999375 0.9212319
0.2633876 0.2818235 0.9220545
0.2633656 0.2824562 0.9220277
0.2633467 0.2831024 0.9219982
0.2633266 0.2837547 0.9219682
0.2633075 0.2844107 0.9219375
0.2632895 0.2850707 0.9219055
0.2632726 0.2857256 0.9218726
0.2632565 0.2863770 0.9218390
0.2632408 0.2870280 0.9218056
0.2632248 0.2876770 0.9217737
0.2632094 0.2883270 0.9217421
0.2631938 0.2889782 0.9217103
0.2631788 0.2896266 0.9216790
0.2631646 0.2902761 0.9216471
0.2631507 0.2909263 0.9216159
0.2631387 0.2915708 0.9215843
0.2631275 0.2922100 0.9215529
0.2631189 0.2928477 0.9215247
0.2631094 0.2934862 0.9214936
0.2629622 0.3034989 0.9210602
0.2629678 0.3041347 0.9210304
0.2629832 0.3047761 0.9209964
0.2630042 0.3054230 0.9209652
0.2630303 0.3060728 0.9209293
0.2630110 0.2713058 0.9224594
0.2629732 0.2719347 0.9224501
0.2629337 0.2725602 0.9224392
0.2628968 0.2731919 0.9224251
0.2628579 0.2738129 0.9224122
0.2628197 0.2744402 0.9223978
0.2627855 0.2750686 0.9223846
0.2627499 0.2757017 0.9223690
0.2634074 0.2781327 0.9222125
0.2633870 0.2787678 0.9221882
0.2633655 0.2794008 0.9221650
0.2633436 0.2800385 0.9221413
0.2633236 0.2806843 0.9221153
0.2633038 0.2813360 0.9220884
0.2631470 0.2946400 0.9214461
0.2631617 0.2952862 0.9214204
0.2631759 0.2959306 0.9213957
0.2633112 0.3004226 0.9212186
0.2633328 0.3010543 0.9211925
0.2633577 0.3016937 0.9211650
0.2633907 0.3023347 0.9211397
0.2634298 0.3029782 0.9211161
0.2633999 0.2762529 0.9222863
0.2633721 0.2768892 0.9222663
0.2633446 0.2775268 0.9222447
0.2633195 0.2970251 0.9213454
0.2633620 0.2976312 0.9213181
0.2634130 0.2982466 0.9212925
0.2634683 0.2988464 0.9212660
0.2635387 0.2994232 0.9212479
0.2636026 0.3000163 0.9212303
0.2639896 0.2818073 0.9219765
0.2639680 0.2824457 0.9219483
0.2639495 0.2830945 0.9219181
0.2639302 0.2837468 0.9218877
0.2639122 0.2844012 0.9218567
0.2638961 0.2850570 0.9218252
0.2638807 0.2857094 0.9217943
0.2638653 0.2863607 0.9217598
0.2638505 0.2870129 0.9217267
0.2638364 0.2876634 0.9216960
0.2638223 0.2883152 0.9216659
0.2638086 0.2889685 0.9216371
0.2637963 0.2896203 0.9216095
0.2637850 0.2902734 0.9215805
0.2637744 0.2909269 0.9215527
0.2637660 0.2915788 0.9215249
0.2637593 0.2922266 0.9214955
0.2637545 0.2928699 0.9214711
0.2637503 0.2935130 0.9214433
0.2636089 0.3035151 0.9210963
0.2636076 0.3041530 0.9210695
0.2636162 0.3047930 0.9210390
0.2636296 0.3054365 0.9210114
0.2636499 0.3060873 0.9209795
0.2636240 0.2712741 0.9224218
0.2635839 0.2719002 0.9224096
0.2635422 0.2725248 0.9223922
0.2635008 0.2731519 0.9223774
0.2634587 0.2737663 0.9223630
0.2634192 0.2743906 0.9223478
0.2633850 0.2750211 0.9223309
0.2633486 0.2756555 0.9223114
0.2640230 0.2780913 0.9221425
0.2639998 0.2787274 0.9221180
0.2639761 0.2793652 0.9220928
0.2639544 0.2800099 0.9220665
0.2639340 0.2806601 0.9220382
0.2639148 0.2813175 0.9220094
0.2637621 0.2946834 0.9214061
0.2637812 0.2953271 0.9213848
0.2638009 0.2959685 0.9213646
0.2639637 0.3004501 0.9212306
0.2639833 0.3010903 0.9212067
0.2640086 0.3017341 0.9211867
0.2640400 0.3023767 0.9211732
0.2640762 0.3030219 0.9211486
0.2644957 0.2880703 0.9215991
0.2644830 0.2887061 0.9215707
0.2644706 0.2893405 0.9215425
0.2644578 0.2899696 0.9215168
0.2644439 0.2905976 0.9214922
0.2644334 0.2912200 0.9214737
0.2644250 0.2918307 0.9214520
0.2640106 0.2762072 0.9222250
0.2639817 0.2768414 0.9222029
0.2639565 0.2774794 0.9221785
0.2639227 0.2970827 0.9213323
0.2639708 0.2976881 0.9213065
0.2640281 0.2983033 0.9212864
0.2640824 0.2989089 0.9212697
0.2641529 0.2994994 0.9212535
0.2642218 0.3000990 0.9212396
0.2647029 0.2786593 0.9220404
0.2646766 0.2792779 0.9220142
0.2646520 0.2798950 0.9219866
0.2645875 0.2817914 0.9219003
0.2645687 0.2824354 0.9218705
0.2645520 0.2830864 0.9218396
0.2645356 0.2837394 0.9218086
0.2645205 0.2843924 0.9217771
0.2645065 0.2850446 0.9217457
0.2644921 0.2856946 0.9217154
0.2644776 0.2863455 0.9216858
0.2644628 0.2869984 0.9216529
0.2644490 0.2876509 0.9216227
0.2643808 0.2928941 0.9214189
0.2643821 0.2935405 0.9213965
0.2643858 0.2941766 0.9213786
0.2642633 0.3035178 0.9211325
0.2642535 0.3041589 0.9211072
0.2642517 0.3048003 0.9210800
0.2642559 0.3054423 0.9210563
0.2642674 0.3060951 0.9210295
0.2642284 0.2712335 0.9223858
0.2641861 0.2718565 0.9223689
0.2641455 0.2724806 0.9223490
0.2641038 0.2731003 0.9223315
0.2640611 0.2737139 0.9223144
0.2640246 0.2743405 0.9222960
0.2639901 0.2749726 0.9222753
0.2639545 0.2756094 0.9222535
0.2646871 0.2767731 0.9221288
0.2646619 0.2774136 0.9221023
0.2646368 0.2780506 0.9220755
0.2645534 0.2806377 0.9219623
0.2645369 0.2812994 0.9219310
0.2643960 0.2953656 0.9213515
0.2644210 0.2960055 0.9213350
0.2644486 0.2966422 0.9213241
0.2645868 0.2998336 0.9212564
0.2646126 0.3004768 0.9212439
0.2646339 0.3011219 0.9212297
0.2646570 0.3017714 0.9212171
0.2646866 0.3024156 0.9212027
0.2647180 0.3030660 0.9211836
0.2651067 0.2880609 0.9215278
0.2650962 0.2886965 0.9215023
0.2650868 0.2893316 0.9214769
0.2650778 0.2899630 0.9214528
0.2650686 0.2905942 0.9214292
0.2650612 0.2912191 0.9214142
0.2650566 0.2918364 0.9213958
0.2647752 0.2729850 0.9222822
0.2647451 0.2736246 0.9222604
0.2647129 0.2742585 0.9222376
0.2646812 0.2748929 0.9222124
0.2646486 0.2755281 0.9221887
0.2646178 0.2761634 0.9221647
0.2645758 0.2977427 0.9212958
0.2646421 0.2983594 0.9212835
0.2646963 0.2989749 0.9212701
0.2647618 0.2995748 0.9212593
0.2653463 0.2779836 0.9220024
0.2653157 0.2786134 0.9219737
0.2652885 0.2792366 0.9219451
0.2652619 0.2798599 0.9219159
0.2652375 0.2804918 0.9218860
0.2652171 0.2811325 0.9218553
0.2651974 0.2817767 0.9218250
0.2651794 0.2824258 0.9217937
0.2651635 0.2830786 0.9217617
0.2651483 0.2837307 0.9217300
0.2651343 0.2843815 0.9216986
0.2651207 0.2850301 0.9216676
0.2651064 0.2856775 0.9216378
0.2650909 0.2863278 0.9216100
0.2650750 0.2869805 0.9215806
0.2650601 0.2876355 0.9215504
0.2649992 0.2929194 0.9213678
0.2650033 0.2935709 0.9213482
0.2650106 0.2942108 0.9213333
0.2650200 0.2948510 0.9213232
0.2650286 0.2954951 0.9213104
0.2648303 0.2711920 0.9223472
0.2647881 0.2718116 0.9223291
0.2647462 0.2724333 0.9223071
0.2653821 0.2748176 0.9221494
0.2653567 0.2754557 0.9221222
0.2653301 0.2760947 0.9220944
0.2653025 0.2767332 0.9220665
0.2652769 0.2773734 0.9220385
0.2650712 0.2966790 0.9212991
0.2651057 0.2973122 0.9212942
0.2651355 0.2979418 0.9212821
0.2651730 0.2985775 0.9212753
0.2652067 0.2992140 0.9212717
0.2652372 0.2998550 0.9212684
0.2652648 0.3004999 0.9212625
0.2652882 0.3011484 0.9212559
0.2653099 0.3018029 0.9212480
0.2653367 0.3024471 0.9212393
0.2653627 0.3030980 0.9212261
0.2653886 0.3037492 0.9212122
0.2654140 0.3044085 0.9211934
0.2654435 0.3050610 0.9211751
0.2654794 0.3057093 0.9211549
0.2657113 0.2880502 0.9214604
0.2657021 0.2886867 0.9214368
0.2656943 0.2893234 0.9214138
0.2656877 0.2899579 0.9213923
0.2656821 0.2905933 0.9213704
0.2656776 0.2912214 0.9213578
0.2656763 0.2918447 0.9213427
0.2654668 0.2710135 0.9223142
0.2654459 0.2716653 0.9222884
0.2654204 0.2723119 0.9222615
0.2653906 0.2729520 0.9222362
0.2653562 0.2735854 0.9222104
0.2653209 0.2742156 0.9221851
0.2659564 0.2779389 0.9219388
0.2659243 0.2785701 0.9219086
0.2658966 0.2791991 0.9218775
0.2658701 0.2798294 0.9218457
0.2658465 0.2804687 0.9218143
0.2658267 0.2811151 0.9217826
0.2658085 0.2817643 0.9217507
0.2657926 0.2824175 0.9217177
0.2657783 0.2830709 0.9216855
0.2657650 0.2837217 0.9216534
0.2657521 0.2843696 0.9216222
0.2657391 0.2850138 0.9215916
0.2657256 0.2856578 0.9215620
0.2657096 0.2863075 0.9215357
0.2656924 0.2869594 0.9215082
0.2656755 0.2876164 0.9214808
0.2656130 0.2929449 0.9213196
0.2656202 0.2936005 0.9213050
0.2656323 0.2942429 0.9212954
0.2656485 0.2948789 0.9212901
0.2656637 0.2955190 0.9212815
0.2659986 0.2747823 0.9220960
0.2659703 0.2754185 0.9220667
0.2659428 0.2760576 0.9220375
0.2659156 0.2766961 0.9220078
0.2658912 0.2773367 0.9219781
0.2656974 0.2967154 0.9212786
0.2657369 0.2973451 0.9212774
0.2657700 0.2979730 0.9212724
0.2658144 0.2986046 0.9212774
0.2658521 0.2992400 0.9212792
0.2658854 0.2998792 0.9212815
0.2659694 0.3018240 0.9212772
0.2659940 0.3024655 0.9212733
0.2660175 0.3031169 0.9212652
0.2660369 0.3037701 0.9212548
0.2660541 0.3044265 0.9212414
0.2660737 0.3050763 0.9212292
0.2660972 0.3057241 0.9212135
0.2663509 0.2854736 0.9214984
0.2663421 0.2861182 0.9214714
0.2663335 0.2867595 0.9214444
0.2663242 0.2873992 0.9214191
0.2663163 0.2880388 0.9213959
0.2663082 0.2886777 0.9213736
0.2663004 0.2893167 0.9213524
0.2662944 0.2899550 0.9213336
0.2662900 0.2905957 0.9213139
0.2662875 0.2912276 0.9213039
0.2662884 0.2918556 0.9212919
0.2662913 0.2924830 0.9212805
0.2662963 0.2931081 0.9212689
0.2663016 0.2937237 0.9212610
0.2660923 0.2709950 0.9222756
0.2660665 0.2716404 0.9222470
0.2660371 0.2722806 0.9222186
0.2660040 0.2729149 0.9221917
0.2659692 0.2735437 0.9221620
0.2659328 0.2741704 0.9221332
0.2661427 0.3009343 0.9212896
0.2662074 0.3015441 0.9212900
0.2666269 0.2766274 0.9219430
0.2665951 0.2772637 0.9219098
0.2665627 0.2778969 0.9218777
0.2665324 0.2785315 0.9218445
0.2665062 0.2791661 0.9218111
0.2664818 0.2798036 0.9217784
0.2664606 0.2804497 0.9217447
0.2664428 0.2811007 0.9217113
0.2664277 0.2817534 0.9216773
0.2664143 0.2824088 0.9216438
0.2664035 0.2830620 0.9216106
0.2663932 0.2837107 0.9215783
0.2663808 0.2843543 0.9215472
0.2663698 0.2849932 0.9215169
0.2662705 0.2949098 0.9212612
0.2662900 0.2955473 0.9212578
0.2663092 0.2961836 0.9212603
0.2666121 0.2747448 0.9220454
0.2665839 0.2753815 0.9220132
0.2665571 0.2760226 0.9219817
0.2663636 0.2973821 0.9212660
0.2664008 0.2980068 0.9212676
0.2664516 0.2986362 0.9212794
0.2664943 0.2992693 0.9212877
0.2665319 0.2999049 0.9212979
0.2665699 0.3005444 0.9213014
0.2666025 0.3011913 0.9213081
0.2666260 0.3018426 0.9213147
0.2666492 0.3024817 0.9213159
0.2666689 0.3031346 0.9213119
0.2666812 0.3037888 0.9213039
0.2666922 0.3044413 0.9212938
0.2667052 0.3050880 0.9212836
0.2667195 0.3057338 0.9212714
0.2672044 0.2784347 0.9217811
0.2671666 0.2790515 0.9217476
0.2671309 0.2796622 0.9217149
0.2669962 0.2835043 0.9215187
0.2669847 0.2841593 0.9214877
0.2669746 0.2848119 0.9214569
0.2669639 0.2854611 0.9214289
0.2669544 0.2861051 0.9214029
0.2669449 0.2867459 0.9213771
0.2669344 0.2873855 0.9213529
0.2669258 0.2880260 0.9213305
0.2669171 0.2886671 0.9213107
0.2669091 0.2893090 0.9212930
0.2669029 0.2899511 0.9212771
0.2668980 0.2905960 0.9212611
0.2668967 0.2912331 0.9212537
0.2668983 0.2918674 0.9212453
0.2669034 0.2925015 0.9212362
0.2669113 0.2931330 0.9212272
0.2669197 0.2937504 0.9212256
0.2667124 0.2709718 0.9222377
0.2666835 0.2716113 0.9222080
0.2666522 0.2722452 0.9221778
0.2666182 0.2728742 0.9221473
0.2665840 0.2735012 0.9221144
0.2665473 0.2741273 0.9220844
0.2672684 0.2759545 0.9219216
0.2672348 0.2765875 0.9218869
0.2672038 0.2772242 0.9218524
0.2671736 0.2778604 0.9218170
0.2670812 0.2804360 0.9216756
0.2670651 0.2810894 0.9216397
0.2670519 0.2817439 0.9216058
0.2670408 0.2824006 0.9215710
0.2670323 0.2830540 0.9215372
0.2668902 0.2949407 0.9212358
0.2669137 0.2955761 0.9212357
0.2669396 0.2962066 0.9212433
0.2669629 0.2968413 0.9212520
0.2669859 0.2974808 0.9212615
0.2670028 0.2981279 0.9212641
0.2675376 0.2890538 0.9212467
0.2675413 0.2896593 0.9212331
0.2673484 0.2721511 0.9221330
0.2673206 0.2727985 0.9220977
0.2672583 0.2740744 0.9220290
0.2672285 0.2747095 0.9219950
0.2672005 0.2753495 0.9219616
0.2671337 0.2993023 0.9212971
0.2671755 0.2999321 0.9213172
0.2672205 0.3005673 0.9213312
0.2672575 0.3012110 0.9213394
0.2672820 0.3018571 0.9213522
0.2673062 0.3024946 0.9213583
0.2673273 0.3037995 0.9213546
0.2673342 0.3044475 0.9213492
0.2673410 0.3050913 0.9213422
0.2673458 0.3057352 0.9213322
0.2678046 0.2783898 0.9217238
0.2677676 0.2790113 0.9216885
0.2677317 0.2796301 0.9216546
0.2676060 0.2834990 0.9214518
0.2675945 0.2841518 0.9214205
0.2675849 0.2848020 0.9213904
0.2675756 0.2854480 0.9213629
0.2675661 0.2860904 0.9213373
0.2675571 0.2867303 0.9213133
0.2675455 0.2873691 0.9212891
0.2675358 0.2880103 0.9212701
0.2675256 0.2886521 0.9212535
0.2675037 0.2905935 0.9212125
0.2675022 0.2912356 0.9212074
0.2675041 0.2918743 0.9212026
0.2675090 0.2925159 0.9211951
0.2675181 0.2931540 0.9211885
0.2675306 0.2937749 0.9211934
0.2675450 0.2943928 0.9212024
0.2675544 0.2950204 0.9212097
0.2673292 0.2709438 0.9222020
0.2672979 0.2715790 0.9221691
0.2671991 0.2734631 0.9220680
0.2677356 0.3035690 0.9213925
0.2678728 0.2759146 0.9218705
0.2678409 0.2765504 0.9218341
0.2678113 0.2771897 0.9217971
0.2677844 0.2778299 0.9217595
0.2677065 0.2804240 0.9216100
0.2676938 0.2810796 0.9215723
0.2676844 0.2817349 0.9215367
0.2676757 0.2823908 0.9215012
0.2676693 0.2830435 0.9214669
0.2675663 0.2962336 0.9212295
0.2675954 0.2968602 0.9212444
0.2676234 0.2974909 0.9212596
0.2676472 0.2981307 0.9212675
0.2681319 0.2878167 0.9212243
0.2681348 0.2884366 0.9212062
0.2681313 0.2890537 0.9211965
0.2681371 0.2896635 0.9211844
0.2681423 0.2902690 0.9211734
0.2681447 0.2908775 0.9211680
0.2681536 0.2914769 0.9211667
0.2679682 0.2721235 0.9220942
0.2679376 0.2727665 0.9220567
0.2678774 0.2740405 0.9219827
0.2678487 0.2746770 0.9219465
0.2678223 0.2753213 0.9219107
0.2677839 0.2993309 0.9213084
0.2678278 0.2999540 0.9213390
0.2678750 0.3005872 0.9213572
0.2679140 0.3012263 0.9213728
0.2679393 0.3018663 0.9213914
0.2679638 0.3025004 0.9214057
0.2679759 0.3038001 0.9214093
0.2679758 0.3044420 0.9214086
0.2679735 0.3050832 0.9214046
0.2679698 0.3057242 0.9213966
0.2684442 0.2777163 0.9217070
0.2684069 0.2783487 0.9216683
0.2683740 0.2789752 0.9216319
0.2683411 0.2796021 0.9215957
0.2683113 0.2802425 0.9215591
0.2682873 0.2808904 0.9215228
0.2682656 0.2815374 0.9214869
0.2682451 0.2821836 0.9214532
0.2682308 0.2828357 0.9214196
0.2682203 0.2834910 0.9213886
0.2682109 0.2841430 0.9213581
0.2682021 0.2847907 0.9213285
0.2681939 0.2854344 0.9213014
0.2681854 0.2860749 0.9212770
0.2681764 0.2867136 0.9212544
0.2681645 0.2873512 0.9212326
0.2681181 0.2925299 0.9211578
0.2681274 0.2931729 0.9211545
0.2681421 0.2937971 0.9211626
0.2681581 0.2944151 0.9211775
0.2681705 0.2950371 0.9211909
0.2681884 0.2956604 0.9212001
0.2682019 0.2962785 0.9212185
0.2682174 0.2969042 0.9212395
0.2679457 0.2709124 0.9221685
0.2679136 0.2715449 0.9221323
0.2678255 0.2734264 0.9220239
0.2683891 0.3036106 0.9214432
0.2685363 0.2746165 0.9218977
0.2685069 0.2752488 0.9218599
0.2684780 0.2758803 0.9218217
0.2684498 0.2765186 0.9217833
0.2684240 0.2771612 0.9217438
0.2682917 0.2981348 0.9212738
0.2687341 0.2859263 0.9212325
0.2687311 0.2865619 0.9212098
0.2687282 0.2871923 0.9211903
0.2687317 0.2878158 0.9211720
0.2687354 0.2884363 0.9211548
0.2687337 0.2890546 0.9211452
0.2687390 0.2896675 0.9211350
0.2687429 0.2902740 0.9211269
0.2687445 0.2908839 0.9211251
0.2687516 0.2914874 0.9211252
0.2686131 0.2714521 0.9220957
0.2685849 0.2720953 0.9220564
0.2685551 0.2727352 0.9220167
0.2685277 0.2733721 0.9219778
0.2685011 0.2740084 0.9219383
0.2684440 0.2993518 0.9213271
0.2684876 0.2999728 0.9213621
0.2685347 0.3006026 0.9213831
0.2685739 0.3012355 0.9214092
0.2685988 0.3018700 0.9214313
0.2686198 0.3025022 0.9214516
0.2691066 0.2764155 0.9217359
0.2690700 0.2770418 0.9216965
0.2690347 0.2776758 0.9216565
0.2690017 0.2783122 0.9216175
0.2689722 0.2789430 0.9215788
0.2689430 0.2795759 0.9215409
0.2689165 0.2802208 0.9215033
0.2688946 0.2808714 0.9214658
0.2688752 0.2815213 0.9214293
0.2688584 0.2821717 0.9213942
0.2688481 0.2828262 0.9213606
0.2688387 0.2834820 0.9213282
0.2688310 0.2841331 0.9212987
0.2688222 0.2847784 0.9212691
0.2688146 0.2854197 0.9212417
0.2687314 0.2925387 0.9211230
0.2687407 0.2931878 0.9211231
0.2687561 0.2938159 0.9211370
0.2687719 0.2944317 0.9211547
0.2687873 0.2950516 0.9211752
0.2688073 0.2956691 0.9211876
0.2688231 0.2962815 0.9212120
0.2688388 0.2969031 0.9212364
0.2690276 0.3036468 0.9214930
0.2690537 0.3042906 0.9215034
0.2690990 0.3049129 0.9215112
0.2691409 0.3055336 0.9215171
0.2691699 0.3061619 0.9215061
0.2692838 0.2720106 0.9220204
0.2692521 0.2726624 0.9219785
0.2691802 0.2739456 0.9218957
0.2691478 0.2745805 0.9218552
0.2691185 0.2752145 0.9218155
0.2690909 0.2758508 0.9217740
0.2689364 0.2981390 0.9212832
0.2693383 0.2859166 0.9211781
0.2693355 0.2865532 0.9211569
0.2693310 0.2871852 0.9211389
0.2693345 0.2878087 0.9211223
0.2693384 0.2884304 0.9211058
0.2693364 0.2890487 0.9210990
0.2693381 0.2896647 0.9210923
0.2693388 0.2902751 0.9210874
0.2693394 0.2908863 0.9210887
0.2693459 0.2914936 0.9210889
0.2693562 0.2921035 0.9210928
0.2693714 0.2927128 0.9210955
0.2693796 0.2932989 0.9211085
0.2693922 0.2938765 0.9211222
0.2694048 0.2944658 0.9211434
0.2692305 0.2714261 0.9220621
0.2691519 0.2733429 0.9219381
0.2691054 0.2993733 0.9213512
0.2691481 0.2999926 0.9213840
0.2691942 0.3006161 0.9214128
0.2692322 0.3012428 0.9214448
0.2692570 0.3018705 0.9214717
0.2692771 0.3024990 0.9214943
0.2697038 0.2763845 0.9216914
0.2696698 0.2770138 0.9216503
0.2696384 0.2776505 0.9216096
0.2696095 0.2782901 0.9215690
0.2695830 0.2789254 0.9215286
0.2695573 0.2795630 0.9214879
0.2695330 0.2802089 0.9214480
0.2695129 0.2808603 0.9214092
0.2694955 0.2815115 0.9213720
0.2694818 0.2821641 0.9213365
0.2694737 0.2828181 0.9213023
0.2694656 0.2834725 0.9212698
0.2694579 0.2841206 0.9212397
0.2694500 0.2847619 0.9212110
0.2694429 0.2853993 0.9211844
0.2694270 0.2956763 0.9211779
0.2694428 0.2962851 0.9212058
0.2694593 0.2968995 0.9212360
0.2698646 0.2888758 0.9210645
0.2698750 0.2894663 0.9210569
0.2698921 0.2900373 0.9210542
0.2699022 0.2906045 0.9210541
0.2699152 0.2911614 0.9210572
0.2699329 0.2917303 0.9210607
0.2699526 0.2922761 0.9210662
0.2696807 0.3036711 0.9215398
0.2697098 0.3043077 0.9215559
0.2697514 0.3049228 0.9215675
0.2697862 0.3055358 0.9215768
0.2698026 0.3061611 0.9215693
0.2698939 0.2719881 0.9219885
0.2698591 0.2726341 0.9219446
0.2697906 0.2739124 0.9218576
0.2697605 0.2745474 0.9218153
0.2697337 0.2751842 0.9217728
0.2697096 0.2758253 0.9217291
0.2695836 0.2981433 0.9212953
0.2696106 0.2987618 0.9213288
0.2696309 0.2993868 0.9213658
0.2696481 0.3000228 0.9213985
0.2699308 0.2852687 0.9211558
0.2699286 0.2859211 0.9211317
0.2699281 0.2865587 0.9211112
0.2699284 0.2871890 0.9210939
0.2699329 0.2878106 0.9210787
0.2699388 0.2884317 0.9210633
0.2699709 0.2933054 0.9210868
0.2699839 0.2938854 0.9211041
0.2699958 0.2944744 0.9211245
0.2700154 0.2950820 0.9211489
0.2698505 0.2714003 0.9220308
0.2697833 0.2733140 0.9219006
0.2698921 0.3012486 0.9214791
0.2699165 0.3018684 0.9215100
0.2699367 0.3024925 0.9215359
0.2703357 0.2757254 0.9216938
0.2703024 0.2763543 0.9216511
0.2702695 0.2769840 0.9216091
0.2702400 0.2776218 0.9215672
0.2702133 0.2782631 0.9215243
0.2701887 0.2789016 0.9214820
0.2701653 0.2795427 0.9214404
0.2701434 0.2801908 0.9214000
0.2701268 0.2808454 0.9213606
0.2701128 0.2814993 0.9213229
0.2701034 0.2821549 0.9212865
0.2700979 0.2828096 0.9212519
0.2700927 0.2834633 0.9212183
0.2700873 0.2841096 0.9211879
0.2700807 0.2847491 0.9211600
0.2700683 0.2962879 0.9212056
0.2700827 0.2968965 0.9212388
0.2701031 0.2975177 0.9212734
0.2704411 0.2888913 0.9210258
0.2704487 0.2894797 0.9210208
0.2704650 0.2900503 0.9210204
0.2704770 0.2906199 0.9210217
0.2704957 0.2911766 0.9210288
0.2705125 0.2917491 0.9210369
0.2705286 0.2922939 0.9210456
0.2703253 0.3036970 0.9215891
0.2703537 0.3043247 0.9216103
0.2703905 0.3049331 0.9216250
0.2704166 0.3055359 0.9216385
0.2704294 0.3061528 0.9216337
0.2705305 0.2713196 0.9220055
0.2704982 0.2719630 0.9219594
0.2704653 0.2726058 0.9219138
0.2704340 0.2732449 0.9218684
0.2704055 0.2738809 0.9218228
0.2703802 0.2745178 0.9217783
0.2703582 0.2751590 0.9217337
0.2702610 0.2987583 0.9213485
0.2702808 0.2993773 0.9213880
0.2702980 0.3000048 0.9214257
0.2706398 0.2793117 0.9214230
0.2705991 0.2799411 0.9213869
0.2705239 0.2852755 0.9211106
0.2705259 0.2859242 0.9210870
0.2705298 0.2865603 0.9210673
0.2705316 0.2871896 0.9210512
0.2705372 0.2878106 0.9210361
0.2705442 0.2884309 0.9210229
0.2705699 0.2933134 0.9210694
0.2705804 0.2938922 0.9210915
0.2705927 0.2944797 0.9211183
0.2706124 0.2950842 0.9211428
0.2705553 0.3012515 0.9215066
0.2705755 0.3018685 0.9215402
0.2705922 0.3024878 0.9215705
0.2709949 0.2744400 0.9217486
0.2709585 0.2750651 0.9217039
0.2709287 0.2756894 0.9216594
0.2708952 0.2763199 0.9216157
0.2708635 0.2769514 0.9215719
0.2708368 0.2775907 0.9215276
0.2708128 0.2782344 0.9214838
0.2707906 0.2788773 0.9214402
0.2707429 0.2808333 0.9213175
0.2707340 0.2814901 0.9212787
0.2707293 0.2821478 0.9212413
0.2707269 0.2828035 0.9212057
0.2707260 0.2834567 0.9211719
0.2707243 0.2841019 0.9211412
0.2707214 0.2847404 0.9211139
0.2706984 0.2962880 0.9212074
0.2707100 0.2968928 0.9212456
0.2707267 0.2975082 0.9212819
0.2710154 0.2889016 0.9209938
0.2710216 0.2894877 0.9209908
0.2710334 0.2900601 0.9209922
0.2710447 0.2906341 0.9209943
0.2710641 0.2911898 0.9210032
0.2710834 0.2917556 0.9210140
0.2711007 0.2923013 0.9210279
0.2711176 0.2928770 0.9210380
0.2709920 0.3037098 0.9216354
0.2710162 0.3043267 0.9216619
0.2710419 0.3049294 0.9216812
0.2711450 0.2712901 0.9219817
0.2711130 0.2719327 0.9219336
0.2710823 0.2725751 0.9218857
0.2710540 0.2732150 0.9218382
0.2710292 0.2738536 0.9217908
0.2709123 0.2987563 0.9213674
0.2709286 0.2993714 0.9214090
0.2709424 0.2999904 0.9214498
0.2712088 0.2792696 0.9213908
0.2711656 0.2799034 0.9213515
0.2711180 0.2852772 0.9210731
0.2711239 0.2859259 0.9210498
0.2711300 0.2865610 0.9210309
0.2711349 0.2871881 0.9210157
0.2711420 0.2878095 0.9210006
0.2711481 0.2884283 0.9209892
0.2711756 0.2939004 0.9210816
0.2711854 0.2944860 0.9211121
0.2712051 0.2950862 0.9211394
0.2715404 0.3060895 0.9217474
0.2712173 0.3012504 0.9215397
0.2712365 0.3018640 0.9215768
0.2712505 0.3024762 0.9216121
0.2715985 0.2744014 0.9217195
0.2715633 0.2750305 0.9216736
0.2715319 0.2756565 0.9216284
0.2715011 0.2762902 0.9215826
0.2714711 0.2769244 0.9215369
0.2714469 0.2775661 0.9214912
0.2714257 0.2782134 0.9214462
0.2714075 0.2788614 0.9214023
0.2713674 0.2808240 0.9212776
0.2713609 0.2814820 0.9212381
0.2713591 0.2821409 0.9212005
0.2713588 0.2827973 0.9211644
0.2713610 0.2834493 0.9211299
0.2713622 0.2840925 0.9210987
0.2713618 0.2847293 0.9210729
0.2713334 0.2962877 0.9212110
0.2713428 0.2968887 0.9212522
0.2713590 0.2974977 0.9212915
0.2715830 0.2889092 0.9209659
0.2715888 0.2894944 0.9209648
0.2716008 0.2900658 0.9209681
0.2716142 0.2906410 0.9209711
0.2716312 0.2911969 0.9209809
0.2716488 0.2917637 0.9209936
0.2716642 0.2923090 0.9210120
0.2716816 0.2928859 0.9210252
0.2716364 0.3037105 0.9216872
0.2716596 0.3043175 0.9217174
0.2716796 0.3049114 0.9217420
0.2717598 0.2712642 0.9219608
0.2717295 0.2719069 0.9219102
0.2717020 0.2725494 0.9218604
0.2716779 0.2731910 0.9218111
0.2716574 0.2738319 0.9217615
0.2715660 0.2987535 0.9213869
0.2715801 0.2993639 0.9214294
0.2715932 0.2999752 0.9214747
0.2717882 0.2792359 0.9213594
0.2717436 0.2798747 0.9213189
0.2717165 0.2852813 0.9210363
0.2717265 0.2859280 0.9210145
0.2717362 0.2865608 0.9209964
0.2717429 0.2871867 0.9209826
0.2717520 0.2878066 0.9209680
0.2717600 0.2884223 0.9209595
0.2717798 0.2939033 0.9210739
0.2717881 0.2944888 0.9211071
0.2718031 0.2950840 0.9211377
0.2718097 0.2956515 0.9211671
0.2718103 0.2962300 0.9212091
0.2718117 0.2968258 0.9212522
0.2721740 0.3060931 0.9218031
0.2718798 0.3012475 0.9215735
0.2718953 0.3018548 0.9216152
0.2719060 0.3024609 0.9216532
0.2722454 0.2737345 0.9217432
0.2722053 0.2743688 0.9216945
0.2721703 0.2749992 0.9216474
0.2721423 0.2756307 0.9215997
0.2721137 0.2762664 0.9215523
0.2720871 0.2769046 0.9215062
0.2720649 0.2775484 0.9214585
0.2720456 0.2781969 0.9214144
0.2720291 0.2788473 0.9213694
0.2719958 0.2808156 0.9212411
0.2719915 0.2814744 0.9212016
0.2719923 0.2821340 0.9211632
0.2719943 0.2827907 0.9211270
0.2719994 0.2834427 0.9210925
0.2720038 0.2840865 0.9210627
0.2720063 0.2847227 0.9210361
0.2721678 0.2889171 0.9209392
0.2721780 0.2894978 0.9209413
0.2721922 0.2900693 0.9209451
0.2722064 0.2906456 0.9209494
0.2722113 0.2912058 0.9209622
0.2722262 0.2917702 0.9209762
0.2722383 0.2923159 0.9209952
0.2722560 0.2928945 0.9210109
0.2722837 0.3037119 0.9217371
0.2723030 0.3043123 0.9217700
0.2723211 0.3048980 0.9217962
0.2723727 0.2712427 0.9219457
0.2723466 0.2718851 0.9218904
0.2723234 0.2725284 0.9218387
0.2723043 0.2731722 0.9217871
0.2722225 0.2987461 0.9214097
0.2722327 0.2993536 0.9214549
0.2722407 0.2999585 0.9215019
0.2723443 0.2859250 0.9209802
0.2723551 0.2865562 0.9209631
0.2723632 0.2871812 0.9209505
0.2723730 0.2878005 0.9209371
0.2723787 0.2884168 0.9209315
0.2723948 0.2939051 0.9210682
0.2724023 0.2944912 0.9211037
0.2724097 0.2950803 0.9211391
0.2724131 0.2956453 0.9211709
0.2724117 0.2962193 0.9212154
0.2724108 0.2968105 0.9212611
0.2727874 0.3060986 0.9218616
0.2725437 0.3012409 0.9216092
0.2725549 0.3018413 0.9216542
0.2725629 0.3024395 0.9216956
0.2729648 0.2717720 0.9218836
0.2729249 0.2724175 0.9218266
0.2728512 0.2737007 0.9217232
0.2728147 0.2743359 0.9216739
0.2727816 0.2749686 0.9216258
0.2727557 0.2756041 0.9215765
0.2727288 0.2762417 0.9215285
0.2727044 0.2768830 0.9214793
0.2726835 0.2775288 0.9214327
0.2726675 0.2781799 0.9213872
0.2726538 0.2788318 0.9213427
0.2726399 0.2794830 0.9212969
0.2726312 0.2801417 0.9212527
0.2726266 0.2808043 0.9212107
0.2726239 0.2814645 0.9211704
0.2726272 0.2821266 0.9211308
0.2726319 0.2827852 0.9210952
0.2726396 0.2834388 0.9210621
0.2726483 0.2840826 0.9210321
0.2726555 0.2847182 0.9210061
0.2726596 0.2853454 0.9209844
0.2727466 0.2889425 0.9209139
0.2727665 0.2895154 0.9209172
0.2727850 0.2900820 0.9209225
0.2727936 0.2906536 0.9209305
0.2727967 0.2912084 0.9209464
0.2728048 0.2917733 0.9209636
0.2728148 0.2923255 0.9209846
0.2728218 0.2929020 0.9210051
0.2728216 0.2934009 0.9210384
0.2728265 0.2939276 0.9210718
0.2729417 0.3037037 0.9217836
0.2729583 0.3043000 0.9218171
0.2729707 0.3048835 0.9218472
0.2729901 0.2712263 0.9219299
0.2729388 0.2731593 0.9217666
0.2728793 0.2987391 0.9214322
0.2728857 0.2993428 0.9214800
0.2728896 0.2999418 0.9215269
0.2729766 0.2871879 0.9209269
0.2729902 0.2878061 0.9209137
0.2729969 0.2884192 0.9209095
0.2730176 0.2950769 0.9211402
0.2730187 0.2956382 0.9211749
0.2730178 0.2962094 0.9212210
0.2730142 0.2967947 0.9212686
0.2734313 0.3060843 0.9219159
0.2732051 0.3012301 0.9216447
0.2732141 0.3018271 0.9216900
0.2732222 0.3024215 0.9217324
0.2735608 0.2717451 0.9218686
0.2735243 0.2723890 0.9218125
0.2734591 0.2736703 0.9217079
0.2734262 0.2743056 0.9216578
0.2733974 0.2749421 0.9216076
0.2733740 0.2755806 0.9215572
0.2733485 0.2762195 0.9215062
0.2733268 0.2768639 0.9214570
0.2733065 0.2775108 0.9214095
0.2732908 0.2781621 0.9213626
0.2732763 0.2788133 0.9213162
0.2732639 0.2794658 0.9212710
0.2732559 0.2801262 0.9212265
0.2732524 0.2807911 0.9211828
0.2732513 0.2814540 0.9211415
0.2732570 0.2821191 0.9211030
0.2732644 0.2827808 0.9210676
0.2732757 0.2834375 0.9210358
0.2732885 0.2840832 0.9210076
0.2732992 0.2847199 0.9209814
0.2733080 0.2853459 0.9209606
0.2733176 0.2859664 0.9209406
0.2733229 0.2865864 0.9209254
0.2733487 0.2895302 0.9209017
0.2733705 0.2900879 0.9209088
0.2733815 0.2906480 0.9209184
0.2733886 0.2912017 0.9209344
0.2733939 0.2917717 0.9209548
0.2733928 0.2923312 0.9209790
0.2733963 0.2928989 0.9210031
0.2733945 0.2933984 0.9210355
0.2734002 0.2939245 0.9210697
0.2735949 0.3036901 0.9218336
0.2736092 0.3042819 0.9218676
0.2736205 0.3048628 0.9218963
0.2736140 0.2712135 0.9219152
0.2735772 0.2731522 0.9217518
0.2735380 0.2987275 0.9214545
0.2735391 0.2993286 0.9215055
0.2735378 0.2999235 0.9215544
0.2735961 0.2872008 0.9209064
0.2736125 0.2878156 0.9208952
0.2736213 0.2884261 0.9208904
0.2736296 0.2890355 0.9208936
0.2736301 0.2950734 0.9211446
0.2736282 0.2956309 0.9211819
0.2736203 0.2961964 0.9212293
0.2740591 0.3060763 0.9219716
0.2738663 0.3012151 0.9216777
0.2738709 0.3018107 0.9217240
0.2738773 0.3024028 0.9217694
0.2741577 0.2717218 0.9218592
0.2741260 0.2723625 0.9218037
0.2740973 0.2730041 0.9217497
0.2740699 0.2736438 0.9216969
0.2740431 0.2742825 0.9216448
0.2740168 0.2749204 0.9215926
0.2739938 0.2755585 0.9215413
0.2739687 0.2761969 0.9214898
0.2739489 0.2768423 0.9214410
0.2739294 0.2774900 0.9213926
0.2739133 0.2781410 0.9213434
0.2738998 0.2787932 0.9212973
0.2738867 0.2794458 0.9212511
0.2738793 0.2801091 0.9212064
0.2738774 0.2807766 0.9211636
0.2738777 0.2814429 0.9211228
0.2738850 0.2821121 0.9210835
0.2738957 0.2827780 0.9210482
0.2739086 0.2834385 0.9210165
0.2739241 0.2840867 0.9209889
0.2739371 0.2847255 0.9209628
0.2739488 0.2853518 0.9209426
0.2739608 0.2859713 0.9209239
0.2739705 0.2865892 0.9209083
0.2738924 0.2974490 0.9213433
0.2739342 0.2895502 0.9208927
0.2739541 0.2901013 0.9209000
0.2739612 0.2906558 0.9209116
0.2739704 0.2912067 0.9209279
0.2739750 0.2917695 0.9209489
0.2739739 0.2923223 0.9209735
0.2739776 0.2928879 0.9210007
0.2742483 0.3036772 0.9218766
0.2742569 0.3042657 0.9219124
0.2742629 0.3048464 0.9219447
0.2741957 0.2987149 0.9214759
0.2741901 0.2993154 0.9215279
0.2741830 0.2999098 0.9215780
0.2742210 0.2872174 0.9208898
0.2742376 0.2878276 0.9208813
0.2742483 0.2884341 0.9208771
0.2742593 0.2890392 0.9208810
0.2742541 0.2938986 0.9210694
0.2742504 0.2944821 0.9211101
0.2742385 0.2950606 0.9211513
0.2742325 0.2956167 0.9211922
0.2742174 0.2961802 0.9212399
0.2746907 0.3060672 0.9220245
0.2745284 0.3011999 0.9217073
0.2745275 0.3017949 0.9217566
0.2745299 0.3023870 0.9218034
0.2747552 0.2716947 0.9218552
0.2747292 0.2723343 0.9217996
0.2747057 0.2729758 0.9217448
0.2746830 0.2736165 0.9216906
0.2746587 0.2742565 0.9216369
0.2746360 0.2748974 0.9215843
0.2746130 0.2755353 0.9215300
0.2745887 0.2761732 0.9214804
0.2745693 0.2768184 0.9214307
0.2745507 0.2774663 0.9213818
0.2745359 0.2781179 0.9213310
0.2745242 0.2787715 0.9212834
0.2745124 0.2794256 0.9212363
0.2745048 0.2800922 0.9211912
0.2745882 0.2853636 0.9209287
0.2746040 0.2859827 0.9209111
0.2746169 0.2865987 0.9208961
0.2745217 0.2974319 0.9213597
0.2744990 0.2890220 0.9208764
0.2745088 0.2895762 0.9208820
0.2745231 0.2901246 0.9208963
0.2745307 0.2906752 0.9209069
0.2745516 0.2912209 0.9209241
0.2745550 0.2917743 0.9209470
0.2745541 0.2923171 0.9209731
0.2745520 0.2928796 0.9210010
0.2749069 0.3036615 0.9219152
0.2749131 0.3042472 0.9219508
0.2749169 0.3048258 0.9219872
0.2749755 0.2810803 0.9211233
0.2749897 0.2817144 0.9210849
0.2749965 0.2823393 0.9210500
0.2750049 0.2829630 0.9210169
0.2750190 0.2835720 0.9209878
0.2750352 0.2841760 0.9209601
0.2750416 0.2847746 0.9209356
0.2748525 0.2987020 0.9214943
0.2748414 0.2993010 0.9215504
0.2748293 0.2998943 0.9216026
0.2748378 0.2872402 0.9208816
0.2748574 0.2878470 0.9208742
0.2748731 0.2884515 0.9208712
0.2748778 0.2938900 0.9210748
0.2748669 0.2944707 0.9211172
0.2748480 0.2950491 0.9211598
0.2748363 0.2956051 0.9212037
0.2748184 0.2961668 0.9212527
0.2753270 0.3060552 0.9220695
0.2751880 0.3011858 0.9217376
0.2751803 0.3017791 0.9217894
0.2751783 0.3023708 0.9218354
0.2753628 0.2716775 0.9218554
0.2753416 0.2723151 0.9217987
0.2753213 0.2729556 0.9217425
0.2753042 0.2735974 0.9216871
0.2752814 0.2742359 0.9216329
0.2752588 0.2748757 0.9215762
0.2752367 0.2755137 0.9215243
0.2752122 0.2761512 0.9214735
0.2751926 0.2767962 0.9214230
0.2751747 0.2774444 0.9213724
0.2751602 0.2780966 0.9213211
0.2752252 0.2853798 0.9209211
0.2752423 0.2860001 0.9209044
0.2752565 0.2866160 0.9208915
0.2751535 0.2974187 0.9213767
0.2750944 0.2890478 0.9208738
0.2751025 0.2895979 0.9208815
0.2751165 0.2901415 0.9208946
0.2751238 0.2906920 0.9209056
0.2751529 0.2912364 0.9209232
0.2751522 0.2917811 0.9209478
0.2751495 0.2923129 0.9209754
0.2751390 0.2928785 0.9210058
0.2755598 0.3036453 0.9219537
0.2755612 0.3042294 0.9219903
0.2755894 0.2791255 0.9212464
0.2756017 0.2797793 0.9212004
0.2756121 0.2804287 0.9211581
0.2756230 0.2810755 0.9211168
0.2756361 0.2817105 0.9210787
0.2756434 0.2823363 0.9210437
0.2756516 0.2829596 0.9210099
0.2756656 0.2835707 0.9209812
0.2756819 0.2841791 0.9209542
0.2756883 0.2847806 0.9209307
0.2755064 0.2986870 0.9215128
0.2754902 0.2992850 0.9215713
0.2754742 0.2998780 0.9216270
0.2754632 0.2872656 0.9208774
0.2754839 0.2878703 0.9208710
0.2755000 0.2884712 0.9208691
0.2754994 0.2938822 0.9210840
0.2754850 0.2944595 0.9211268
0.2754649 0.2950366 0.9211702
0.2759571 0.3054720 0.9220873
0.2758450 0.3011689 0.9217659
0.2758338 0.3017630 0.9218189
0.2758296 0.3023546 0.9218674
0.2759706 0.2716624 0.9218604
0.2759526 0.2722990 0.9218023
0.2759383 0.2729413 0.9217443
0.2759207 0.2735784 0.9216884
0.2759000 0.2742141 0.9216305
0.2758783 0.2748517 0.9215741
0.2758561 0.2754889 0.9215226
0.2758336 0.2761277 0.9214709
0.2758177 0.2767747 0.9214197
0.2758025 0.2774244 0.9213686
0.2757883 0.2780760 0.9213184
0.2758641 0.2853954 0.9209135
0.2758823 0.2860170 0.9208978
0.2758967 0.2866313 0.9208874
0.2758327 0.2962317 0.9212829
0.2758103 0.2968162 0.9213386
0.2757860 0.2974022 0.9213939
0.2757356 0.2907070 0.9209095
0.2757604 0.2912401 0.9209274
0.2757580 0.2917805 0.9209530
0.2757515 0.2923056 0.9209812
0.2763427 0.3066897 0.9221572
0.2762100 0.3036295 0.9219891
0.2762105 0.3042140 0.9220287
0.2762413 0.2791181 0.9212439
0.2762499 0.2797702 0.9211979
0.2762575 0.2804184 0.9211558
0.2762659 0.2810640 0.9211149
0.2762792 0.2817022 0.9210761
0.2762881 0.2823299 0.9210408
0.2762963 0.2829558 0.9210071
0.2763090 0.2835717 0.9209799
0.2763254 0.2841825 0.9209547
0.2763343 0.2847864 0.9209314
0.2761582 0.2986715 0.9215325
0.2761379 0.2992688 0.9215933
0.2761187 0.2998620 0.9216504
0.2760927 0.2872953 0.9208757
0.2761145 0.2878974 0.9208703
0.2761307 0.2884941 0.9208707
0.2761443 0.2890854 0.9208767
0.2761528 0.2896786 0.9208852
0.2761600 0.2902830 0.9208974
0.2761379 0.2932988 0.9210497
0.2761223 0.2938705 0.9210955
0.2761058 0.2944450 0.9211382
0.2760830 0.2950221 0.9211811
0.2765922 0.3054574 0.9221254
0.2765007 0.3011530 0.9217940
0.2764866 0.3017481 0.9218478
0.2764797 0.3023403 0.9219001
0.2765780 0.2716492 0.9218686
0.2765630 0.2722833 0.9218095
0.2765502 0.2729234 0.9217512
0.2765343 0.2735584 0.9216923
0.2765156 0.2741925 0.9216353
0.2764969 0.2748294 0.9215802
0.2764780 0.2754673 0.9215270
0.2764583 0.2761063 0.9214744
0.2764420 0.2767508 0.9214235
0.2764277 0.2773987 0.9213701
0.2764133 0.2780490 0.9213210
0.2765012 0.2854175 0.9209121
0.2765201 0.2860398 0.9208978
0.2765350 0.2866528 0.9208877
0.2764704 0.2962151 0.9212983
0.2764469 0.2967991 0.9213550
0.2764204 0.2973859 0.9214116
0.2763322 0.2896409 0.9208895
0.2763402 0.2901779 0.9209014
0.2763550 0.2907204 0.9209171
0.2763775 0.2912453 0.9209346
0.2763710 0.2917786 0.9209608
0.2763613 0.2922981 0.9209895
0.2769663 0.3066745 0.9221950
0.2768631 0.3036136 0.9220192
0.2768609 0.3041999 0.9220617
0.2768849 0.2791036 0.9212490
0.2768902 0.2797537 0.9212033
0.2768974 0.2804040 0.9211604
0.2769052 0.2810514 0.9211186
0.2769179 0.2816941 0.9210798
0.2769290 0.2823279 0.9210427
0.2769394 0.2829596 0.9210098
0.2769518 0.2835797 0.9209831
0.2769677 0.2841927 0.9209583
0.2769789 0.2847993 0.9209362
0.2768085 0.2986555 0.9215530
0.2767846 0.2992526 0.9216147
0.2767227 0.2873315 0.9208797
0.2767461 0.2879303 0.9208748
0.2767646 0.2885199 0.9208747
0.2767772 0.2891060 0.9208809
0.2767701 0.2932874 0.9210605
0.2767509 0.2938580 0.9211072
0.2767315 0.2944309 0.9211511
0.2767075 0.2950074 0.9211942
0.2772329 0.3054407 0.9221603
0.2771754 0.3005381 0.9217631
0.2771543 0.3011376 0.9218184
0.2771381 0.3017343 0.9218747
0.2771921 0.2716400 0.9218792
0.2771759 0.2722698 0.9218200
0.2771640 0.2729062 0.9217601
0.2771497 0.2735383 0.9217017
0.2771331 0.2741702 0.9216454
0.2771177 0.2748057 0.9215901
0.2771013 0.2754435 0.9215363
0.2770837 0.2760816 0.9214834
0.2770686 0.2767234 0.9214296
0.2770546 0.2773695 0.9213784
0.2771579 0.2860668 0.9209035
0.2771745 0.2866785 0.9208923
0.2771097 0.2961982 0.9213134
0.2770856 0.2967821 0.9213717
0.2770576 0.2973694 0.9214295
0.2769588 0.2896632 0.9208976
0.2769637 0.2901987 0.9209109
0.2769800 0.2907372 0.9209278
0.2769962 0.2912545 0.9209462
0.2769873 0.2917841 0.9209716
0.2769747 0.2922970 0.9210004
0.2775916 0.3066583 0.9222262
0.2775217 0.3030093 0.9220056
0.2775145 0.3035990 0.9220480
0.2775132 0.3041853 0.9220920
0.2775214 0.2784311 0.9213060
0.2775258 0.2790851 0.9212580
0.2775284 0.2797327 0.9212120
0.2775356 0.2803858 0.9211682
0.2776046 0.2842054 0.9209646
0.2776174 0.2848147 0.9209437
0.2776280 0.2854123 0.9209263
0.2774566 0.2986396 0.9215732
0.2774315 0.2992377 0.9216353
0.2773600 0.2873693 0.9208868
0.2773841 0.2879633 0.9208818
0.2774026 0.2885486 0.9208835
0.2774135 0.2891299 0.9208902
0.2774025 0.2932775 0.9210739
0.2773835 0.2938444 0.9211203
0.2773624 0.2944151 0.9211649
0.2778717 0.3054243 0.9221897
0.2778700 0.3059960 0.9222136
0.2780713 0.2813450 0.9211220
0.2780814 0.2819270 0.9210851
0.2780903 0.2825106 0.9210525
0.2781008 0.2830763 0.9210225
0.2781058 0.2836355 0.9209960
0.2778303 0.3005217 0.9217843
0.2778080 0.3011238 0.9218418
0.2777902 0.3017229 0.9219003
0.2777999 0.2716235 0.9218944
0.2777857 0.2722500 0.9218345
0.2777738 0.2728841 0.9217756
0.2777612 0.2735151 0.9217176
0.2777487 0.2741478 0.9216595
0.2777366 0.2747840 0.9216030
0.2777225 0.2754209 0.9215483
0.2777088 0.2760585 0.9214944
0.2776940 0.2766968 0.9214414
0.2776805 0.2773404 0.9213902
0.2777984 0.2860968 0.9209126
0.2778155 0.2867069 0.9209018
0.2777732 0.2956009 0.9212744
0.2777502 0.2961805 0.9213294
0.2777247 0.2967647 0.9213876
0.2776105 0.2907538 0.9209424
0.2776271 0.2912637 0.9209588
0.2776161 0.2917835 0.9209838
0.2776005 0.2922809 0.9210108
0.2781738 0.3029928 0.9220288
0.2781634 0.3035853 0.9220729
0.2781616 0.3041741 0.9221182
0.2781630 0.2784102 0.9213201
0.2781651 0.2790617 0.9212718
0.2781674 0.2797100 0.9212254
0.2781749 0.2803676 0.9211813
0.2782433 0.2842188 0.9209758
0.2782543 0.2848303 0.9209545
0.2782643 0.2854298 0.9209365
0.2781339 0.2980275 0.9215304
0.2781043 0.2986240 0.9215923
0.2780777 0.2992236 0.9216548
0.2780331 0.2879976 0.9208945
0.2780512 0.2885777 0.9208973
0.2780590 0.2891539 0.9209045
0.2780629 0.2897278 0.9209166
0.2780713 0.2903203 0.9209304
0.2780345 0.2932635 0.9210909
0.2785085 0.3054106 0.9222171
0.2785070 0.3059860 0.9222416
0.2787158 0.2813282 0.9211368
0.2787232 0.2819145 0.9211005
0.2787307 0.2824989 0.9210668
0.2787370 0.2830702 0.9210373
0.2787380 0.2836348 0.9210097
0.2784831 0.3005068 0.9218031
0.2784026 0.2716055 0.9219144
0.2783927 0.2722307 0.9218540
0.2783866 0.2728645 0.9217943
0.2783795 0.2734947 0.9217355
0.2783707 0.2741272 0.9216774
0.2783590 0.2747605 0.9216210
0.2783478 0.2753968 0.9215646
0.2784723 0.2873390 0.9209096
0.2784547 0.2943892 0.9211901
0.2784357 0.2949932 0.9212399
0.2784141 0.2955808 0.9212918
0.2782637 0.2907708 0.9209581
0.2782800 0.2912698 0.9209731
0.2782618 0.2917740 0.9209969
0.2782402 0.2922564 0.9210247
0.2788750 0.3017762 0.9219412
0.2788454 0.3023794 0.9219950
0.2788240 0.3029781 0.9220503
0.2788119 0.3035729 0.9220953
0.2788080 0.3041654 0.9221401
0.2788079 0.2764433 0.9214902
0.2788060 0.2770930 0.9214389
0.2788041 0.2777393 0.9213880
0.2788024 0.2783850 0.9213386
0.2788032 0.2790358 0.9212900
0.2788050 0.2796854 0.9212425
0.2788843 0.2842369 0.9209912
0.2788942 0.2848494 0.9209698
0.2789035 0.2854499 0.9209524
0.2789117 0.2860480 0.9209393
0.2789181 0.2866510 0.9209287
0.2788362 0.2968211 0.9214274
0.2788094 0.2974161 0.9214872
0.2787807 0.2980091 0.9215477
0.2786856 0.2880331 0.9209098
0.2787010 0.2886091 0.9209134
0.2787062 0.2891798 0.9209213
0.2787086 0.2897449 0.9209343
0.2787141 0.2903302 0.9209487
0.2786731 0.2932457 0.9211075
0.2791495 0.3053932 0.9222383
0.2791475 0.3059735 0.9222638
0.2793533 0.2806947 0.9211963
0.2793586 0.2813105 0.9211574
0.2793647 0.2819014 0.9211206
0.2793710 0.2824879 0.9210868
0.2793737 0.2830641 0.9210566
0.2793731 0.2836330 0.9210297
0.2791977 0.2992824 0.9216940
0.2791651 0.2998880 0.9217571
0.2791354 0.3004931 0.9218206
0.2790148 0.2715905 0.9219387
0.2790109 0.2722173 0.9218771
0.2790047 0.2728456 0.9218167
0.2789992 0.2734721 0.9217578
0.2789909 0.2741013 0.9216995
0.2791204 0.2873669 0.9209263
0.2790978 0.2943734 0.9212072
0.2790793 0.2949726 0.9212579
0.2790557 0.2955599 0.9213089
0.2789038 0.2907724 0.9209761
0.2789207 0.2912583 0.9209911
0.2795294 0.3017574 0.9219599
0.2794979 0.3023625 0.9220124
0.2794734 0.3029647 0.9220704
0.2794582 0.3035622 0.9221149
0.2794528 0.3041576 0.9221602
0.2794511 0.2751247 0.9216246
0.2794509 0.2757756 0.9215687
0.2794476 0.2764222 0.9215143
0.2794444 0.2770673 0.9214633
0.2794421 0.2777108 0.9214121
0.2794400 0.2783540 0.9213619
0.2795427 0.2854723 0.9209724
0.2795500 0.2860691 0.9209591
0.2795542 0.2866695 0.9209486
0.2794861 0.2968013 0.9214436
0.2794574 0.2973967 0.9215032
0.2794270 0.2979919 0.9215639
0.2793429 0.2880673 0.9209303
0.2793551 0.2886395 0.9209333
0.2793576 0.2892032 0.9209426
0.2793582 0.2897604 0.9209559
0.2793600 0.2903394 0.9209696
0.2793371 0.2920737 0.9210538
0.2793292 0.2926583 0.9210875
0.2793137 0.2932274 0.9211254
0.2797883 0.3053783 0.9222556
0.2797833 0.3059638 0.9222824
0.2799750 0.2794264 0.9213046
0.2799819 0.2800536 0.9212613
0.2799892 0.2806759 0.9212208
0.2799932 0.2812922 0.9211812
0.2799990 0.2818897 0.9211441
0.2800023 0.2824823 0.9211105
0.2800020 0.2830633 0.9210803
0.2799996 0.2836355 0.9210526
0.2799996 0.2842129 0.9210291
0.2799936 0.2847870 0.9210090
0.2798507 0.2992653 0.9217098
0.2798164 0.2998727 0.9217731
0.2797860 0.3004811 0.9218368
0.2796328 0.2715759 0.9219647
0.2796352 0.2722044 0.9219024
0.2796297 0.2728281 0.9218413
0.2796249 0.2734494 0.9217819
0.2796171 0.2740748 0.9217248
0.2797710 0.2873947 0.9209458
0.2797427 0.2943557 0.9212257
0.2797217 0.2949527 0.9212762
0.2796974 0.2955377 0.9213271
0.2801801 0.3017388 0.9219733
0.2801471 0.3023470 0.9220272
0.2801203 0.3029522 0.9220850
0.2800911 0.2751074 0.9216522
0.2800895 0.2757536 0.9215967
0.2800858 0.2763959 0.9215426
0.2800819 0.2770379 0.9214914
0.2800793 0.2776801 0.9214401
0.2800767 0.2783232 0.9213896
0.2801900 0.2854961 0.9209977
0.2801959 0.2860925 0.9209849
0.2801971 0.2866910 0.9209737
0.2801355 0.2967807 0.9214596
0.2801041 0.2973771 0.9215192
0.2800719 0.2979749 0.9215793
0.2800151 0.2892243 0.9209645
0.2800129 0.2897741 0.9209788
0.2800087 0.2903486 0.9209925
0.2799984 0.2909259 0.9210161
0.2799928 0.2915000 0.9210430
0.2799798 0.2920636 0.9210744
0.2799734 0.2926350 0.9211066
0.2804648 0.3041863 0.9221898
0.2804424 0.3047809 0.9222317
0.2804268 0.3053660 0.9222680
0.2806176 0.2794002 0.9213335
0.2806220 0.2800297 0.9212896
0.2806280 0.2806534 0.9212480
0.2806288 0.2812704 0.9212088
0.2806330 0.2818764 0.9211709
0.2806351 0.2824748 0.9211375
0.2806329 0.2830613 0.9211070
0.2806302 0.2836391 0.9210793
0.2806300 0.2842176 0.9210555
0.2806227 0.2847951 0.9210341
0.2804995 0.2992485 0.9217241
0.2804645 0.2998582 0.9217876
0.2802525 0.2715677 0.9219942
0.2802537 0.2721906 0.9219319
0.2804252 0.2874205 0.9209721
0.2804310 0.2880107 0.9209689
0.2804349 0.2886182 0.9209706
0.2804065 0.2937383 0.9211952
0.2803883 0.2943354 0.9212441
0.2803663 0.2949292 0.9212940
0.2806979 0.3065519 0.9223242
0.2808646 0.3011173 0.9219230
0.2808274 0.3017224 0.9219841
0.2807938 0.3023339 0.9220403
0.2807674 0.3029424 0.9220971
0.2807304 0.2731482 0.9218617
0.2807307 0.2737940 0.9218017
0.2807304 0.2744402 0.9217431
0.2807293 0.2750857 0.9216859
0.2807264 0.2757271 0.9216298
0.2807208 0.2763650 0.9215754
0.2807159 0.2770054 0.9215233
0.2807122 0.2776478 0.9214714
0.2808360 0.2855200 0.9210243
0.2808382 0.2861152 0.9210100
0.2808369 0.2867135 0.9209995
0.2808106 0.2961649 0.9214201
0.2807818 0.2967589 0.9214765
0.2807498 0.2973567 0.9215353
0.2806735 0.2881222 0.9209766
0.2806834 0.2886866 0.9209793
0.2806777 0.2892406 0.9209896
0.2806732 0.2897817 0.9210041
0.2806644 0.2903507 0.9210168
0.2806554 0.2909268 0.9210397
0.2806490 0.2914922 0.9210673
0.2806346 0.2920495 0.9210977
0.2806257 0.2926077 0.9211279
0.2811059 0.3041623 0.9221994
0.2810807 0.3047628 0.9222416
0.2810643 0.3053546 0.9222762
0.2810602 0.3059546 0.9223039
0.2812553 0.2787444 0.9214122
0.2812579 0.2793758 0.9213659
0.2812609 0.2800081 0.9213208
0.2812666 0.2806357 0.9212785
0.2812652 0.2836481 0.9211078
0.2812628 0.2842274 0.9210842
0.2812516 0.2848064 0.9210627
0.2811829 0.2986283 0.9216733
0.2811477 0.2992332 0.9217365
0.2811127 0.2998453 0.9217993
0.2810820 0.2874466 0.9209990
0.2810537 0.2937195 0.9212158
0.2810351 0.2943134 0.9212636
0.2810113 0.2949038 0.9213119
0.2817558 0.2814476 0.9212528
0.2817314 0.2819394 0.9212212
0.2817104 0.2824756 0.9211896
0.2816974 0.2830164 0.9211606
0.2815112 0.3010983 0.9219324
0.2814734 0.3017073 0.9219920
0.2814406 0.3023217 0.9220494
0.2813543 0.2712053 0.9220923
0.2813612 0.2718486 0.9220255
0.2813659 0.2724907 0.9219612
0.2813683 0.2731349 0.9218986
0.2813689 0.2737774 0.9218385
0.2813684 0.2744197 0.9217796
0.2813673 0.2750611 0.9217220
0.2813633 0.2756985 0.9216652
0.2813560 0.2763323 0.9216107
0.2814834 0.2855453 0.9210541
0.2814826 0.2861377 0.9210391
0.2814794 0.2867337 0.9210273
0.2814582 0.2961431 0.9214361
0.2814286 0.2967375 0.9214915
0.2813956 0.2973363 0.9215491
0.2813486 0.2881458 0.9210058
0.2813546 0.2887055 0.9210074
0.2813421 0.2892542 0.9210165
0.2813382 0.2897883 0.9210305
0.2813278 0.2903541 0.9210433
0.2813206 0.2909266 0.9210657
0.2813099 0.2914851 0.9210926
0.2812935 0.2920354 0.9211216
0.2812815 0.2925815 0.9211511
0.2817820 0.3035246 0.9221566
0.2817457 0.3041374 0.9222031
0.2817188 0.3047453 0.9222481
0.2817000 0.3053440 0.9222808
0.2816948 0.3059519 0.9223084
0.2818932 0.2774488 0.9215459
0.2818913 0.2780813 0.9214951
0.2818912 0.2787183 0.9214464
0.2818936 0.2793530 0.9213996
0.2818965 0.2799882 0.9213545
0.2818994 0.2836576 0.9211388
0.2818959 0.2842371 0.9211140
0.2818826 0.2848153 0.9210918
0.2818289 0.2986109 0.9216847
0.2817927 0.2992178 0.9217481
0.2817581 0.2998333 0.9218098
0.2817411 0.2874714 0.9210289
0.2817033 0.2936991 0.9212368
0.2816834 0.2942885 0.9212833
0.2816573 0.2948754 0.9213306
0.2823796 0.2808540 0.9213237
0.2823731 0.2814267 0.9212869
0.2823494 0.2819259 0.9212540
0.2823293 0.2824661 0.9212223
0.2823200 0.2830107 0.9211929
0.2821541 0.3010775 0.9219405
0.2821182 0.3016916 0.9219994
0.2820858 0.3023109 0.9220565
0.2819848 0.2711983 0.9221327
0.2819935 0.2718368 0.9220657
0.2819989 0.2724758 0.9220013
0.2820028 0.2731161 0.9219378
0.2820052 0.2737559 0.9218762
0.2820062 0.2743958 0.9218168
0.2820045 0.2750333 0.9217587
0.2819993 0.2756672 0.9217019
0.2819911 0.2762975 0.9216472
0.2821334 0.2855709 0.9210843
0.2821289 0.2861599 0.9210683
0.2821225 0.2867544 0.9210566
0.2821052 0.2961199 0.9214514
0.2820751 0.2967153 0.9215058
0.2820448 0.2973175 0.9215620
0.2820143 0.2892688 0.9210460
