0.0917959 0.311586 0.865
0.0924193 0.311586 0.865
0.0930427 0.311586 0.865
0.0937744 0.311946 0.866
0.0943986 0.311946 0.866
0.0950228 0.311946 0.866
0.0957573 0.312307 0.867
0.0964934 0.312667 0.868
0.097119 0.312667 0.868
0.0977446 0.312667 0.868
0.0983702 0.312667 0.868
0.0991098 0.313027 0.869
0.0997361 0.313027 0.869
0.100593 0.313747 0.871
0.101337 0.314108 0.872
0.101966 0.314108 0.872
0.102712 0.314468 0.873
0.10346 0.314828 0.874
0.104089 0.314828 0.874
0.104839 0.315188 0.875
0.10547 0.315188 0.875
0.1061 0.315188 0.875
0.106731 0.315188 0.875
0.107484 0.315549 0.876
0.108116 0.315549 0.876
0.108747 0.315549 0.876
0.109379 0.315549 0.876
0.110135 0.315909 0.877
0.110641 0.315549 0.876
0.111273 0.315549 0.876
0.112032 0.315909 0.877
0.112664 0.315909 0.877
0.113296 0.315909 0.877
0.113928 0.315909 0.877
-0.0667927 0.342168 0.948
-0.0661094 0.342168 0.948
-0.0654261 0.342168 0.948
-0.0648112 0.342529 0.949
-0.0641272 0.342529 0.949
-0.0634433 0.342529 0.949
-0.0627593 0.342529 0.949
-0.0620753 0.342529 0.949
-0.0613913 0.342529 0.949
-0.0606434 0.342168 0.948
-0.0598969 0.341807 0.947
-0.0592144 0.341807 0.947
-0.05847 0.341446 0.946
-0.057666 0.340724 0.944
-0.0569857 0.340724 0.944
-0.0561264 0.339641 0.941
-0.0553303 0.338919 0.939
-0.0546535 0.338919 0.939
-0.0538618 0.338197 0.937
-0.0531297 0.337837 0.936
-0.0524551 0.337837 0.936
-0.0516699 0.337115 0.934
-0.0508329 0.336032 0.931
-0.0501619 0.336032 0.931
-0.0493314 0.334949 0.928
-0.0486626 0.334949 0.928
-0.0357161 0.309683 0.858
-0.0350978 0.309683 0.858
-0.034399 0.308962 0.856
-0.0337426 0.308601 0.855
-0.0331264 0.308601 0.855
-0.0324341 0.307879 0.853
-0.0318193 0.307879 0.853
-0.0312045 0.307879 0.853
-0.0305539 0.307518 0.852
-0.0299398 0.307518 0.852
-0.0293258 0.307518 0.852
-0.028678 0.307157 0.851
-0.0280647 0.307157 0.851
-0.0274513 0.307157 0.851
-0.0268064 0.306796 0.85
-0.0261938 0.306796 0.85
-0.0255812 0.306796 0.85
-0.0249686 0.306796 0.85
-0.024356 0.306796 0.85
-0.0237433 0.306796 0.85
-0.0231307 0.306796 0.85
-0.0224916 0.306435 0.849
-0.0218797 0.306435 0.849
-0.0212678 0.306435 0.849
-0.0206559 0.306435 0.849
-0.020044 0.306435 0.849
-0.0194321 0.306435 0.849
-0.0188202 0.306435 0.849
-0.0181869 0.306074 0.848
-0.0175757 0.306074 0.848
-0.0169645 0.306074 0.848
-0.0163533 0.306074 0.848
-0.0157421 0.306074 0.848
-0.015131 0.306074 0.848
-0.0145198 0.306074 0.848
-0.0139086 0.306074 0.848
-0.0132974 0.306074 0.848
-0.0126862 0.306074 0.848
-0.0120751 0.306074 0.848
-0.0114639 0.306074 0.848
-0.0108527 0.306074 0.848
-0.0102415 0.306074 0.848
-0.00963036 0.306074 0.848
-0.00901918 0.306074 0.848
-0.00841791 0.306435 0.849
-0.00780601 0.306435 0.849
-0.00719411 0.306435 0.849
-0.00658221 0.306435 0.849
-0.00597735 0.306796 0.85
-0.00536473 0.306796 0.85
-0.00475211 0.306796 0.85
-0.00414436 0.307157 0.851
-0.00353102 0.307157 0.851
-0.00291767 0.307157 0.851
-0.00230704 0.307518 0.852
-0.00169298 0.307518 0.852
-0.00107892 0.307518 0.852
-0.000465402 0.307879 0.853
0.00014938 0.307879 0.853
0.000764163 0.307879 0.853
0.00138056 0.30824 0.854
0.00199607 0.30824 0.854
0.00261463 0.308601 0.855
0.00323085 0.308601 0.855
0.00384707 0.308601 0.855
0.00446852 0.308962 0.856
0.00508546 0.308962 0.856
0.00570241 0.308962 0.856
0.00631935 0.308962 0.856
0.0069363 0.308962 0.856
0.00755324 0.308962 0.856
0.00817019 0.308962 0.856
0.00878713 0.308962 0.856
0.00940408 0.308962 0.856
0.0100327 0.309323 0.857
0.0106504 0.309323 0.857
0.0112681 0.309323 0.857
0.0118857 0.309323 0.857
0.0125034 0.309323 0.857
0.0131211 0.309323 0.857
0.0137387 0.309323 0.857
0.0143564 0.309323 0.857
0.0149741 0.309323 0.857
0.0155917 0.309323 0.857
0.0162094 0.309323 0.857
0.016827 0.309323 0.857
0.0174447 0.309323 0.857
0.0180624 0.309323 0.857
0.01868 0.309323 0.857
0.0192977 0.309323 0.857
0.0199154 0.309323 0.857
0.020533 0.309323 0.857
0.0211507 0.309323 0.857
0.0217684 0.309323 0.857
0.022386 0.309323 0.857
0.0230037 0.309323 0.857
0.0236214 0.309323 0.857
0.024239 0.309323 0.857
0.0248567 0.309323 0.857
0.0255041 0.309683 0.858
0.0261225 0.309683 0.858
0.0267409 0.309683 0.858
0.0273592 0.309683 0.858
0.0279776 0.309683 0.858
0.028596 0.309683 0.858
0.0292144 0.309683 0.858
0.0298676 0.310044 0.859
0.0304867 0.310044 0.859
0.0311058 0.310044 0.859
0.0317249 0.310044 0.859
0.0323816 0.310405 0.86
0.0330015 0.310405 0.86
0.0336213 0.310405 0.86
0.0342411 0.310405 0.86
0.0348609 0.310405 0.86
0.0354808 0.310405 0.86
0.0361006 0.310405 0.86
0.0367204 0.310405 0.86
0.0373403 0.310405 0.86
0.0379601 0.310405 0.86
0.0385799 0.310405 0.86
0.0391997 0.310405 0.86
0.0398196 0.310405 0.86
0.0404394 0.310405 0.86
0.0410592 0.310405 0.86
0.0416791 0.310405 0.86
0.0422989 0.310405 0.86
0.0429187 0.310405 0.86
0.0435385 0.310405 0.86
0.0441584 0.310405 0.86
0.0447782 0.310405 0.86
0.045398 0.310405 0.86
0.0460178 0.310405 0.86
0.0466377 0.310405 0.86
0.0472575 0.310405 0.86
0.0478773 0.310405 0.86
0.0484972 0.310405 0.86
0.049117 0.310405 0.86
0.0497368 0.310405 0.86
0.0504152 0.310766 0.861
0.0510357 0.310766 0.861
0.0516563 0.310766 0.861
0.0522768 0.310766 0.861
0.0528974 0.310766 0.861
0.0535179 0.310766 0.861
0.0541385 0.310766 0.861
0.054759 0.310766 0.861
0.0553796 0.310766 0.861
0.0560001 0.310766 0.861
0.0566207 0.310766 0.861
0.0571747 0.310405 0.86
0.0577946 0.310405 0.86
0.0584144 0.310405 0.86
0.0590342 0.310405 0.86
0.0595847 0.310044 0.859
0.0602038 0.310044 0.859
0.0608229 0.310044 0.859
0.061442 0.310044 0.859
0.0620611 0.310044 0.859
0.0626073 0.309683 0.858
0.0632256 0.309683 0.858
0.063844 0.309683 0.858
0.0644624 0.309683 0.858
0.0650808 0.309683 0.858
0.0656992 0.309683 0.858
0.0663176 0.309683 0.858
0.0669359 0.309683 0.858
0.0675543 0.309683 0.858
0.0681727 0.309683 0.858
0.0687911 0.309683 0.858
0.0694095 0.309683 0.858
0.0700279 0.309683 0.858
0.0706463 0.309683 0.858
0.0713477 0.310044 0.859
0.0719668 0.310044 0.859
0.0725859 0.310044 0.859
0.073205 0.310044 0.859
0.0738241 0.310044 0.859
0.0744432 0.310044 0.859
0.0751497 0.310405 0.86
0.0757696 0.310405 0.86
0.0763894 0.310405 0.86
0.0770092 0.310405 0.86
0.077629 0.310405 0.86
0.0782489 0.310405 0.86
0.0788687 0.310405 0.86
0.0794885 0.310405 0.86
0.0801084 0.310405 0.86
0.0807282 0.310405 0.86
0.081348 0.310405 0.86
0.0819678 0.310405 0.86
0.0825877 0.310405 0.86
0.0833042 0.310766 0.861
0.0839248 0.310766 0.861
0.0845454 0.310766 0.861
0.0851659 0.310766 0.861
0.0858861 0.311127 0.862
0.0865074 0.311127 0.862
0.0871286 0.311127 0.862
0.0878517 0.311488 0.863
0.0884737 0.311488 0.863
0.0890957 0.311488 0.863
0.0898216 0.311849 0.864
0.0904443 0.311849 0.864
0.091067 0.311849 0.864
0.0917959 0.31221 0.865
0.0924193 0.31221 0.865
0.0930427 0.31221 0.865
0.0937744 0.312571 0.866
0.0943986 0.312571 0.866
0.0950228 0.312571 0.866
0.0957573 0.312932 0.867
0.0964934 0.313293 0.868
0.097119 0.313293 0.868
0.0977446 0.313293 0.868
0.0983702 0.313293 0.868
0.0991098 0.313654 0.869
0.0997361 0.313654 0.869
0.100593 0.314376 0.871
0.101337 0.314737 0.872
0.101966 0.314737 0.872
0.102594 0.314737 0.872
0.103341 0.315097 0.873
0.10397 0.315097 0.873
0.1046 0.315097 0.873
0.105349 0.315458 0.874
0.105979 0.315458 0.874
0.106609 0.315458 0.874
0.107362 0.315819 0.875
0.107992 0.315819 0.875
0.108623 0.315819 0.875
0.109254 0.315819 0.875
0.109884 0.315819 0.875
0.110515 0.315819 0.875
0.111146 0.315819 0.875
0.111776 0.315819 0.875
0.112407 0.315819 0.875
0.113038 0.315819 0.875
0.113668 0.315819 0.875
-0.0673335 0.342128 0.946
-0.0666517 0.342128 0.946
-0.0661094 0.342851 0.948
-0.0654261 0.342851 0.948
-0.0648112 0.343213 0.949
-0.0641272 0.343213 0.949
-0.0634433 0.343213 0.949
-0.0627593 0.343213 0.949
-0.0620753 0.343213 0.949
-0.0613913 0.343213 0.949
-0.0606434 0.342851 0.948
-0.0598969 0.34249 0.947
-0.0592144 0.34249 0.947
-0.05847 0.342128 0.946
-0.057666 0.341405 0.944
-0.0569857 0.341405 0.944
-0.0561264 0.34032 0.941
-0.0553303 0.339597 0.939
-0.0546535 0.339597 0.939
-0.0538618 0.338873 0.937
-0.0531297 0.338512 0.936
-0.0524551 0.338512 0.936
-0.0516699 0.337788 0.934
-0.0508329 0.336703 0.931
-0.0501619 0.336703 0.931
-0.0493846 0.33598 0.929
-0.048715 0.33598 0.929
-0.0357994 0.311026 0.86
-0.0351796 0.311026 0.86
-0.0345597 0.311026 0.86
-0.033782 0.309579 0.856
-0.0331651 0.309579 0.856
-0.0325101 0.309217 0.855
-0.0318193 0.308494 0.853
-0.0312045 0.308494 0.853
-0.0305897 0.308494 0.853
-0.0299398 0.308132 0.852
-0.0293258 0.308132 0.852
-0.0287117 0.308132 0.852
-0.0280647 0.307771 0.851
-0.0274513 0.307771 0.851
-0.026838 0.307771 0.851
-0.0261938 0.307409 0.85
-0.0255812 0.307409 0.85
-0.0249686 0.307409 0.85
-0.024356 0.307409 0.85
-0.0237433 0.307409 0.85
-0.0231307 0.307409 0.85
-0.0225181 0.307409 0.85
-0.0218797 0.307047 0.849
-0.0212678 0.307047 0.849
-0.0206559 0.307047 0.849
-0.020044 0.307047 0.849
-0.0194321 0.307047 0.849
-0.0188202 0.307047 0.849
-0.0182083 0.307047 0.849
-0.0175964 0.307047 0.849
-0.0169645 0.306686 0.848
-0.0163533 0.306686 0.848
-0.0157421 0.306686 0.848
-0.015131 0.306686 0.848
-0.0145198 0.306686 0.848
-0.0139086 0.306686 0.848
-0.0132974 0.306686 0.848
-0.0126862 0.306686 0.848
-0.0120751 0.306686 0.848
-0.0114639 0.306686 0.848
-0.0108527 0.306686 0.848
-0.0102415 0.306686 0.848
-0.00963036 0.306686 0.848
-0.00901918 0.306686 0.848
-0.00841791 0.307047 0.849
-0.00780601 0.307047 0.849
-0.00719411 0.307047 0.849
-0.00658221 0.307047 0.849
-0.00597735 0.307409 0.85
-0.00536473 0.307409 0.85
-0.00475211 0.307409 0.85
-0.00414436 0.307771 0.851
-0.00353102 0.307771 0.851
-0.00291767 0.307771 0.851
-0.00230704 0.308132 0.852
-0.00169298 0.308132 0.852
-0.00107892 0.308132 0.852
-0.000465402 0.308494 0.853
0.00014938 0.308494 0.853
0.000764163 0.308494 0.853
0.00138056 0.308856 0.854
0.00199607 0.308856 0.854
0.00261157 0.308856 0.854
0.00322707 0.308856 0.854
0.00384707 0.309217 0.855
0.0044633 0.309217 0.855
0.00507952 0.309217 0.855
0.00570241 0.309579 0.856
0.00631935 0.309579 0.856
0.0069363 0.309579 0.856
0.00755324 0.309579 0.856
0.00817019 0.309579 0.856
0.00878713 0.309579 0.856
0.00940408 0.309579 0.856
0.0100327 0.309941 0.857
0.0106504 0.309941 0.857
0.0112681 0.309941 0.857
0.0118857 0.309941 0.857
0.0125034 0.309941 0.857
0.0131211 0.309941 0.857
0.0137387 0.309941 0.857
0.0143564 0.309941 0.857
0.0149741 0.309941 0.857
0.0155917 0.309941 0.857
0.0162094 0.309941 0.857
0.016827 0.309941 0.857
0.0174447 0.309941 0.857
0.0180624 0.309941 0.857
0.01868 0.309941 0.857
0.0192977 0.309941 0.857
0.0199154 0.309941 0.857
0.020533 0.309941 0.857
0.0211507 0.309941 0.857
0.0217684 0.309941 0.857
0.022386 0.309941 0.857
0.0230037 0.309941 0.857
0.0236214 0.309941 0.857
0.024239 0.309941 0.857
0.0248567 0.309941 0.857
0.0255041 0.310302 0.858
0.0261225 0.310302 0.858
0.0267409 0.310302 0.858
0.0273592 0.310302 0.858
0.0279776 0.310302 0.858
0.028596 0.310302 0.858
0.0292144 0.310302 0.858
0.0298328 0.310302 0.858
0.0304512 0.310302 0.858
0.0310696 0.310302 0.858
0.0317249 0.310664 0.859
0.032344 0.310664 0.859
0.0329631 0.310664 0.859
0.0335822 0.310664 0.859
0.0342411 0.311026 0.86
0.0348609 0.311026 0.86
0.0354808 0.311026 0.86
0.0361006 0.311026 0.86
0.0367204 0.311026 0.86
0.0373403 0.311026 0.86
0.0379601 0.311026 0.86
0.0385799 0.311026 0.86
0.0391997 0.311026 0.86
0.0398196 0.311026 0.86
0.0404394 0.311026 0.86
0.0410592 0.311026 0.86
0.0416791 0.311026 0.86
0.0422989 0.311026 0.86
0.0429187 0.311026 0.86
0.0435385 0.311026 0.86
0.0441584 0.311026 0.86
0.0447782 0.311026 0.86
0.045398 0.311026 0.86
0.0460178 0.311026 0.86
0.0466377 0.311026 0.86
0.0472575 0.311026 0.86
0.0478773 0.311026 0.86
0.0484972 0.311026 0.86
0.049117 0.311026 0.86
0.0497368 0.311026 0.86
0.0503566 0.311026 0.86
0.0509765 0.311026 0.86
0.0515963 0.311026 0.86
0.0522161 0.311026 0.86
0.0528359 0.311026 0.86
0.0534558 0.311026 0.86
0.0540756 0.311026 0.86
0.0546954 0.311026 0.86
0.0553153 0.311026 0.86
0.0560001 0.311387 0.861
0.0565549 0.311026 0.86
0.0571747 0.311026 0.86
0.0577946 0.311026 0.86
0.0584144 0.311026 0.86
0.0590342 0.311026 0.86
0.0595847 0.310664 0.859
0.0602038 0.310664 0.859
0.0608229 0.310664 0.859
0.061442 0.310664 0.859
0.0620611 0.310664 0.859
0.0626073 0.310302 0.858
0.0632256 0.310302 0.858
0.063844 0.310302 0.858
0.0644624 0.310302 0.858
0.0650808 0.310302 0.858
0.0656992 0.310302 0.858
0.0663176 0.310302 0.858
0.0669359 0.310302 0.858
0.0675543 0.310302 0.858
0.0681727 0.310302 0.858
0.0687911 0.310302 0.858
0.0694095 0.310302 0.858
0.0700279 0.310302 0.858
0.0706463 0.310302 0.858
0.0712647 0.310302 0.858
0.0719668 0.310664 0.859
0.0725859 0.310664 0.859
0.073205 0.310664 0.859
0.0738241 0.310664 0.859
0.0744432 0.310664 0.859
0.0750623 0.310664 0.859
0.0757696 0.311026 0.86
0.0763894 0.311026 0.86
0.0770092 0.311026 0.86
0.077629 0.311026 0.86
0.0782489 0.311026 0.86
0.0788687 0.311026 0.86
0.0794885 0.311026 0.86
0.0801084 0.311026 0.86
0.0807282 0.311026 0.86
0.081348 0.311026 0.86
0.0819678 0.311026 0.86
0.0825877 0.311026 0.86
0.0833042 0.311387 0.861
0.0839248 0.311387 0.861
0.0845454 0.311387 0.861
0.0852648 0.311749 0.862
0.0858861 0.311749 0.862
0.0865074 0.311749 0.862
0.0871286 0.311749 0.862
0.0878517 0.312111 0.863
0.0884737 0.312111 0.863
0.0891989 0.312472 0.864
0.0898216 0.312472 0.864
0.0904443 0.312472 0.864
0.091067 0.312472 0.864
0.0917959 0.312834 0.865
0.0925261 0.313195 0.866
0.0931503 0.313195 0.866
0.0937744 0.313195 0.866
0.0943986 0.313195 0.866
0.0950228 0.313195 0.866
0.0957573 0.313557 0.867
0.0964934 0.313919 0.868
0.097119 0.313919 0.868
0.0977446 0.313919 0.868
0.0984835 0.31428 0.869
0.0991098 0.31428 0.869
0.0997361 0.31428 0.869
0.100478 0.314642 0.87
0.101221 0.315004 0.871
0.101849 0.315004 0.871
0.102594 0.315365 0.872
0.103223 0.315365 0.872
0.103851 0.315365 0.872
0.10448 0.315365 0.872
0.105229 0.315727 0.873
0.105858 0.315727 0.873
0.106487 0.315727 0.873
0.107116 0.315727 0.873
0.107746 0.315727 0.873
0.108375 0.315727 0.873
0.109004 0.315727 0.873
0.109633 0.315727 0.873
0.110262 0.315727 0.873
0.110892 0.315727 0.873
0.111521 0.315727 0.873
0.11215 0.315727 0.873
0.112779 0.315727 0.873
0.113408 0.315727 0.873
0.114038 0.315727 0.873
-0.0673335 0.34281 0.946
-0.0666517 0.34281 0.946
-0.0661094 0.343535 0.948
-0.0654261 0.343535 0.948
-0.0647429 0.343535 0.948
-0.0640597 0.343535 0.948
-0.0634433 0.343898 0.949
-0.0626931 0.343535 0.948
-0.0620099 0.343535 0.948
-0.0613913 0.343898 0.949
-0.0606434 0.343535 0.948
-0.0598969 0.343173 0.947
-0.0592144 0.343173 0.947
-0.05847 0.34281 0.946
-0.0576049 0.341723 0.943
-0.0569253 0.341723 0.943
-0.0561264 0.340998 0.941
-0.0553303 0.340274 0.939
-0.0546535 0.340274 0.939
-0.0538618 0.339549 0.937
-0.0531297 0.339187 0.936
-0.0524551 0.339187 0.936
-0.0516699 0.338462 0.934
-0.0508329 0.337375 0.931
-0.0501619 0.337375 0.931
-0.0493846 0.33665 0.929
-0.048715 0.33665 0.929
-0.0357994 0.311646 0.86
-0.0351796 0.311646 0.86
-0.0345597 0.311646 0.86
-0.033782 0.310196 0.856
-0.0331651 0.310196 0.856
-0.0325101 0.309834 0.855
-0.0318193 0.309109 0.853
-0.0312045 0.309109 0.853
-0.0305897 0.309109 0.853
-0.0299398 0.308747 0.852
-0.0293258 0.308747 0.852
-0.0287117 0.308747 0.852
-0.0280647 0.308384 0.851
-0.0274513 0.308384 0.851
-0.026838 0.308384 0.851
-0.0261938 0.308022 0.85
-0.0255812 0.308022 0.85
-0.0249686 0.308022 0.85
-0.024356 0.308022 0.85
-0.0237433 0.308022 0.85
-0.0231307 0.308022 0.85
-0.0224916 0.30766 0.849
-0.0218797 0.30766 0.849
-0.0212678 0.30766 0.849
-0.0206559 0.30766 0.849
-0.020044 0.30766 0.849
-0.0194321 0.30766 0.849
-0.0188202 0.30766 0.849
-0.0182083 0.30766 0.849
-0.0175964 0.30766 0.849
-0.0169645 0.307297 0.848
-0.0163533 0.307297 0.848
-0.0157421 0.307297 0.848
-0.015131 0.307297 0.848
-0.0145198 0.307297 0.848
-0.0139086 0.307297 0.848
-0.0132974 0.307297 0.848
-0.0126862 0.307297 0.848
-0.0120751 0.307297 0.848
-0.0114639 0.307297 0.848
-0.0108527 0.307297 0.848
-0.0102415 0.307297 0.848
-0.00963036 0.307297 0.848
-0.00901918 0.307297 0.848
-0.008408 0.307297 0.848
-0.00779682 0.307297 0.848
-0.00718564 0.307297 0.848
-0.00658221 0.30766 0.849
-0.00597735 0.308022 0.85
-0.00536473 0.308022 0.85
-0.00475211 0.308022 0.85
-0.00413949 0.308022 0.85
-0.00353102 0.308384 0.851
-0.00291767 0.308384 0.851
-0.00230704 0.308747 0.852
-0.00169298 0.308747 0.852
-0.00107892 0.308747 0.852
-0.000465402 0.309109 0.853
0.00014938 0.309109 0.853
0.000764163 0.309109 0.853
0.00137895 0.309109 0.853
0.00199607 0.309472 0.854
0.00261157 0.309472 0.854
0.00322707 0.309472 0.854
0.00384707 0.309834 0.855
0.0044633 0.309834 0.855
0.00507952 0.309834 0.855
0.00569575 0.309834 0.855
0.00631935 0.310196 0.856
0.0069363 0.310196 0.856
0.00755324 0.310196 0.856
0.00817019 0.310196 0.856
0.00878713 0.310196 0.856
0.00940408 0.310196 0.856
0.010021 0.310196 0.856
0.010638 0.310196 0.856
0.0112549 0.310196 0.856
0.0118857 0.310559 0.857
0.0125034 0.310559 0.857
0.0131211 0.310559 0.857
0.0137387 0.310559 0.857
0.0143564 0.310559 0.857
0.0149741 0.310559 0.857
0.0155917 0.310559 0.857
0.0162094 0.310559 0.857
0.016827 0.310559 0.857
0.0174447 0.310559 0.857
0.0180624 0.310559 0.857
0.01868 0.310559 0.857
0.0192977 0.310559 0.857
0.0199154 0.310559 0.857
0.020533 0.310559 0.857
0.0211507 0.310559 0.857
0.0217684 0.310559 0.857
0.022386 0.310559 0.857
0.0230037 0.310559 0.857
0.0236489 0.310921 0.858
0.0242673 0.310921 0.858
0.0248857 0.310921 0.858
0.0255041 0.310921 0.858
0.0261225 0.310921 0.858
0.0267409 0.310921 0.858
0.0273592 0.310921 0.858
0.0279776 0.310921 0.858
0.028596 0.310921 0.858
0.0292144 0.310921 0.858
0.0298328 0.310921 0.858
0.0304512 0.310921 0.858
0.0310696 0.310921 0.858
0.0317249 0.311283 0.859
0.032344 0.311283 0.859
0.0329631 0.311283 0.859
0.0335822 0.311283 0.859
0.0342411 0.311646 0.86
0.0348609 0.311646 0.86
0.0354808 0.311646 0.86
0.0361006 0.311646 0.86
0.0367204 0.311646 0.86
0.0373403 0.311646 0.86
0.0379601 0.311646 0.86
0.0385799 0.311646 0.86
0.0391997 0.311646 0.86
0.0398196 0.311646 0.86
0.0404394 0.311646 0.86
0.0410592 0.311646 0.86
0.0416791 0.311646 0.86
0.0422989 0.311646 0.86
0.0429187 0.311646 0.86
0.0435385 0.311646 0.86
0.0441584 0.311646 0.86
0.0447782 0.311646 0.86
0.045398 0.311646 0.86
0.0460178 0.311646 0.86
0.0466377 0.311646 0.86
0.0472575 0.311646 0.86
0.0478773 0.311646 0.86
0.0484972 0.311646 0.86
0.049117 0.311646 0.86
0.0497368 0.311646 0.86
0.0503566 0.311646 0.86
0.0509765 0.311646 0.86
0.0515963 0.311646 0.86
0.0522161 0.311646 0.86
0.0528359 0.311646 0.86
0.0534558 0.311646 0.86
0.0540756 0.311646 0.86
0.0546954 0.311646 0.86
0.0553153 0.311646 0.86
0.0559351 0.311646 0.86
0.0565549 0.311646 0.86
0.0571747 0.311646 0.86
0.0577946 0.311646 0.86
0.0584144 0.311646 0.86
0.0589656 0.311283 0.859
0.0595847 0.311283 0.859
0.0602038 0.311283 0.859
0.0608229 0.311283 0.859
0.0613705 0.310921 0.858
0.0619889 0.310921 0.858
0.0626073 0.310921 0.858
0.0632256 0.310921 0.858
0.063844 0.310921 0.858
0.0644624 0.310921 0.858
0.0650808 0.310921 0.858
0.0656992 0.310921 0.858
0.0663176 0.310921 0.858
0.0669359 0.310921 0.858
0.0675543 0.310921 0.858
0.0681727 0.310921 0.858
0.0687911 0.310921 0.858
0.0694095 0.310921 0.858
0.0700279 0.310921 0.858
0.0706463 0.310921 0.858
0.0712647 0.310921 0.858
0.0719668 0.311283 0.859
0.0725859 0.311283 0.859
0.073205 0.311283 0.859
0.0738241 0.311283 0.859
0.0744432 0.311283 0.859
0.0750623 0.311283 0.859
0.0757696 0.311646 0.86
0.0763894 0.311646 0.86
0.0770092 0.311646 0.86
0.077629 0.311646 0.86
0.0782489 0.311646 0.86
0.0788687 0.311646 0.86
0.0794885 0.311646 0.86
0.0801084 0.311646 0.86
0.0807282 0.311646 0.86
0.081348 0.311646 0.86
0.0820632 0.312008 0.861
0.0826837 0.312008 0.861
0.0833042 0.312008 0.861
0.0840223 0.312371 0.862
0.0846435 0.312371 0.862
0.0852648 0.312371 0.862
0.0858861 0.312371 0.862
0.0865074 0.312371 0.862
0.0872297 0.312733 0.863
0.0879535 0.313095 0.864
0.0885762 0.313095 0.864
0.0891989 0.313095 0.864
0.0898216 0.313095 0.864
0.090549 0.313458 0.865
0.0911724 0.313458 0.865
0.0917959 0.313458 0.865
0.0925261 0.31382 0.866
0.0931503 0.31382 0.866
0.0937744 0.31382 0.866
0.0945076 0.314182 0.867
0.0951325 0.314182 0.867
0.0957573 0.314182 0.867
0.0964934 0.314545 0.868
0.097119 0.314545 0.868
0.0977446 0.314545 0.868
0.0984835 0.314907 0.869
0.0991098 0.314907 0.869
0.0997361 0.314907 0.869
0.100478 0.31527 0.87
0.101221 0.315632 0.871
0.101849 0.315632 0.871
0.102594 0.315994 0.872
0.103223 0.315994 0.872
0.103851 0.315994 0.872
0.10448 0.315994 0.872
0.105229 0.316357 0.873
0.105858 0.316357 0.873
0.106487 0.316357 0.873
0.107116 0.316357 0.873
0.107746 0.316357 0.873
0.108375 0.316357 0.873
0.109004 0.316357 0.873
0.109633 0.316357 0.873
0.110262 0.316357 0.873
0.110892 0.316357 0.873
0.111521 0.316357 0.873
0.11215 0.316357 0.873
0.112779 0.316357 0.873
0.113408 0.316357 0.873
0.114038 0.316357 0.873
-0.0673335 0.343493 0.946
-0.0666517 0.343493 0.946
-0.0660397 0.343856 0.947
-0.0653571 0.343856 0.947
-0.0647429 0.344219 0.948
-0.0640597 0.344219 0.948
-0.0633764 0.344219 0.948
-0.0626931 0.344219 0.948
-0.0620099 0.344219 0.948
-0.0613266 0.344219 0.948
-0.0606434 0.344219 0.948
-0.0598969 0.343856 0.947
-0.0592144 0.343856 0.947
-0.0584082 0.34313 0.945
-0.0576049 0.342403 0.943
-0.0569253 0.342403 0.943
-0.0561264 0.341677 0.941
-0.0552714 0.340588 0.938
-0.0545953 0.340588 0.938
-0.0538618 0.340225 0.937
-0.053073 0.339499 0.935
-0.0523991 0.339499 0.935
-0.0516699 0.339135 0.934
-0.0509421 0.338772 0.933
-0.0502697 0.338772 0.933
-0.0494909 0.338046 0.931
-0.0488199 0.338046 0.931
-0.035841 0.312629 0.861
-0.0352205 0.312629 0.861
-0.0345999 0.312629 0.861
-0.0338215 0.311177 0.857
-0.0332038 0.311177 0.857
-0.0325101 0.31045 0.855
-0.0318193 0.309724 0.853
-0.0312045 0.309724 0.853
-0.0305897 0.309724 0.853
-0.0299398 0.309361 0.852
-0.0293258 0.309361 0.852
-0.0287117 0.309361 0.852
-0.0280647 0.308998 0.851
-0.0274513 0.308998 0.851
-0.0268064 0.308635 0.85
-0.0261938 0.308635 0.85
-0.0255812 0.308635 0.85
-0.0249686 0.308635 0.85
-0.024356 0.308635 0.85
-0.0237433 0.308635 0.85
-0.0231307 0.308635 0.85
-0.0224916 0.308272 0.849
-0.0218797 0.308272 0.849
-0.0212678 0.308272 0.849
-0.0206559 0.308272 0.849
-0.0200204 0.307909 0.848
-0.0194092 0.307909 0.848
-0.018798 0.307909 0.848
-0.0182083 0.308272 0.849
-0.0175964 0.308272 0.849
-0.0169645 0.307909 0.848
-0.0163533 0.307909 0.848
-0.0157421 0.307909 0.848
-0.015131 0.307909 0.848
-0.0145198 0.307909 0.848
-0.0139086 0.307909 0.848
-0.0132974 0.307909 0.848
-0.0126713 0.307546 0.847
-0.0120608 0.307546 0.847
-0.0114504 0.307546 0.847
-0.0108399 0.307546 0.847
-0.0102295 0.307546 0.847
-0.009619 0.307546 0.847
-0.00900854 0.307546 0.847
-0.00839808 0.307546 0.847
-0.00779682 0.307909 0.848
-0.00718564 0.307909 0.848
-0.00657446 0.307909 0.848
-0.00597032 0.308272 0.849
-0.00536473 0.308635 0.85
-0.00475211 0.308635 0.85
-0.00413949 0.308635 0.85
-0.00352687 0.308635 0.85
-0.00291425 0.308635 0.85
-0.00230433 0.308998 0.851
-0.00169298 0.309361 0.852
-0.00107892 0.309361 0.852
-0.000464856 0.309361 0.852
0.00014938 0.309724 0.853
0.000764163 0.309724 0.853
0.00137895 0.309724 0.853
0.00199373 0.309724 0.853
0.00261157 0.310087 0.854
0.00322707 0.310087 0.854
0.00384707 0.31045 0.855
0.0044633 0.31045 0.855
0.00507952 0.31045 0.855
0.00569575 0.31045 0.855
0.00631197 0.31045 0.855
0.00692819 0.31045 0.855
0.00755324 0.310814 0.856
0.00817019 0.310814 0.856
0.00878713 0.310814 0.856
0.00940408 0.310814 0.856
0.010021 0.310814 0.856
0.010638 0.310814 0.856
0.0112549 0.310814 0.856
0.0118719 0.310814 0.856
0.0124888 0.310814 0.856
0.0131057 0.310814 0.856
0.0137387 0.311177 0.857
0.0143564 0.311177 0.857
0.0149741 0.311177 0.857
0.0155917 0.311177 0.857
0.0162094 0.311177 0.857
0.016827 0.311177 0.857
0.0174447 0.311177 0.857
0.0180624 0.311177 0.857
0.01868 0.311177 0.857
0.0192977 0.311177 0.857
0.0199154 0.311177 0.857
0.020533 0.311177 0.857
0.0211507 0.311177 0.857
0.0217938 0.31154 0.858
0.0224122 0.31154 0.858
0.0230305 0.31154 0.858
0.0236489 0.31154 0.858
0.0242673 0.31154 0.858
0.0248857 0.31154 0.858
0.0255041 0.31154 0.858
0.0261225 0.31154 0.858
0.0267409 0.31154 0.858
0.0273592 0.31154 0.858
0.0279776 0.31154 0.858
0.028596 0.31154 0.858
0.0292144 0.31154 0.858
0.0298328 0.31154 0.858
0.0304512 0.31154 0.858
0.0310696 0.31154 0.858
0.0317249 0.311903 0.859
0.032344 0.311903 0.859
0.0329631 0.311903 0.859
0.0335822 0.311903 0.859
0.0342411 0.312266 0.86
0.0348609 0.312266 0.86
0.0354808 0.312266 0.86
0.0361006 0.312266 0.86
0.0367204 0.312266 0.86
0.0373403 0.312266 0.86
0.0379601 0.312266 0.86
0.0385799 0.312266 0.86
0.0391997 0.312266 0.86
0.0398196 0.312266 0.86
0.0404394 0.312266 0.86
0.0410592 0.312266 0.86
0.0416791 0.312266 0.86
0.0422989 0.312266 0.86
0.0429187 0.312266 0.86
0.0435385 0.312266 0.86
0.0441584 0.312266 0.86
0.0447782 0.312266 0.86
0.045398 0.312266 0.86
0.0460178 0.312266 0.86
0.0466377 0.312266 0.86
0.0472575 0.312266 0.86
0.0478773 0.312266 0.86
0.0484972 0.312266 0.86
0.049117 0.312266 0.86
0.0497368 0.312266 0.86
0.0503566 0.312266 0.86
0.0509765 0.312266 0.86
0.0515963 0.312266 0.86
0.0522161 0.312266 0.86
0.0528359 0.312266 0.86
0.0534558 0.312266 0.86
0.0540756 0.312266 0.86
0.0546954 0.312266 0.86
0.0553153 0.312266 0.86
0.0559351 0.312266 0.86
0.0565549 0.312266 0.86
0.0571747 0.312266 0.86
0.0577946 0.312266 0.86
0.0584144 0.312266 0.86
0.0589656 0.311903 0.859
0.0595847 0.311903 0.859
0.0602038 0.311903 0.859
0.0608229 0.311903 0.859
0.0613705 0.31154 0.858
0.0619889 0.31154 0.858
0.0626073 0.31154 0.858
0.0632256 0.31154 0.858
0.063844 0.31154 0.858
0.0644624 0.31154 0.858
0.0650808 0.31154 0.858
0.0656992 0.31154 0.858
0.0663176 0.31154 0.858
0.0669359 0.31154 0.858
0.0675543 0.31154 0.858
0.0681727 0.31154 0.858
0.0687911 0.31154 0.858
0.0694095 0.31154 0.858
0.0700279 0.31154 0.858
0.0706463 0.31154 0.858
0.0712647 0.31154 0.858
0.0719668 0.311903 0.859
0.0725859 0.311903 0.859
0.073205 0.311903 0.859
0.0738241 0.311903 0.859
0.0744432 0.311903 0.859
0.0750623 0.311903 0.859
0.0757696 0.312266 0.86
0.0763894 0.312266 0.86
0.0770092 0.312266 0.86
0.077629 0.312266 0.86
0.0782489 0.312266 0.86
0.0788687 0.312266 0.86
0.0794885 0.312266 0.86
0.0801084 0.312266 0.86
0.0807282 0.312266 0.86
0.081348 0.312266 0.86
0.0820632 0.312629 0.861
0.0826837 0.312629 0.861
0.0833042 0.312629 0.861
0.0840223 0.312992 0.862
0.0846435 0.312992 0.862
0.0852648 0.312992 0.862
0.0858861 0.312992 0.862
0.0865074 0.312992 0.862
0.0872297 0.313355 0.863
0.0879535 0.313718 0.864
0.0885762 0.313718 0.864
0.0891989 0.313718 0.864
0.0898216 0.313718 0.864
0.090549 0.314082 0.865
0.0911724 0.314082 0.865
0.0917959 0.314082 0.865
0.0925261 0.314445 0.866
0.0931503 0.314445 0.866
0.0937744 0.314445 0.866
0.0945076 0.314808 0.867
0.0951325 0.314808 0.867
0.0957573 0.314808 0.867
0.0964934 0.315171 0.868
0.097119 0.315171 0.868
0.0977446 0.315171 0.868
0.0984835 0.315534 0.869
0.0991098 0.315534 0.869
0.0997361 0.315534 0.869
0.100478 0.315897 0.87
0.101105 0.315897 0.87
0.101732 0.315897 0.87
0.102477 0.31626 0.871
0.103223 0.316623 0.872
0.103851 0.316623 0.872
0.10448 0.316623 0.872
0.105108 0.316623 0.872
0.105737 0.316623 0.872
0.106365 0.316623 0.872
0.106994 0.316623 0.872
0.107622 0.316623 0.872
0.108251 0.316623 0.872
0.108879 0.316623 0.872
0.109508 0.316623 0.872
0.110136 0.316623 0.872
0.110765 0.316623 0.872
0.111393 0.316623 0.872
0.112021 0.316623 0.872
0.11265 0.316623 0.872
0.113278 0.316623 0.872
0.113907 0.316623 0.872
-0.0686246 0.343811 0.945
-0.0679435 0.343811 0.945
-0.0672624 0.343811 0.945
-0.0666517 0.344175 0.946
-0.0659699 0.344175 0.946
-0.0652881 0.344175 0.946
-0.0646063 0.344175 0.946
-0.0639921 0.344539 0.947
-0.0633095 0.344539 0.947
-0.062627 0.344539 0.947
-0.0618791 0.344175 0.946
-0.0611973 0.344175 0.946
-0.0605154 0.344175 0.946
-0.0597704 0.343811 0.945
-0.0590893 0.343811 0.945
-0.0583464 0.343447 0.944
-0.0575439 0.34272 0.942
-0.0568649 0.34272 0.942
-0.0560071 0.341628 0.939
-0.0552125 0.3409 0.937
-0.0545371 0.3409 0.937
-0.0537468 0.340173 0.935
-0.0530162 0.339809 0.934
-0.052343 0.339809 0.934
-0.0516145 0.339445 0.933
-0.0509421 0.339445 0.933
-0.0502697 0.339445 0.933
-0.0495441 0.339081 0.932
-0.0488723 0.339081 0.932
-0.0358826 0.313614 0.862
-0.0352614 0.313614 0.862
-0.0346401 0.313614 0.862
-0.033861 0.312159 0.858
-0.0332426 0.312159 0.858
-0.0325101 0.311067 0.855
-0.0318566 0.310703 0.854
-0.0312411 0.310703 0.854
-0.0305897 0.31034 0.853
-0.0299398 0.309976 0.852
-0.0293258 0.309976 0.852
-0.0287117 0.309976 0.852
-0.0280647 0.309612 0.851
-0.0274513 0.309612 0.851
-0.0268064 0.309248 0.85
-0.0261938 0.309248 0.85
-0.0255812 0.309248 0.85
-0.0249686 0.309248 0.85
-0.024356 0.309248 0.85
-0.0237433 0.309248 0.85
-0.0231307 0.309248 0.85
-0.0224916 0.308884 0.849
-0.0218797 0.308884 0.849
-0.0212678 0.308884 0.849
-0.0206559 0.308884 0.849
-0.0200204 0.30852 0.848
-0.0194092 0.30852 0.848
-0.018798 0.30852 0.848
-0.0182083 0.308884 0.849
-0.0175964 0.308884 0.849
-0.0169645 0.30852 0.848
-0.0163533 0.30852 0.848
-0.0157421 0.30852 0.848
-0.015131 0.30852 0.848
-0.0145198 0.30852 0.848
-0.0139086 0.30852 0.848
-0.0132974 0.30852 0.848
-0.0126713 0.308157 0.847
-0.0120608 0.308157 0.847
-0.0114504 0.308157 0.847
-0.0108399 0.308157 0.847
-0.0102295 0.308157 0.847
-0.009619 0.308157 0.847
-0.00900854 0.308157 0.847
-0.00839808 0.308157 0.847
-0.00779682 0.30852 0.848
-0.00718564 0.30852 0.848
-0.00657446 0.30852 0.848
-0.00597032 0.308884 0.849
-0.00536473 0.309248 0.85
-0.00475211 0.309248 0.85
-0.00413949 0.309248 0.85
-0.00352687 0.309248 0.85
-0.00291425 0.309248 0.85
-0.00230433 0.309612 0.851
-0.00169298 0.309976 0.852
-0.00107892 0.309976 0.852
-0.000464856 0.309976 0.852
0.00014938 0.31034 0.853
0.000764163 0.31034 0.853
0.00137895 0.31034 0.853
0.00199373 0.31034 0.853
0.00261157 0.310703 0.854
0.00322707 0.310703 0.854
0.00384707 0.311067 0.855
0.0044633 0.311067 0.855
0.00507952 0.311067 0.855
0.00569575 0.311067 0.855
0.00631197 0.311067 0.855
0.00692819 0.311067 0.855
0.00755324 0.311431 0.856
0.00817019 0.311431 0.856
0.00878713 0.311431 0.856
0.00940408 0.311431 0.856
0.010021 0.311431 0.856
0.010638 0.311431 0.856
0.0112549 0.311431 0.856
0.0118719 0.311431 0.856
0.0124888 0.311431 0.856
0.0131057 0.311431 0.856
0.0137387 0.311795 0.857
0.0143564 0.311795 0.857
0.0149741 0.311795 0.857
0.0155917 0.311795 0.857
0.0162094 0.311795 0.857
0.016827 0.311795 0.857
0.0174447 0.311795 0.857
0.0180624 0.311795 0.857
0.01868 0.311795 0.857
0.0192977 0.311795 0.857
0.0199154 0.311795 0.857
0.020533 0.311795 0.857
0.0211507 0.311795 0.857
0.0217938 0.312159 0.858
0.0224122 0.312159 0.858
0.0230305 0.312159 0.858
0.0236489 0.312159 0.858
0.0242673 0.312159 0.858
0.0248857 0.312159 0.858
0.0255041 0.312159 0.858
0.0261225 0.312159 0.858
0.0267409 0.312159 0.858
0.0273592 0.312159 0.858
0.0279776 0.312159 0.858
0.028596 0.312159 0.858
0.0292144 0.312159 0.858
0.0298328 0.312159 0.858
0.0304512 0.312159 0.858
0.0310696 0.312159 0.858
0.0317249 0.312522 0.859
0.032344 0.312522 0.859
0.0329631 0.312522 0.859
0.0335822 0.312522 0.859
0.0342013 0.312522 0.859
0.0348204 0.312522 0.859
0.0354395 0.312522 0.859
0.0360586 0.312522 0.859
0.0366777 0.312522 0.859
0.0372968 0.312522 0.859
0.0379159 0.312522 0.859
0.0385351 0.312522 0.859
0.0391542 0.312522 0.859
0.0397733 0.312522 0.859
0.0404394 0.312886 0.86
0.0410592 0.312886 0.86
0.0416306 0.312522 0.859
0.0422497 0.312522 0.859
0.0428688 0.312522 0.859
0.0434879 0.312522 0.859
0.0441584 0.312886 0.86
0.0447782 0.312886 0.86
0.045398 0.312886 0.86
0.0460178 0.312886 0.86
0.0466377 0.312886 0.86
0.0472575 0.312886 0.86
0.0478773 0.312886 0.86
0.0484972 0.312886 0.86
0.049117 0.312886 0.86
0.0497368 0.312886 0.86
0.0503566 0.312886 0.86
0.0509765 0.312886 0.86
0.0515963 0.312886 0.86
0.0522161 0.312886 0.86
0.0528359 0.312886 0.86
0.0533936 0.312522 0.859
0.0540127 0.312522 0.859
0.0546318 0.312522 0.859
0.0552509 0.312522 0.859
0.05587 0.312522 0.859
0.0564891 0.312522 0.859
0.0571083 0.312522 0.859
0.0577274 0.312522 0.859
0.0583465 0.312522 0.859
0.0589656 0.312522 0.859
0.0595847 0.312522 0.859
0.0602038 0.312522 0.859
0.0607521 0.312159 0.858
0.0613705 0.312159 0.858
0.0619889 0.312159 0.858
0.0626073 0.312159 0.858
0.0632256 0.312159 0.858
0.063844 0.312159 0.858
0.0644624 0.312159 0.858
0.0650808 0.312159 0.858
0.0656992 0.312159 0.858
0.0663176 0.312159 0.858
0.0669359 0.312159 0.858
0.0675543 0.312159 0.858
0.0681727 0.312159 0.858
0.0687911 0.312159 0.858
0.0694095 0.312159 0.858
0.0700279 0.312159 0.858
0.0706463 0.312159 0.858
0.0712647 0.312159 0.858
0.0719668 0.312522 0.859
0.0725859 0.312522 0.859
0.073205 0.312522 0.859
0.0738241 0.312522 0.859
0.0744432 0.312522 0.859
0.0751497 0.312886 0.86
0.0757696 0.312886 0.86
0.0763894 0.312886 0.86
0.0770092 0.312886 0.86
0.077629 0.312886 0.86
0.0782489 0.312886 0.86
0.0789604 0.31325 0.861
0.079581 0.31325 0.861
0.0802015 0.31325 0.861
0.0808221 0.31325 0.861
0.0814426 0.31325 0.861
0.0820632 0.31325 0.861
0.0826837 0.31325 0.861
0.083401 0.313614 0.862
0.0840223 0.313614 0.862
0.0846435 0.313614 0.862
0.0852648 0.313614 0.862
0.0859857 0.313978 0.863
0.0866077 0.313978 0.863
0.0872297 0.313978 0.863
0.0879535 0.314342 0.864
0.0885762 0.314342 0.864
0.0891989 0.314342 0.864
0.0899256 0.314705 0.865
0.0906537 0.315069 0.866
0.0912778 0.315069 0.866
0.091902 0.315069 0.866
0.0925261 0.315069 0.866
0.0931503 0.315069 0.866
0.0938827 0.315433 0.867
0.0945076 0.315433 0.867
0.0951325 0.315433 0.867
0.0957573 0.315433 0.867
0.0964934 0.315797 0.868
0.097119 0.315797 0.868
0.0977446 0.315797 0.868
0.0983702 0.315797 0.868
0.0991098 0.316161 0.869
0.0997361 0.316161 0.869
0.100362 0.316161 0.869
0.101105 0.316524 0.87
0.101732 0.316524 0.87
0.102359 0.316524 0.87
0.103104 0.316888 0.871
0.103732 0.316888 0.871
0.10436 0.316888 0.871
0.104988 0.316888 0.871
0.105615 0.316888 0.871
0.106243 0.316888 0.871
0.106871 0.316888 0.871
0.107499 0.316888 0.871
0.108126 0.316888 0.871
0.108754 0.316888 0.871
0.109382 0.316888 0.871
0.11001 0.316888 0.871
0.110638 0.316888 0.871
0.111265 0.316888 0.871
0.111893 0.316888 0.871
0.112521 0.316888 0.871
0.113149 0.316888 0.871
0.113776 0.316888 0.871
0.114404 0.316888 0.871
-0.0686246 0.344493 0.945
-0.0679435 0.344493 0.945
-0.0672624 0.344493 0.945
-0.0666517 0.344857 0.946
-0.0659699 0.344857 0.946
-0.0652881 0.344857 0.946
-0.0646063 0.344857 0.946
-0.0639921 0.345222 0.947
-0.0633095 0.345222 0.947
-0.062627 0.345222 0.947
-0.0618791 0.344857 0.946
-0.0611973 0.344857 0.946
-0.0605154 0.344857 0.946
-0.0597704 0.344493 0.945
-0.0590893 0.344493 0.945
-0.0583464 0.344128 0.944
-0.0575439 0.343399 0.942
-0.0568649 0.343399 0.942
-0.0560071 0.342305 0.939
-0.0552125 0.341576 0.937
-0.0545371 0.341576 0.937
-0.0537468 0.340847 0.935
-0.0530162 0.340483 0.934
-0.052343 0.340483 0.934
-0.0516145 0.340118 0.933
-0.0508875 0.339754 0.932
-0.0502158 0.339754 0.932
-0.0494909 0.339389 0.931
-0.0488199 0.339389 0.931
-0.0365886 0.314965 0.864
-0.0358826 0.314236 0.862
-0.0352614 0.314236 0.862
-0.0346401 0.314236 0.862
-0.033861 0.312777 0.858
-0.0332426 0.312777 0.858
-0.0325101 0.311684 0.855
-0.0318193 0.310955 0.853
-0.0312045 0.310955 0.853
-0.0305539 0.31059 0.852
-0.0299047 0.310226 0.851
-0.0292913 0.310226 0.851
-0.028678 0.310226 0.851
-0.0280317 0.309861 0.85
-0.0274191 0.309861 0.85
-0.0268064 0.309861 0.85
-0.0261938 0.309861 0.85
-0.0255511 0.309496 0.849
-0.0249392 0.309496 0.849
-0.0243273 0.309496 0.849
-0.0237154 0.309496 0.849
-0.0231035 0.309496 0.849
-0.0224916 0.309496 0.849
-0.0218797 0.309496 0.849
-0.0212678 0.309496 0.849
-0.0206559 0.309496 0.849
-0.0200204 0.309132 0.848
-0.0194092 0.309132 0.848
-0.018798 0.309132 0.848
-0.0181869 0.309132 0.848
-0.0175757 0.309132 0.848
-0.0169645 0.309132 0.848
-0.0163533 0.309132 0.848
-0.0157421 0.309132 0.848
-0.015131 0.309132 0.848
-0.0145198 0.309132 0.848
-0.0138922 0.308767 0.847
-0.0132817 0.308767 0.847
-0.0126713 0.308767 0.847
-0.0120608 0.308767 0.847
-0.0114504 0.308767 0.847
-0.0108399 0.308767 0.847
-0.0102295 0.308767 0.847
-0.009619 0.308767 0.847
-0.00900854 0.308767 0.847
-0.00839808 0.308767 0.847
-0.00778763 0.308767 0.847
-0.00717717 0.308767 0.847
-0.00656671 0.308767 0.847
-0.00596328 0.309132 0.848
-0.0053521 0.309132 0.848
-0.00474652 0.309496 0.849
-0.00413949 0.309861 0.85
-0.00352687 0.309861 0.85
-0.00291425 0.309861 0.85
-0.00230163 0.309861 0.85
-0.00169099 0.310226 0.851
-0.00107765 0.310226 0.851
-0.000464856 0.31059 0.852
0.00014938 0.310955 0.853
0.000764163 0.310955 0.853
0.00137895 0.310955 0.853
0.00199373 0.310955 0.853
0.00261157 0.311319 0.854
0.00322707 0.311319 0.854
0.00384257 0.311319 0.854
0.00445808 0.311319 0.854
0.00507358 0.311319 0.854
0.00569575 0.311684 0.855
0.00631197 0.311684 0.855
0.00692819 0.311684 0.855
0.00754442 0.311684 0.855
0.00816064 0.311684 0.855
0.00877686 0.311684 0.855
0.00940408 0.312048 0.856
0.010021 0.312048 0.856
0.010638 0.312048 0.856
0.0112549 0.312048 0.856
0.0118719 0.312048 0.856
0.0124888 0.312048 0.856
0.0131057 0.312048 0.856
0.0137227 0.312048 0.856
0.0143396 0.312048 0.856
0.0149566 0.312048 0.856
0.0155917 0.312413 0.857
0.0162094 0.312413 0.857
0.016827 0.312413 0.857
0.0174447 0.312413 0.857
0.0180624 0.312413 0.857
0.01868 0.312413 0.857
0.0192977 0.312413 0.857
0.0199154 0.312413 0.857
0.020533 0.312413 0.857
0.0211507 0.312413 0.857
0.0217684 0.312413 0.857
0.022386 0.312413 0.857
0.0230037 0.312413 0.857
0.0236489 0.312777 0.858
0.0242673 0.312777 0.858
0.0248857 0.312777 0.858
0.0255041 0.312777 0.858
0.0261225 0.312777 0.858
0.0267409 0.312777 0.858
0.0273592 0.312777 0.858
0.0279776 0.312777 0.858
0.028596 0.312777 0.858
0.0292144 0.312777 0.858
0.0298328 0.312777 0.858
0.0304512 0.312777 0.858
0.0310696 0.312777 0.858
0.0316879 0.312777 0.858
0.0323063 0.312777 0.858
0.0329247 0.312777 0.858
0.0335822 0.313142 0.859
0.0342013 0.313142 0.859
0.0348204 0.313142 0.859
0.0354395 0.313142 0.859
0.0360586 0.313142 0.859
0.0366777 0.313142 0.859
0.0372968 0.313142 0.859
0.0379159 0.313142 0.859
0.0385351 0.313142 0.859
0.0391542 0.313142 0.859
0.0397733 0.313142 0.859
0.0403924 0.313142 0.859
0.0410115 0.313142 0.859
0.0416306 0.313142 0.859
0.0422497 0.313142 0.859
0.0428688 0.313142 0.859
0.0434879 0.313142 0.859
0.0441584 0.313506 0.86
0.0447782 0.313506 0.86
0.045398 0.313506 0.86
0.0460178 0.313506 0.86
0.0465834 0.313142 0.859
0.0472025 0.313142 0.859
0.0478217 0.313142 0.859
0.0484408 0.313142 0.859
0.0490599 0.313142 0.859
0.049679 0.313142 0.859
0.0502981 0.313142 0.859
0.0509172 0.313142 0.859
0.0515363 0.313142 0.859
0.0521554 0.313142 0.859
0.0527745 0.313142 0.859
0.0533936 0.313142 0.859
0.0540127 0.313142 0.859
0.0546318 0.313142 0.859
0.0552509 0.313142 0.859
0.05587 0.313142 0.859
0.0564891 0.313142 0.859
0.0571083 0.313142 0.859
0.0577274 0.313142 0.859
0.0582785 0.312777 0.858
0.0588969 0.312777 0.858
0.0595153 0.312777 0.858
0.0601337 0.312777 0.858
0.0607521 0.312777 0.858
0.0613705 0.312777 0.858
0.0619889 0.312777 0.858
0.0626073 0.312777 0.858
0.0632256 0.312777 0.858
0.063844 0.312777 0.858
0.0644624 0.312777 0.858
0.0650808 0.312777 0.858
0.0656992 0.312777 0.858
0.0663176 0.312777 0.858
0.0669359 0.312777 0.858
0.0675543 0.312777 0.858
0.0681727 0.312777 0.858
0.0687911 0.312777 0.858
0.0694095 0.312777 0.858
0.0700279 0.312777 0.858
0.0706463 0.312777 0.858
0.0712647 0.312777 0.858
0.0719668 0.313142 0.859
0.0725859 0.313142 0.859
0.073205 0.313142 0.859
0.0738241 0.313142 0.859
0.0744432 0.313142 0.859
0.0751497 0.313506 0.86
0.0757696 0.313506 0.86
0.0763894 0.313506 0.86
0.0770092 0.313506 0.86
0.0777193 0.313871 0.861
0.0783399 0.313871 0.861
0.0789604 0.313871 0.861
0.079581 0.313871 0.861
0.0802947 0.314236 0.862
0.0809159 0.314236 0.862
0.0815372 0.314236 0.862
0.0821585 0.314236 0.862
0.0827797 0.314236 0.862
0.083401 0.314236 0.862
0.0840223 0.314236 0.862
0.0846435 0.314236 0.862
0.0853637 0.3146 0.863
0.0859857 0.3146 0.863
0.0866077 0.3146 0.863
0.0873308 0.314965 0.864
0.0879535 0.314965 0.864
0.0886787 0.315329 0.865
0.0893021 0.315329 0.865
0.0899256 0.315329 0.865
0.0906537 0.315694 0.866
0.0912778 0.315694 0.866
0.091902 0.315694 0.866
0.0925261 0.315694 0.866
0.0931503 0.315694 0.866
0.0938827 0.316058 0.867
0.0946166 0.316423 0.868
0.0952422 0.316423 0.868
0.0958678 0.316423 0.868
0.0964934 0.316423 0.868
0.097119 0.316423 0.868
0.0977446 0.316423 0.868
0.0983702 0.316423 0.868
0.0991098 0.316787 0.869
0.0997361 0.316787 0.869
0.100362 0.316787 0.869
0.101105 0.317152 0.87
0.101732 0.317152 0.87
0.102359 0.317152 0.87
0.103104 0.317516 0.871
0.103732 0.317516 0.871
0.10436 0.317516 0.871
0.104988 0.317516 0.871
0.105615 0.317516 0.871
0.106243 0.317516 0.871
0.106871 0.317516 0.871
0.107499 0.317516 0.871
0.108126 0.317516 0.871
0.108754 0.317516 0.871
0.109382 0.317516 0.871
0.11001 0.317516 0.871
0.110638 0.317516 0.871
0.111265 0.317516 0.871
0.111893 0.317516 0.871
0.112521 0.317516 0.871
0.113149 0.317516 0.871
0.113776 0.317516 0.871
0.114404 0.317516 0.871
-0.0685519 0.344809 0.944
-0.0678716 0.344809 0.944
-0.0671912 0.344809 0.944
-0.0665108 0.344809 0.944
-0.0659002 0.345174 0.945
-0.0652191 0.345174 0.945
-0.064538 0.345174 0.945
-0.0638569 0.345174 0.945
-0.0631758 0.345174 0.945
-0.0624947 0.345174 0.945
-0.0618137 0.345174 0.945
-0.0611326 0.345174 0.945
-0.0604515 0.345174 0.945
-0.0597071 0.344809 0.944
-0.0590268 0.344809 0.944
-0.0582228 0.344078 0.942
-0.0574217 0.343348 0.94
-0.0567442 0.343348 0.94
-0.0559474 0.342617 0.938
-0.0551535 0.341887 0.936
-0.0544789 0.341887 0.936
-0.0536894 0.341156 0.934
-0.0529594 0.340791 0.933
-0.052287 0.340791 0.933
-0.0515592 0.340426 0.932
-0.0508329 0.34006 0.931
-0.0501619 0.34006 0.931
-0.0494378 0.339695 0.93
-0.0487675 0.339695 0.93
-0.0365886 0.315588 0.864
-0.0359243 0.315223 0.863
-0.0353023 0.315223 0.863
-0.0346803 0.315223 0.863
-0.0338215 0.313031 0.857
-0.0332038 0.313031 0.857
-0.0324721 0.311935 0.854
-0.0318193 0.31157 0.853
-0.0312045 0.31157 0.853
-0.030518 0.310839 0.851
-0.0298695 0.310474 0.85
-0.0292569 0.310474 0.85
-0.0286443 0.310474 0.85
-0.0279987 0.310109 0.849
-0.0273868 0.310109 0.849
-0.0267749 0.310109 0.849
-0.026163 0.310109 0.849
-0.0255511 0.310109 0.849
-0.0249392 0.310109 0.849
-0.0242986 0.309744 0.848
-0.0236875 0.309744 0.848
-0.0230763 0.309744 0.848
-0.0224651 0.309744 0.848
-0.0218539 0.309744 0.848
-0.0212428 0.309744 0.848
-0.0206316 0.309744 0.848
-0.0200204 0.309744 0.848
-0.0194092 0.309744 0.848
-0.018798 0.309744 0.848
-0.0181869 0.309744 0.848
-0.0175757 0.309744 0.848
-0.0169645 0.309744 0.848
-0.0163533 0.309744 0.848
-0.0157421 0.309744 0.848
-0.015131 0.309744 0.848
-0.0145198 0.309744 0.848
-0.0138922 0.309378 0.847
-0.0132817 0.309378 0.847
-0.0126713 0.309378 0.847
-0.0120608 0.309378 0.847
-0.0114504 0.309378 0.847
-0.0108399 0.309378 0.847
-0.0102295 0.309378 0.847
-0.009619 0.309378 0.847
-0.00900854 0.309378 0.847
-0.00839808 0.309378 0.847
-0.00778763 0.309378 0.847
-0.00717717 0.309378 0.847
-0.00656671 0.309378 0.847
-0.00596328 0.309744 0.848
-0.0053521 0.309744 0.848
-0.00474093 0.309744 0.848
-0.00413462 0.310109 0.849
-0.00352272 0.310109 0.849
-0.00291082 0.310109 0.849
-0.00230163 0.310474 0.85
-0.00168901 0.310474 0.85
-0.00107639 0.310474 0.85
-0.000464311 0.310839 0.851
0.000149205 0.311205 0.852
0.000763267 0.311205 0.852
0.00137895 0.31157 0.853
0.00199373 0.31157 0.853
0.00260851 0.31157 0.853
0.00322329 0.31157 0.853
0.00384257 0.311935 0.854
0.00445808 0.311935 0.854
0.00507358 0.311935 0.854
0.00568908 0.311935 0.854
0.00630459 0.311935 0.854
0.00692009 0.311935 0.854
0.00753559 0.311935 0.854
0.00816064 0.3123 0.855
0.00877686 0.3123 0.855
0.00939309 0.3123 0.855
0.0100093 0.3123 0.855
0.0106255 0.3123 0.855
0.0112418 0.3123 0.855
0.0118719 0.312666 0.856
0.0124888 0.312666 0.856
0.0131057 0.312666 0.856
0.0137227 0.312666 0.856
0.0143396 0.312666 0.856
0.0149566 0.312666 0.856
0.0155735 0.312666 0.856
0.0161905 0.312666 0.856
0.0168074 0.312666 0.856
0.0174244 0.312666 0.856
0.0180413 0.312666 0.856
0.0186582 0.312666 0.856
0.0192752 0.312666 0.856
0.0198921 0.312666 0.856
0.020533 0.313031 0.857
0.0211507 0.313031 0.857
0.0217684 0.313031 0.857
0.022386 0.313031 0.857
0.0230037 0.313031 0.857
0.0236489 0.313396 0.858
0.0242673 0.313396 0.858
0.0248857 0.313396 0.858
0.0255041 0.313396 0.858
0.0261225 0.313396 0.858
0.0267409 0.313396 0.858
0.0273592 0.313396 0.858
0.0279776 0.313396 0.858
0.028596 0.313396 0.858
0.0292144 0.313396 0.858
0.0298328 0.313396 0.858
0.0304512 0.313396 0.858
0.0310696 0.313396 0.858
0.0316879 0.313396 0.858
0.0323063 0.313396 0.858
0.0329247 0.313396 0.858
0.0335822 0.313761 0.859
0.0342013 0.313761 0.859
0.0348204 0.313761 0.859
0.0354395 0.313761 0.859
0.0360586 0.313761 0.859
0.0366777 0.313761 0.859
0.0372968 0.313761 0.859
0.0379159 0.313761 0.859
0.0385351 0.313761 0.859
0.0391542 0.313761 0.859
0.0397733 0.313761 0.859
0.0403924 0.313761 0.859
0.0410115 0.313761 0.859
0.0416306 0.313761 0.859
0.0422497 0.313761 0.859
0.0428688 0.313761 0.859
0.0434879 0.313761 0.859
0.0441584 0.314127 0.86
0.0447782 0.314127 0.86
0.045398 0.314127 0.86
0.0460178 0.314127 0.86
0.0465834 0.313761 0.859
0.0472025 0.313761 0.859
0.0478217 0.313761 0.859
0.0484408 0.313761 0.859
0.0490599 0.313761 0.859
0.049679 0.313761 0.859
0.0502981 0.313761 0.859
0.0509172 0.313761 0.859
0.0515363 0.313761 0.859
0.0521554 0.313761 0.859
0.0527745 0.313761 0.859
0.0533936 0.313761 0.859
0.0540127 0.313761 0.859
0.0546318 0.313761 0.859
0.0552509 0.313761 0.859
0.05587 0.313761 0.859
0.0564891 0.313761 0.859
0.0571083 0.313761 0.859
0.0577274 0.313761 0.859
0.0582785 0.313396 0.858
0.0588969 0.313396 0.858
0.0595153 0.313396 0.858
0.0601337 0.313396 0.858
0.0607521 0.313396 0.858
0.0613705 0.313396 0.858
0.0619889 0.313396 0.858
0.0626073 0.313396 0.858
0.0632256 0.313396 0.858
0.063844 0.313396 0.858
0.0644624 0.313396 0.858
0.0650808 0.313396 0.858
0.0656992 0.313396 0.858
0.0663176 0.313396 0.858
0.0669359 0.313396 0.858
0.0675543 0.313396 0.858
0.0681727 0.313396 0.858
0.0687911 0.313396 0.858
0.0694095 0.313396 0.858
0.0700279 0.313396 0.858
0.0706463 0.313396 0.858
0.0712647 0.313396 0.858
0.0719668 0.313761 0.859
0.0725859 0.313761 0.859
0.073205 0.313761 0.859
0.0739101 0.314127 0.86
0.0745299 0.314127 0.86
0.0751497 0.314127 0.86
0.0757696 0.314127 0.86
0.0763894 0.314127 0.86
0.0770988 0.314492 0.861
0.0777193 0.314492 0.861
0.0783399 0.314492 0.861
0.0790521 0.314857 0.862
0.0796734 0.314857 0.862
0.0802947 0.314857 0.862
0.0809159 0.314857 0.862
0.0816318 0.315223 0.863
0.0822538 0.315223 0.863
0.0828758 0.315223 0.863
0.083401 0.314857 0.862
0.0840223 0.314857 0.862
0.0846435 0.314857 0.862
0.0853637 0.315223 0.863
0.0859857 0.315223 0.863
0.0866077 0.315223 0.863
0.0873308 0.315588 0.864
0.0879535 0.315588 0.864
0.0886787 0.315953 0.865
0.0893021 0.315953 0.865
0.0899256 0.315953 0.865
0.0906537 0.316318 0.866
0.0912778 0.316318 0.866
0.091902 0.316318 0.866
0.0925261 0.316318 0.866
0.0931503 0.316318 0.866
0.0938827 0.316684 0.867
0.0945076 0.316684 0.867
0.0951325 0.316684 0.867
0.0958678 0.317049 0.868
0.0964934 0.317049 0.868
0.097119 0.317049 0.868
0.0977446 0.317049 0.868
0.0983702 0.317049 0.868
0.0991098 0.317414 0.869
0.0997361 0.317414 0.869
0.100362 0.317414 0.869
0.100989 0.317414 0.869
0.101615 0.317414 0.869
0.102241 0.317414 0.869
0.103104 0.318145 0.871
0.103613 0.317779 0.87
0.10424 0.317779 0.87
0.104867 0.317779 0.87
0.105494 0.317779 0.87
0.106121 0.317779 0.87
0.106748 0.317779 0.87
0.107375 0.317779 0.87
0.108002 0.317779 0.87
0.108629 0.317779 0.87
0.109256 0.317779 0.87
0.109883 0.317779 0.87
0.11051 0.317779 0.87
0.111138 0.317779 0.87
0.111765 0.317779 0.87
0.112392 0.317779 0.87
0.113019 0.317779 0.87
0.113646 0.317779 0.87
0.114273 0.317779 0.87
0.138813 0.344444 0.943
0.139493 0.344444 0.943
-0.0683341 0.344392 0.941
-0.0676559 0.344392 0.941
-0.0669777 0.344392 0.941
-0.0662995 0.344392 0.941
-0.065691 0.344758 0.942
-0.0650121 0.344758 0.942
