0.0671607 0.213755 0.853
0.0677754 0.213755 0.853
0.0683902 0.213755 0.853
0.069005 0.213755 0.853
0.0696198 0.213755 0.853
0.0703169 0.214006 0.854
0.0709324 0.214006 0.854
0.0714641 0.213755 0.853
0.0720789 0.213755 0.853
0.0726937 0.213755 0.853
0.0733085 0.213755 0.853
0.0739233 0.213755 0.853
0.0745381 0.213755 0.853
0.0750647 0.213505 0.852
0.0756788 0.213505 0.852
0.0762929 0.213505 0.852
0.0768166 0.213254 0.851
0.077339 0.213004 0.85
0.0779516 0.213004 0.85
0.0784718 0.212753 0.849
0.0789906 0.212503 0.848
0.0796017 0.212503 0.848
0.0800237 0.212001 0.846
0.0806335 0.212001 0.846
0.0812432 0.212001 0.846
0.0817562 0.211751 0.845
0.0822677 0.2115 0.844
0.082876 0.2115 0.844
0.0834843 0.2115 0.844
0.083993 0.21125 0.843
0.0846006 0.21125 0.843
0.0852081 0.21125 0.843
0.0858157 0.21125 0.843
0.0864233 0.21125 0.843
0.0870309 0.21125 0.843
0.0876385 0.21125 0.843
0.088246 0.21125 0.843
0.0888536 0.21125 0.843
0.0894612 0.21125 0.843
0.0901756 0.2115 0.844
0.0907839 0.2115 0.844
0.0913922 0.2115 0.844
0.0920005 0.2115 0.844
0.0926088 0.2115 0.844
0.0932171 0.2115 0.844
0.0938254 0.2115 0.844
0.0944337 0.2115 0.844
0.095042 0.2115 0.844
-0.0474177 0.224172 0.892
-0.0467224 0.223921 0.891
-0.0460802 0.223921 0.891
-0.045438 0.223921 0.891
-0.0447959 0.223921 0.891
-0.0441537 0.223921 0.891
-0.0434627 0.223669 0.89
-0.0428213 0.223669 0.89
-0.0421798 0.223669 0.89
-0.0414917 0.223418 0.889
-0.040851 0.223418 0.889
-0.0402102 0.223418 0.889
-0.039525 0.223167 0.888
-0.038885 0.223167 0.888
-0.0382019 0.222915 0.887
-0.0375626 0.222915 0.887
-0.0369233 0.222915 0.887
-0.0363249 0.223167 0.888
-0.0356849 0.223167 0.888
-0.0350449 0.223167 0.888
-0.0344049 0.223167 0.888
-0.0337649 0.223167 0.888
-0.0331249 0.223167 0.888
-0.0324849 0.223167 0.888
-0.0318808 0.223418 0.889
-0.03124 0.223418 0.889
-0.0305993 0.223418 0.889
-0.0299586 0.223418 0.889
-0.0293178 0.223418 0.889
-0.0286448 0.223167 0.888
-0.0280048 0.223167 0.888
-0.0273648 0.223167 0.888
-0.0267248 0.223167 0.888
-0.0260554 0.222915 0.887
-0.0254162 0.222915 0.887
-0.0247489 0.222664 0.886
-0.0241104 0.222664 0.886
-0.0234718 0.222664 0.886
-0.0228075 0.222413 0.885
-0.0221446 0.222161 0.884
-0.0215074 0.222161 0.884
-0.0208703 0.222161 0.884
-0.0202332 0.222161 0.884
-0.0195961 0.222161 0.884
-0.0189375 0.22191 0.883
-0.0183011 0.22191 0.883
-0.0176647 0.22191 0.883
-0.017009 0.221659 0.882
-0.0163548 0.221407 0.881
-0.0157198 0.221407 0.881
-0.0150677 0.221156 0.88
-0.0144171 0.220905 0.879
-0.0137835 0.220905 0.879
-0.01315 0.220905 0.879
-0.0125165 0.220905 0.879
-0.0118695 0.220654 0.878
-0.0112367 0.220654 0.878
-0.0106039 0.220654 0.878
-0.00997105 0.220654 0.878
-0.00934889 0.220905 0.879
-0.00870545 0.220654 0.878
-0.00807265 0.220654 0.878
-0.00743985 0.220654 0.878
-0.00680705 0.220654 0.878
-0.00617425 0.220654 0.878
-0.00554145 0.220654 0.878
-0.00490865 0.220654 0.878
-0.00427585 0.220654 0.878
-0.00364305 0.220654 0.878
-0.00301024 0.220654 0.878
-0.00237474 0.220402 0.877
-0.00174266 0.220402 0.877
-0.00111058 0.220402 0.877
-0.000477951 0.220151 0.876
0.000153408 0.220151 0.876
0.000784768 0.220151 0.876
0.00141451 0.2199 0.875
0.00204281 0.219648 0.874
0.00267273 0.219648 0.874
0.00329887 0.219397 0.873
0.00392357 0.219146 0.872
0.00455204 0.219146 0.872
0.00517458 0.218894 0.871
0.00579567 0.218643 0.87
0.00642271 0.218643 0.87
0.00704164 0.218392 0.869
0.00766795 0.218392 0.869
0.00829427 0.218392 0.869
0.00891032 0.21814 0.868
0.00953591 0.21814 0.868
0.0101615 0.21814 0.868
0.0107871 0.21814 0.868
0.0114127 0.21814 0.868
0.0120383 0.21814 0.868
0.0126639 0.21814 0.868
0.0132895 0.21814 0.868
0.0139151 0.21814 0.868
0.0145407 0.21814 0.868
0.0151662 0.21814 0.868
0.0157918 0.21814 0.868
0.0164363 0.218392 0.869
0.0170627 0.218392 0.869
0.017689 0.218392 0.869
0.0183153 0.218392 0.869
0.0189416 0.218392 0.869
0.0195679 0.218392 0.869
0.0202175 0.218643 0.87
0.0208205 0.218392 0.869
0.0214469 0.218392 0.869
0.0220732 0.218392 0.869
0.0226995 0.218392 0.869
0.0233258 0.218392 0.869
0.0239521 0.218392 0.869
0.0245784 0.218392 0.869
0.0252047 0.218392 0.869
0.0258013 0.21814 0.868
0.0264269 0.21814 0.868
0.0270525 0.21814 0.868
0.0276781 0.21814 0.868
0.0283037 0.21814 0.868
0.0289293 0.21814 0.868
0.0295208 0.217889 0.867
0.0301457 0.217889 0.867
0.0307351 0.217638 0.866
0.031323 0.217386 0.865
0.0319465 0.217386 0.865
0.0325699 0.217386 0.865
0.0331933 0.217386 0.865
0.0338168 0.217386 0.865
0.0344004 0.217135 0.864
0.0350231 0.217135 0.864
0.0356458 0.217135 0.864
0.0362685 0.217135 0.864
0.0368912 0.217135 0.864
0.0375139 0.217135 0.864
0.0381366 0.217135 0.864
0.0387145 0.216884 0.863
0.0393365 0.216884 0.863
0.0399585 0.216884 0.863
0.0405805 0.216884 0.863
0.0412025 0.216884 0.863
0.0418244 0.216884 0.863
0.0423972 0.216633 0.862
0.0430185 0.216633 0.862
0.0436398 0.216633 0.862
0.0442611 0.216633 0.862
0.0448303 0.216381 0.861
0.0454508 0.216381 0.861
0.0460714 0.216381 0.861
0.0466377 0.21613 0.86
0.0472575 0.21613 0.86
0.0478773 0.21613 0.86
0.0484408 0.215879 0.859
0.0490599 0.215879 0.859
0.0496211 0.215627 0.858
0.0502395 0.215627 0.858
0.0507986 0.215376 0.857
0.0514163 0.215376 0.857
0.0519733 0.215125 0.856
0.0525902 0.215125 0.856
0.0532071 0.215125 0.856
0.0538241 0.215125 0.856
0.0543774 0.214873 0.855
0.0549937 0.214873 0.855
0.0556099 0.214873 0.855
0.0561603 0.214622 0.854
0.0567758 0.214622 0.854
0.0573914 0.214622 0.854
0.0580068 0.214622 0.854
0.0586224 0.214622 0.854
0.0591685 0.214371 0.853
0.0597833 0.214371 0.853
0.0603981 0.214371 0.853
0.0610128 0.214371 0.853
0.0616276 0.214371 0.853
0.0622424 0.214371 0.853
0.0628572 0.214371 0.853
0.063472 0.214371 0.853
0.0640868 0.214371 0.853
0.0647015 0.214371 0.853
0.0653163 0.214371 0.853
0.0659311 0.214371 0.853
0.0665459 0.214371 0.853
0.0671607 0.214371 0.853
0.0677754 0.214371 0.853
0.0683902 0.214371 0.853
0.069005 0.214371 0.853
0.0696198 0.214371 0.853
0.0702346 0.214371 0.853
0.0708494 0.214371 0.853
0.0714641 0.214371 0.853
0.0720789 0.214371 0.853
0.0726937 0.214371 0.853
0.0733085 0.214371 0.853
0.0739233 0.214371 0.853
0.0745381 0.214371 0.853
0.0750647 0.214119 0.852
0.07559 0.213868 0.851
0.0762033 0.213868 0.851
0.0767264 0.213617 0.85
0.077248 0.213365 0.849
0.0778599 0.213365 0.849
0.0783794 0.213114 0.848
0.0788974 0.212863 0.847
0.0795079 0.212863 0.847
0.0800237 0.212611 0.846
0.0805382 0.21236 0.845
0.0811472 0.21236 0.845
0.0816595 0.212109 0.844
0.0822677 0.212109 0.844
0.082876 0.212109 0.844
0.0834843 0.212109 0.844
0.083993 0.211858 0.843
0.0846006 0.211858 0.843
0.0852081 0.211858 0.843
0.0858157 0.211858 0.843
0.0864233 0.211858 0.843
0.0870309 0.211858 0.843
0.0876385 0.211858 0.843
0.088246 0.211858 0.843
0.0888536 0.211858 0.843
0.0894612 0.211858 0.843
0.0901756 0.212109 0.844
0.0907839 0.212109 0.844
0.0913922 0.212109 0.844
0.0920005 0.212109 0.844
0.0926088 0.212109 0.844
0.0932171 0.212109 0.844
0.0938254 0.212109 0.844
0.0944337 0.212109 0.844
0.095042 0.212109 0.844
-0.0474177 0.224815 0.892
-0.0467224 0.224563 0.891
-0.0460802 0.224563 0.891
-0.045438 0.224563 0.891
-0.0447959 0.224563 0.891
-0.0441537 0.224563 0.891
-0.0434627 0.224311 0.89
-0.0428213 0.224311 0.89
-0.0421798 0.224311 0.89
-0.0414917 0.224059 0.889
-0.040851 0.224059 0.889
-0.0402102 0.224059 0.889
-0.039525 0.223807 0.888
-0.038885 0.223807 0.888
-0.0382019 0.223555 0.887
-0.0375626 0.223555 0.887
-0.0369233 0.223555 0.887
-0.0363249 0.223807 0.888
-0.0356849 0.223807 0.888
-0.0350449 0.223807 0.888
-0.0344049 0.223807 0.888
-0.0337649 0.223807 0.888
-0.0331249 0.223807 0.888
-0.0325215 0.224059 0.889
-0.0318808 0.224059 0.889
-0.03124 0.224059 0.889
-0.0305993 0.224059 0.889
-0.0299586 0.224059 0.889
-0.0293178 0.224059 0.889
-0.0286771 0.224059 0.889
-0.0280048 0.223807 0.888
-0.0273648 0.223807 0.888
-0.0267248 0.223807 0.888
-0.0260554 0.223555 0.887
-0.0254162 0.223555 0.887
-0.0247769 0.223555 0.887
-0.0241104 0.223303 0.886
-0.0234718 0.223303 0.886
-0.0228075 0.223051 0.885
-0.0221696 0.223051 0.885
-0.0215318 0.223051 0.885
-0.0208703 0.222799 0.884
-0.0202332 0.222799 0.884
-0.0195961 0.222799 0.884
-0.0189375 0.222547 0.883
-0.0182804 0.222295 0.882
-0.0176447 0.222295 0.882
-0.0169897 0.222043 0.881
-0.0163362 0.221791 0.88
-0.0157019 0.221791 0.88
-0.0150506 0.221539 0.879
-0.0144171 0.221539 0.879
-0.0137835 0.221539 0.879
-0.0131351 0.221287 0.878
-0.0125023 0.221287 0.878
-0.0118695 0.221287 0.878
-0.0112367 0.221287 0.878
-0.0106039 0.221287 0.878
-0.00997105 0.221287 0.878
-0.00933825 0.221287 0.878
-0.00870545 0.221287 0.878
-0.00807265 0.221287 0.878
-0.00743985 0.221287 0.878
-0.00680705 0.221287 0.878
-0.00617425 0.221287 0.878
-0.00554145 0.221287 0.878
-0.00490865 0.221287 0.878
-0.00427098 0.221035 0.877
-0.0036389 0.221035 0.877
-0.00300682 0.221035 0.877
-0.00237203 0.220783 0.876
-0.00174067 0.220783 0.876
-0.00110931 0.220783 0.876
-0.000477951 0.220783 0.876
0.000153233 0.220531 0.875
0.000783872 0.220531 0.875
0.00141289 0.220279 0.874
0.00204047 0.220027 0.873
0.00266967 0.220027 0.873
0.00329509 0.219775 0.872
0.00391907 0.219522 0.871
0.00454682 0.219522 0.871
0.00516864 0.21927 0.87
0.00578901 0.219018 0.869
0.00641532 0.219018 0.869
0.00703353 0.218766 0.868
0.00765913 0.218766 0.868
0.00828472 0.218766 0.868
0.00891032 0.218766 0.868
0.00952492 0.218514 0.867
0.0101498 0.218514 0.867
0.0107747 0.218514 0.867
0.0113995 0.218514 0.867
0.0120244 0.218514 0.867
0.0126493 0.218514 0.867
0.0132895 0.218766 0.868
0.0139151 0.218766 0.868
0.0145407 0.218766 0.868
0.0151662 0.218766 0.868
0.0157918 0.218766 0.868
0.0164174 0.218766 0.868
0.017043 0.218766 0.868
0.017689 0.219018 0.869
0.0183153 0.219018 0.869
0.0189416 0.219018 0.869
0.0195679 0.219018 0.869
0.0202175 0.21927 0.87
0.0208445 0.21927 0.87
0.0214715 0.21927 0.87
0.0220986 0.21927 0.87
0.0226995 0.219018 0.869
0.0233258 0.219018 0.869
0.0239521 0.219018 0.869
0.0245784 0.219018 0.869
0.0252047 0.219018 0.869
0.0258311 0.219018 0.869
0.0264574 0.219018 0.869
0.0270525 0.218766 0.868
0.0276781 0.218766 0.868
0.0283037 0.218766 0.868
0.0289293 0.218766 0.868
0.0295208 0.218514 0.867
0.0301457 0.218514 0.867
0.0307706 0.218514 0.867
0.0313593 0.218262 0.866
0.0319834 0.218262 0.866
0.0326076 0.218262 0.866
0.0331933 0.21801 0.865
0.0338168 0.21801 0.865
0.0344402 0.21801 0.865
0.0350231 0.217758 0.864
0.0356458 0.217758 0.864
0.0362685 0.217758 0.864
0.0368912 0.217758 0.864
0.0375139 0.217758 0.864
0.0381366 0.217758 0.864
0.0387594 0.217758 0.864
0.0393821 0.217758 0.864
0.0400048 0.217758 0.864
0.0406275 0.217758 0.864
0.0412502 0.217758 0.864
0.0418729 0.217758 0.864
0.0424464 0.217506 0.863
0.0430684 0.217506 0.863
0.0436904 0.217506 0.863
0.0443124 0.217506 0.863
0.0448823 0.217254 0.862
0.0455036 0.217254 0.862
0.0460714 0.217002 0.861
0.0466919 0.217002 0.861
0.0473124 0.217002 0.861
0.0478773 0.21675 0.86
0.0484408 0.216498 0.859
0.0490599 0.216498 0.859
0.049679 0.216498 0.859
0.0502395 0.216246 0.858
0.0507986 0.215994 0.857
0.0514163 0.215994 0.857
0.0519733 0.215742 0.856
0.0525902 0.215742 0.856
0.0532071 0.215742 0.856
0.0538241 0.215742 0.856
0.0543774 0.21549 0.855
0.0549937 0.21549 0.855
0.0556099 0.21549 0.855
0.0561603 0.215238 0.854
0.0567758 0.215238 0.854
0.0573914 0.215238 0.854
0.0580068 0.215238 0.854
0.0586224 0.215238 0.854
0.0591685 0.214986 0.853
0.0597833 0.214986 0.853
0.0603981 0.214986 0.853
0.0610128 0.214986 0.853
0.0616276 0.214986 0.853
0.0622424 0.214986 0.853
0.0628572 0.214986 0.853
0.063472 0.214986 0.853
0.0640868 0.214986 0.853
0.0647015 0.214986 0.853
0.0653163 0.214986 0.853
0.0659311 0.214986 0.853
0.0665459 0.214986 0.853
0.0671607 0.214986 0.853
0.0677754 0.214986 0.853
0.0683902 0.214986 0.853
0.069005 0.214986 0.853
0.0696198 0.214986 0.853
0.0702346 0.214986 0.853
0.0708494 0.214986 0.853
0.0714641 0.214986 0.853
0.0720789 0.214986 0.853
0.0726937 0.214986 0.853
0.0733085 0.214986 0.853
0.0739233 0.214986 0.853
0.0745381 0.214986 0.853
0.0750647 0.214734 0.852
0.07559 0.214482 0.851
0.0762033 0.214482 0.851
0.0767264 0.21423 0.85
0.077248 0.213978 0.849
0.0778599 0.213978 0.849
0.0783794 0.213726 0.848
0.0788974 0.213474 0.847
0.0795079 0.213474 0.847
0.0800237 0.213222 0.846
0.0805382 0.21297 0.845
0.0811472 0.21297 0.845
0.0816595 0.212718 0.844
0.0822677 0.212718 0.844
0.082876 0.212718 0.844
0.0834843 0.212718 0.844
0.083993 0.212466 0.843
0.0846006 0.212466 0.843
0.0852081 0.212466 0.843
0.0858157 0.212466 0.843
0.0864233 0.212466 0.843
0.0870309 0.212466 0.843
0.0876385 0.212466 0.843
0.088246 0.212466 0.843
0.088959 0.212718 0.844
0.0895673 0.212718 0.844
0.0901756 0.212718 0.844
0.0907839 0.212718 0.844
0.0913922 0.212718 0.844
0.0920005 0.212718 0.844
0.0926088 0.212718 0.844
0.0932171 0.212718 0.844
0.0938254 0.212718 0.844
0.0945456 0.21297 0.845
0.0951546 0.21297 0.845
-0.0474177 0.225459 0.892
-0.0467224 0.225206 0.891
-0.0460802 0.225206 0.891
-0.045438 0.225206 0.891
-0.0447456 0.224953 0.89
-0.0441042 0.224953 0.89
-0.0434627 0.224953 0.89
-0.0427731 0.2247 0.889
-0.0421324 0.2247 0.889
-0.0414917 0.2247 0.889
-0.040805 0.224448 0.888
-0.040165 0.224448 0.888
-0.039525 0.224448 0.888
-0.038885 0.224448 0.888
-0.038245 0.224448 0.888
-0.037605 0.224448 0.888
-0.036965 0.224448 0.888
-0.0363249 0.224448 0.888
-0.0356849 0.224448 0.888
-0.0350449 0.224448 0.888
-0.0344437 0.2247 0.889
-0.0338029 0.2247 0.889
-0.0331622 0.2247 0.889
-0.0325215 0.2247 0.889
-0.0318808 0.2247 0.889
-0.03124 0.2247 0.889
-0.0306337 0.224953 0.89
-0.0299586 0.2247 0.889
-0.0293178 0.2247 0.889
-0.0286771 0.2247 0.889
-0.0280364 0.2247 0.889
-0.0273956 0.2247 0.889
-0.0267248 0.224448 0.888
-0.0260848 0.224448 0.888
-0.0254448 0.224448 0.888
-0.0247769 0.224195 0.887
-0.0241104 0.223942 0.886
-0.0234718 0.223942 0.886
-0.0228075 0.223689 0.885
-0.0221696 0.223689 0.885
-0.0215318 0.223689 0.885
-0.0208703 0.223437 0.884
-0.0202332 0.223437 0.884
-0.0195961 0.223437 0.884
-0.0189375 0.223184 0.883
-0.0182804 0.222931 0.882
-0.0176447 0.222931 0.882
-0.0169897 0.222678 0.881
-0.0163362 0.222425 0.88
-0.0157019 0.222425 0.88
-0.0150506 0.222173 0.879
-0.0144171 0.222173 0.879
-0.0137835 0.222173 0.879
-0.0131351 0.22192 0.878
-0.0125023 0.22192 0.878
-0.0118695 0.22192 0.878
-0.0112367 0.22192 0.878
-0.0106039 0.22192 0.878
-0.00997105 0.22192 0.878
-0.00933825 0.22192 0.878
-0.00870545 0.22192 0.878
-0.00807265 0.22192 0.878
-0.00743985 0.22192 0.878
-0.00680705 0.22192 0.878
-0.00617425 0.22192 0.878
-0.00554145 0.22192 0.878
-0.00490865 0.22192 0.878
-0.00427098 0.221667 0.877
-0.0036389 0.221667 0.877
-0.00300682 0.221667 0.877
-0.00237203 0.221414 0.876
-0.00174067 0.221414 0.876
-0.00110931 0.221414 0.876
-0.000477951 0.221414 0.876
0.000153233 0.221162 0.875
0.000783872 0.221162 0.875
0.00141289 0.220909 0.874
0.00204047 0.220656 0.873
0.00266967 0.220656 0.873
0.00329509 0.220403 0.872
0.00391907 0.220151 0.871
0.00454682 0.220151 0.871
0.00516864 0.219898 0.87
0.00578901 0.219645 0.869
0.00641532 0.219645 0.869
0.00703353 0.219392 0.868
0.00765913 0.219392 0.868
0.00828472 0.219392 0.868
0.00891032 0.219392 0.868
0.00952492 0.21914 0.867
0.0101498 0.21914 0.867
0.0107747 0.21914 0.867
0.0113995 0.21914 0.867
0.0120244 0.21914 0.867
0.0126493 0.21914 0.867
0.0132895 0.219392 0.868
0.0139151 0.219392 0.868
0.0145407 0.219392 0.868
0.0151662 0.219392 0.868
0.0157918 0.219392 0.868
0.0164174 0.219392 0.868
0.017043 0.219392 0.868
0.017689 0.219645 0.869
0.0183153 0.219645 0.869
0.0189416 0.219645 0.869
0.0195679 0.219645 0.869
0.0202175 0.219898 0.87
0.0208445 0.219898 0.87
0.0214715 0.219898 0.87
0.0220986 0.219898 0.87
0.0227256 0.219898 0.87
0.0233526 0.219898 0.87
0.0239797 0.219898 0.87
0.0246067 0.219898 0.87
0.0252047 0.219645 0.869
0.0258311 0.219645 0.869
0.0264574 0.219645 0.869
0.0270837 0.219645 0.869
0.0276781 0.219392 0.868
0.0283037 0.219392 0.868
0.0289293 0.219392 0.868
0.0295208 0.21914 0.867
0.0301457 0.21914 0.867
0.0307706 0.21914 0.867
0.0313593 0.218887 0.866
0.0319834 0.218887 0.866
0.0326076 0.218887 0.866
0.0331933 0.218634 0.865
0.0338168 0.218634 0.865
0.0344402 0.218634 0.865
0.0350231 0.218381 0.864
0.0356458 0.218381 0.864
0.0362685 0.218381 0.864
0.0368912 0.218381 0.864
0.0375139 0.218381 0.864
0.0381366 0.218381 0.864
0.0387594 0.218381 0.864
0.0393821 0.218381 0.864
0.0400048 0.218381 0.864
0.0406275 0.218381 0.864
0.0412502 0.218381 0.864
0.0418729 0.218381 0.864
0.0424464 0.218129 0.863
0.0430684 0.218129 0.863
0.0436904 0.218129 0.863
0.0443124 0.218129 0.863
0.0448823 0.217876 0.862
0.0455036 0.217876 0.862
0.0460714 0.217623 0.861
0.0466919 0.217623 0.861
0.0473124 0.217623 0.861
0.0478773 0.21737 0.86
0.0484408 0.217118 0.859
0.0490028 0.216865 0.858
0.0496211 0.216865 0.858
0.050181 0.216612 0.857
0.0507986 0.216612 0.857
0.0514163 0.216612 0.857
0.0519733 0.216359 0.856
0.0525902 0.216359 0.856
0.0532071 0.216359 0.856
0.0537612 0.216107 0.855
0.0543774 0.216107 0.855
0.0549937 0.216107 0.855
0.0555448 0.215854 0.854
0.0561603 0.215854 0.854
0.0567758 0.215854 0.854
0.0573914 0.215854 0.854
0.0579389 0.215601 0.853
0.0585537 0.215601 0.853
0.0591685 0.215601 0.853
0.0597833 0.215601 0.853
0.0603981 0.215601 0.853
0.0610128 0.215601 0.853
0.0616276 0.215601 0.853
0.0622424 0.215601 0.853
0.0627835 0.215348 0.852
0.0633976 0.215348 0.852
0.0640116 0.215348 0.852
0.0646257 0.215348 0.852
0.0652397 0.215348 0.852
0.0659311 0.215601 0.853
0.0665459 0.215601 0.853
0.0671607 0.215601 0.853
0.0677754 0.215601 0.853
0.0683902 0.215601 0.853
0.069005 0.215601 0.853
0.0696198 0.215601 0.853
0.0702346 0.215601 0.853
0.0708494 0.215601 0.853
0.0714641 0.215601 0.853
0.0720789 0.215601 0.853
0.0726937 0.215601 0.853
0.0733085 0.215601 0.853
0.0738366 0.215348 0.852
0.0744507 0.215348 0.852
0.0749766 0.215096 0.851
0.07559 0.215096 0.851
0.0762033 0.215096 0.851
0.0767264 0.214843 0.85
0.077248 0.21459 0.849
0.0778599 0.21459 0.849
0.078287 0.214085 0.847
0.0788974 0.214085 0.847
0.0795079 0.214085 0.847
0.0800237 0.213832 0.846
0.0804429 0.213326 0.844
0.0810511 0.213326 0.844
0.0816595 0.213326 0.844
0.0822677 0.213326 0.844
0.082876 0.213326 0.844
0.0833854 0.213073 0.843
0.083993 0.213073 0.843
0.0846006 0.213073 0.843
0.0852081 0.213073 0.843
0.0858157 0.213073 0.843
0.0864233 0.213073 0.843
0.0870309 0.213073 0.843
0.0876385 0.213073 0.843
0.088246 0.213073 0.843
0.0888536 0.213073 0.843
0.0894612 0.213073 0.843
0.0901756 0.213326 0.844
0.0907839 0.213326 0.844
0.0913922 0.213326 0.844
0.0920005 0.213326 0.844
0.0926088 0.213326 0.844
0.0932171 0.213326 0.844
0.0938254 0.213326 0.844
0.0944337 0.213326 0.844
0.095042 0.213326 0.844
-0.0467224 0.225848 0.891
-0.0460802 0.225848 0.891
-0.045438 0.225848 0.891
-0.0447456 0.225595 0.89
-0.0441042 0.225595 0.89
-0.0434627 0.225595 0.89
-0.0427731 0.225341 0.889
-0.0421324 0.225341 0.889
-0.0414917 0.225341 0.889
-0.040805 0.225088 0.888
-0.040165 0.225088 0.888
-0.039525 0.225088 0.888
-0.038885 0.225088 0.888
-0.038245 0.225088 0.888
-0.037605 0.225088 0.888
-0.036965 0.225088 0.888
-0.0363249 0.225088 0.888
-0.0356849 0.225088 0.888
-0.0350449 0.225088 0.888
-0.0344049 0.225088 0.888
-0.0338029 0.225341 0.889
-0.0331622 0.225341 0.889
-0.0325215 0.225341 0.889
-0.0318808 0.225341 0.889
-0.03124 0.225341 0.889
-0.0306337 0.225595 0.89
-0.0299586 0.225341 0.889
-0.0293178 0.225341 0.889
-0.0286771 0.225341 0.889
-0.0280364 0.225341 0.889
-0.0273956 0.225341 0.889
-0.0267248 0.225088 0.888
-0.0260848 0.225088 0.888
-0.0254448 0.225088 0.888
-0.0247769 0.224834 0.887
-0.0241104 0.224581 0.886
-0.0234718 0.224581 0.886
-0.0228075 0.224328 0.885
-0.0221696 0.224328 0.885
-0.0215318 0.224328 0.885
-0.0208703 0.224074 0.884
-0.0202332 0.224074 0.884
-0.0195961 0.224074 0.884
-0.0189375 0.223821 0.883
-0.0182804 0.223567 0.882
-0.0176447 0.223567 0.882
-0.0169897 0.223314 0.881
-0.0163176 0.222807 0.879
-0.0156841 0.222807 0.879
-0.0150506 0.222807 0.879
-0.0144007 0.222553 0.878
-0.0137679 0.222553 0.878
-0.0131351 0.222553 0.878
-0.0125023 0.222553 0.878
-0.0118559 0.2223 0.877
-0.0112239 0.2223 0.877
-0.0105918 0.2223 0.877
-0.0099597 0.2223 0.877
-0.00932762 0.2223 0.877
-0.00869554 0.2223 0.877
-0.00806346 0.2223 0.877
-0.00743138 0.2223 0.877
-0.0067993 0.2223 0.877
-0.00616722 0.2223 0.877
-0.00553514 0.2223 0.877
-0.00490306 0.2223 0.877
-0.00426611 0.222046 0.876
-0.00363475 0.222046 0.876
-0.00300339 0.222046 0.876
-0.00236932 0.221793 0.875
-0.00173868 0.221793 0.875
-0.00110804 0.221793 0.875
-0.000477405 0.221793 0.875
0.000153058 0.221539 0.874
0.000782976 0.221539 0.874
0.00141128 0.221286 0.873
0.00203814 0.221032 0.872
0.00266661 0.221032 0.872
0.00329131 0.220779 0.871
0.00391457 0.220525 0.87
0.0045416 0.220525 0.87
0.00516269 0.220272 0.869
0.00578235 0.220018 0.868
0.00640794 0.220018 0.868
0.00703353 0.220018 0.868
0.0076503 0.219765 0.867
0.00827518 0.219765 0.867
0.00890005 0.219765 0.867
0.00952492 0.219765 0.867
0.0101498 0.219765 0.867
0.0107747 0.219765 0.867
0.0113995 0.219765 0.867
0.0120244 0.219765 0.867
0.0126493 0.219765 0.867
0.0132742 0.219765 0.867
0.0139151 0.220018 0.868
0.0145407 0.220018 0.868
0.0151662 0.220018 0.868
0.0157918 0.220018 0.868
0.0164174 0.220018 0.868
0.017043 0.220018 0.868
0.017689 0.220272 0.869
0.0183153 0.220272 0.869
0.0189416 0.220272 0.869
0.0195679 0.220272 0.869
0.0202175 0.220525 0.87
0.0208445 0.220525 0.87
0.0214715 0.220525 0.87
0.0220986 0.220525 0.87
0.0227256 0.220525 0.87
0.0233526 0.220525 0.87
0.0239797 0.220525 0.87
0.0246067 0.220525 0.87
0.0252047 0.220272 0.869
0.0258311 0.220272 0.869
0.0264574 0.220272 0.869
0.0270837 0.220272 0.869
0.0276781 0.220018 0.868
0.0283037 0.220018 0.868
0.0289293 0.220018 0.868
0.0295208 0.219765 0.867
0.0301457 0.219765 0.867
0.0307706 0.219765 0.867
0.0313593 0.219511 0.866
0.0319834 0.219511 0.866
0.0326076 0.219511 0.866
0.0331933 0.219258 0.865
0.0338168 0.219258 0.865
0.0344402 0.219258 0.865
0.0350636 0.219258 0.865
0.0356871 0.219258 0.865
0.0363105 0.219258 0.865
0.0368912 0.219004 0.864
0.0375139 0.219004 0.864
0.0381366 0.219004 0.864
0.0387594 0.219004 0.864
0.0393821 0.219004 0.864
0.0400048 0.219004 0.864
0.0406275 0.219004 0.864
0.0412502 0.219004 0.864
0.0418729 0.219004 0.864
0.0424956 0.219004 0.864
0.0430684 0.218751 0.863
0.0436904 0.218751 0.863
0.0443124 0.218751 0.863
0.0448823 0.218498 0.862
0.0455036 0.218498 0.862
0.0460714 0.218244 0.861
0.0466919 0.218244 0.861
0.0473124 0.218244 0.861
0.0478773 0.217991 0.86
0.0484408 0.217737 0.859
0.0490028 0.217484 0.858
0.0496211 0.217484 0.858
0.050181 0.21723 0.857
0.0507394 0.216977 0.856
0.0513563 0.216977 0.856
0.0519733 0.216977 0.856
0.0525288 0.216723 0.855
0.053145 0.216723 0.855
0.0537612 0.216723 0.855
0.0543138 0.21647 0.854
0.0549293 0.21647 0.854
0.0555448 0.21647 0.854
0.0560946 0.216216 0.853
0.0567094 0.216216 0.853
0.0573241 0.216216 0.853
0.0579389 0.216216 0.853
0.0585537 0.216216 0.853
0.0591685 0.216216 0.853
0.0597833 0.216216 0.853
0.0603981 0.216216 0.853
0.0609413 0.215963 0.852
0.0615554 0.215963 0.852
0.0621694 0.215963 0.852
0.0627835 0.215963 0.852
0.0633976 0.215963 0.852
0.0640116 0.215963 0.852
0.0646257 0.215963 0.852
0.0652397 0.215963 0.852
0.0658538 0.215963 0.852
0.0664679 0.215963 0.852
0.0670819 0.215963 0.852
0.0677754 0.216216 0.853
0.0683902 0.216216 0.853
0.069005 0.216216 0.853
0.0696198 0.216216 0.853
0.0702346 0.216216 0.853
0.0708494 0.216216 0.853
0.0714641 0.216216 0.853
0.0720789 0.216216 0.853
0.0726937 0.216216 0.853
0.0733085 0.216216 0.853
0.0738366 0.215963 0.852
0.0744507 0.215963 0.852
0.0749766 0.215709 0.851
0.0755011 0.215456 0.85
0.0761138 0.215456 0.85
0.0766361 0.215202 0.849
0.077157 0.214949 0.848
0.0777682 0.214949 0.848
0.078287 0.214695 0.847
0.0788043 0.214442 0.846
0.079414 0.214442 0.846
0.0799292 0.214188 0.845
0.0804429 0.213935 0.844
0.0810511 0.213935 0.844
0.0816595 0.213935 0.844
0.0821703 0.213681 0.843
0.0827779 0.213681 0.843
0.0833854 0.213681 0.843
0.083993 0.213681 0.843
0.0846006 0.213681 0.843
0.0852081 0.213681 0.843
0.0858157 0.213681 0.843
0.0864233 0.213681 0.843
0.0870309 0.213681 0.843
0.0876385 0.213681 0.843
0.088246 0.213681 0.843
0.0888536 0.213681 0.843
0.0894612 0.213681 0.843
0.0901756 0.213935 0.844
0.0907839 0.213935 0.844
0.0913922 0.213935 0.844
0.0920005 0.213935 0.844
0.0926088 0.213935 0.844
0.0932171 0.213935 0.844
0.0938254 0.213935 0.844
0.0944337 0.213935 0.844
0.095042 0.213935 0.844
-0.0467224 0.226491 0.891
-0.0460802 0.226491 0.891
-0.045438 0.226491 0.891
-0.0447456 0.226237 0.89
-0.0441042 0.226237 0.89
-0.0434627 0.226237 0.89
-0.0427731 0.225983 0.889
-0.0421324 0.225983 0.889
-0.0414917 0.225983 0.889
-0.040805 0.225728 0.888
-0.040165 0.225728 0.888
-0.039525 0.225728 0.888
-0.038885 0.225728 0.888
-0.038245 0.225728 0.888
-0.037605 0.225728 0.888
-0.036965 0.225728 0.888
-0.0363249 0.225728 0.888
-0.0356849 0.225728 0.888
-0.0350449 0.225728 0.888
-0.0344049 0.225728 0.888
-0.0338029 0.225983 0.889
-0.0331622 0.225983 0.889
-0.0325215 0.225983 0.889
-0.0319166 0.226237 0.89
-0.0312752 0.226237 0.89
-0.0306337 0.226237 0.89
-0.0299923 0.226237 0.89
-0.0293508 0.226237 0.89
-0.0286771 0.225983 0.889
-0.0280364 0.225983 0.889
-0.0273956 0.225983 0.889
-0.0267549 0.225983 0.889
-0.0260848 0.225728 0.888
-0.0254448 0.225728 0.888
-0.0247769 0.225474 0.887
-0.0241104 0.22522 0.886
-0.0234718 0.22522 0.886
-0.0228075 0.224966 0.885
-0.0221446 0.224712 0.884
-0.0215074 0.224712 0.884
-0.0208703 0.224712 0.884
-0.0202103 0.224457 0.883
-0.0195739 0.224457 0.883
-0.018916 0.224203 0.882
-0.0182596 0.223949 0.881
-0.0176247 0.223949 0.881
-0.0169704 0.223695 0.88
-0.0163176 0.223441 0.879
-0.0156841 0.223441 0.879
-0.0150335 0.223186 0.878
-0.0144007 0.223186 0.878
-0.0137679 0.223186 0.878
-0.0131351 0.223186 0.878
-0.012488 0.222932 0.877
-0.0118559 0.222932 0.877
-0.0112239 0.222932 0.877
-0.0105797 0.222678 0.876
-0.00994834 0.222678 0.876
-0.00931698 0.222678 0.876
-0.00868562 0.222678 0.876
-0.00805426 0.222678 0.876
-0.0074229 0.222678 0.876
-0.00679154 0.222678 0.876
-0.00616018 0.222678 0.876
-0.00552882 0.222678 0.876
-0.00489747 0.222678 0.876
-0.00426124 0.222424 0.875
-0.0036306 0.222424 0.875
-0.00299996 0.222424 0.875
-0.00236661 0.22217 0.874
-0.0017367 0.22217 0.874
-0.00110678 0.22217 0.874
-0.000476314 0.221915 0.873
0.000152883 0.221915 0.873
0.00078208 0.221915 0.873
0.00140966 0.221661 0.872
0.00203814 0.221661 0.872
0.00266661 0.221661 0.872
0.00328753 0.221153 0.87
0.00391007 0.220899 0.869
0.00453638 0.220899 0.869
0.00515675 0.220644 0.868
0.00577569 0.22039 0.867
0.00640056 0.22039 0.867
0.00702543 0.22039 0.867
0.00764148 0.220136 0.866
0.00826563 0.220136 0.866
0.00888978 0.220136 0.866
0.00951394 0.220136 0.866
0.0101381 0.220136 0.866
0.0107622 0.220136 0.866
0.0113864 0.220136 0.866
0.0120105 0.220136 0.866
0.0126347 0.220136 0.866
0.0132742 0.22039 0.867
0.013899 0.22039 0.867
0.0145407 0.220644 0.868
0.0151662 0.220644 0.868
0.0157918 0.220644 0.868
0.0164174 0.220644 0.868
0.017043 0.220644 0.868
0.017689 0.220899 0.869
0.0183153 0.220899 0.869
0.0189416 0.220899 0.869
0.0195904 0.221153 0.87
0.0202175 0.221153 0.87
0.0208445 0.221153 0.87
0.0214715 0.221153 0.87
0.0220986 0.221153 0.87
0.0227256 0.221153 0.87
0.0233526 0.221153 0.87
0.0239521 0.220899 0.869
0.0245784 0.220899 0.869
0.0252047 0.220899 0.869
0.0258311 0.220899 0.869
0.0264574 0.220899 0.869
0.0270837 0.220899 0.869
0.0276781 0.220644 0.868
0.0283037 0.220644 0.868
0.0289293 0.220644 0.868
0.0295208 0.22039 0.867
0.0301457 0.22039 0.867
0.0307706 0.22039 0.867
0.0313593 0.220136 0.866
0.0319834 0.220136 0.866
0.0326076 0.220136 0.866
0.0331933 0.219882 0.865
0.0338168 0.219882 0.865
0.0344402 0.219882 0.865
0.0350636 0.219882 0.865
0.0356871 0.219882 0.865
0.0363105 0.219882 0.865
0.0369339 0.219882 0.865
0.0375574 0.219882 0.865
0.0381808 0.219882 0.865
0.0387594 0.219628 0.864
0.0393821 0.219628 0.864
0.0400511 0.219882 0.865
0.0406275 0.219628 0.864
0.0412502 0.219628 0.864
0.0418729 0.219628 0.864
0.0424956 0.219628 0.864
0.0431183 0.219628 0.864
0.043741 0.219628 0.864
0.0443124 0.219373 0.863
0.0449344 0.219373 0.863
0.0455564 0.219373 0.863
0.0461249 0.219119 0.862
0.0466919 0.218865 0.861
0.0473124 0.218865 0.861
0.0478773 0.218611 0.86
0.0484408 0.218357 0.859
0.0490028 0.218102 0.858
0.0496211 0.218102 0.858
0.050181 0.217848 0.857
0.0507394 0.217594 0.856
0.0513563 0.217594 0.856
0.0519733 0.217594 0.856
0.0525288 0.21734 0.855
0.053145 0.21734 0.855
0.0537612 0.21734 0.855
0.0543138 0.217086 0.854
0.0549293 0.217086 0.854
0.0555448 0.217086 0.854
0.0560946 0.216831 0.853
0.0567094 0.216831 0.853
0.0573241 0.216831 0.853
0.0579389 0.216831 0.853
0.0585537 0.216831 0.853
0.0591685 0.216831 0.853
0.0597833 0.216831 0.853
0.0603981 0.216831 0.853
0.0609413 0.216577 0.852
0.0615554 0.216577 0.852
0.0621694 0.216577 0.852
0.0627835 0.216577 0.852
0.0633976 0.216577 0.852
0.0640116 0.216577 0.852
0.0646257 0.216577 0.852
0.0652397 0.216577 0.852
0.0658538 0.216577 0.852
0.0664679 0.216577 0.852
0.0670819 0.216577 0.852
0.0677754 0.216831 0.853
0.0683902 0.216831 0.853
0.069005 0.216831 0.853
0.0696198 0.216831 0.853
0.0702346 0.216831 0.853
0.0708494 0.216831 0.853
0.0714641 0.216831 0.853
0.0720789 0.216831 0.853
0.0726937 0.216831 0.853
0.0733085 0.216831 0.853
0.0738366 0.216577 0.852
0.0744507 0.216577 0.852
0.0749766 0.216323 0.851
0.0755011 0.216069 0.85
0.0761138 0.216069 0.85
0.0766361 0.215815 0.849
0.077157 0.21556 0.848
0.0777682 0.21556 0.848
0.078287 0.215306 0.847
0.0788043 0.215052 0.846
0.079414 0.215052 0.846
0.0799292 0.214798 0.845
0.0804429 0.214544 0.844
0.0810511 0.214544 0.844
0.0816595 0.214544 0.844
0.0821703 0.214289 0.843
0.0827779 0.214289 0.843
0.0833854 0.214289 0.843
0.083993 0.214289 0.843
0.0846006 0.214289 0.843
0.0852081 0.214289 0.843
0.0858157 0.214289 0.843
0.0864233 0.214289 0.843
0.0870309 0.214289 0.843
0.0876385 0.214289 0.843
0.088246 0.214289 0.843
0.088959 0.214544 0.844
0.0895673 0.214544 0.844
0.0901756 0.214544 0.844
0.0907839 0.214544 0.844
0.0913922 0.214544 0.844
0.0920005 0.214544 0.844
0.0926088 0.214544 0.844
0.0932171 0.214544 0.844
0.0938254 0.214544 0.844
0.0944337 0.214544 0.844
0.095042 0.214544 0.844
-0.0467224 0.227134 0.891
-0.0460802 0.227134 0.891
-0.0453871 0.226879 0.89
-0.0447456 0.226879 0.89
-0.0441042 0.226879 0.89
-0.0434627 0.226879 0.89
-0.0427731 0.226624 0.889
-0.0421324 0.226624 0.889
-0.0414917 0.226624 0.889
-0.040805 0.226369 0.888
-0.040165 0.226369 0.888
-0.039525 0.226369 0.888
-0.038885 0.226369 0.888
-0.038245 0.226369 0.888
-0.037605 0.226369 0.888
-0.036965 0.226369 0.888
-0.0363249 0.226369 0.888
-0.0356849 0.226369 0.888
-0.0350449 0.226369 0.888
-0.0344437 0.226624 0.889
-0.0338029 0.226624 0.889
-0.0331622 0.226624 0.889
-0.0325581 0.226879 0.89
-0.0319166 0.226879 0.89
-0.0312752 0.226879 0.89
-0.0306337 0.226879 0.89
-0.0299923 0.226879 0.89
-0.0293508 0.226879 0.89
-0.0287094 0.226879 0.89
-0.0280364 0.226624 0.889
-0.0273956 0.226624 0.889
-0.0267248 0.226369 0.888
-0.0260848 0.226369 0.888
-0.0254448 0.226369 0.888
-0.0247769 0.226114 0.887
-0.0241104 0.225859 0.886
-0.0234718 0.225859 0.886
-0.0228075 0.225604 0.885
-0.0221446 0.225349 0.884
-0.0215074 0.225349 0.884
-0.0208703 0.225349 0.884
-0.0202103 0.225094 0.883
-0.0195739 0.225094 0.883
-0.018916 0.224839 0.882
-0.0182596 0.224584 0.881
-0.0176247 0.224584 0.881
-0.0169704 0.224329 0.88
-0.0163176 0.224075 0.879
-0.0156841 0.224075 0.879
-0.0150335 0.22382 0.878
-0.0144007 0.22382 0.878
-0.0137679 0.22382 0.878
-0.0131351 0.22382 0.878
-0.012488 0.223565 0.877
-0.0118559 0.223565 0.877
-0.0112239 0.223565 0.877
-0.0105797 0.22331 0.876
-0.00994834 0.22331 0.876
-0.00931698 0.22331 0.876
-0.00868562 0.22331 0.876
-0.00805426 0.22331 0.876
-0.0074229 0.22331 0.876
-0.00679154 0.22331 0.876
-0.00616018 0.22331 0.876
-0.00552882 0.22331 0.876
-0.00489747 0.22331 0.876
-0.00426124 0.223055 0.875
-0.0036306 0.223055 0.875
-0.00299996 0.223055 0.875
-0.00236661 0.2228 0.874
-0.0017367 0.2228 0.874
-0.00110678 0.2228 0.874
-0.000476314 0.222545 0.873
0.000152883 0.222545 0.873
0.00078208 0.222545 0.873
0.00140966 0.22229 0.872
0.00203814 0.22229 0.872
0.00266661 0.22229 0.872
0.00328753 0.22178 0.87
0.00391007 0.221525 0.869
0.00453638 0.221525 0.869
0.00515675 0.22127 0.868
0.00577569 0.221015 0.867
0.00640056 0.221015 0.867
0.00702543 0.221015 0.867
0.00764148 0.220761 0.866
0.00826563 0.220761 0.866
0.00888978 0.220761 0.866
0.00951394 0.220761 0.866
0.0101381 0.220761 0.866
0.0107622 0.220761 0.866
0.0113864 0.220761 0.866
0.0120105 0.220761 0.866
0.0126347 0.220761 0.866
0.0132742 0.221015 0.867
0.013899 0.221015 0.867
0.0145407 0.22127 0.868
0.0151662 0.22127 0.868
0.0157918 0.22127 0.868
0.0164174 0.22127 0.868
0.017043 0.22127 0.868
0.017689 0.221525 0.869
0.0183153 0.221525 0.869
0.0189416 0.221525 0.869
0.0195904 0.22178 0.87
0.0202175 0.22178 0.87
0.0208445 0.22178 0.87
0.0214715 0.22178 0.87
0.0220986 0.22178 0.87
0.0227256 0.22178 0.87
0.0233526 0.22178 0.87
0.0239521 0.221525 0.869
0.0245784 0.221525 0.869
0.0252047 0.221525 0.869
0.0258311 0.221525 0.869
0.0264574 0.221525 0.869
0.0270837 0.221525 0.869
0.0276781 0.22127 0.868
0.0283037 0.22127 0.868
0.0289293 0.22127 0.868
0.0295208 0.221015 0.867
0.0301457 0.221015 0.867
0.0307706 0.221015 0.867
0.0313593 0.220761 0.866
0.0319834 0.220761 0.866
0.0326076 0.220761 0.866
0.0332317 0.220761 0.866
0.0338559 0.220761 0.866
0.0344402 0.220506 0.865
0.0350636 0.220506 0.865
0.0356871 0.220506 0.865
0.0363105 0.220506 0.865
0.0369339 0.220506 0.865
0.0375574 0.220506 0.865
0.0381808 0.220506 0.865
0.0388042 0.220506 0.865
0.0394276 0.220506 0.865
0.0400511 0.220506 0.865
0.0406275 0.220251 0.864
0.0412502 0.220251 0.864
0.0418729 0.220251 0.864
0.0424956 0.220251 0.864
0.0431183 0.220251 0.864
0.043741 0.220251 0.864
0.0443124 0.219996 0.863
0.0449344 0.219996 0.863
0.0455564 0.219996 0.863
0.0461249 0.219741 0.862
0.0466919 0.219486 0.861
0.0473124 0.219486 0.861
0.0478773 0.219231 0.86
0.0484408 0.218976 0.859
0.0490028 0.218721 0.858
0.0496211 0.218721 0.858
0.050181 0.218466 0.857
0.0507394 0.218211 0.856
0.0513563 0.218211 0.856
0.0519733 0.218211 0.856
0.0525288 0.217956 0.855
0.053145 0.217956 0.855
0.0537612 0.217956 0.855
0.0543138 0.217702 0.854
0.0549293 0.217702 0.854
0.0555448 0.217702 0.854
0.0560946 0.217447 0.853
0.0567094 0.217447 0.853
0.0573241 0.217447 0.853
0.0579389 0.217447 0.853
0.0585537 0.217447 0.853
0.0590991 0.217192 0.852
0.0597132 0.217192 0.852
0.0603273 0.217192 0.852
0.0608698 0.216937 0.851
0.0614831 0.216937 0.851
0.0620965 0.216937 0.851
0.0627098 0.216937 0.851
0.0633231 0.216937 0.851
0.0639365 0.216937 0.851
0.0645498 0.216937 0.851
0.0651632 0.216937 0.851
0.0658538 0.217192 0.852
0.0664679 0.217192 0.852
0.0670819 0.217192 0.852
0.067696 0.217192 0.852
0.0683101 0.217192 0.852
0.0689241 0.217192 0.852
0.0696198 0.217447 0.853
0.0702346 0.217447 0.853
0.0708494 0.217447 0.853
0.0714641 0.217447 0.853
0.0720789 0.217447 0.853
0.0726085 0.217192 0.852
0.0732225 0.217192 0.852
0.0737499 0.216937 0.851
0.0743633 0.216937 0.851
0.0748885 0.216682 0.85
0.0755011 0.216682 0.85
0.0761138 0.216682 0.85
0.0766361 0.216427 0.849
0.077066 0.215917 0.847
0.0776765 0.215917 0.847
0.078287 0.215917 0.847
0.0787111 0.215407 0.845
0.0793201 0.215407 0.845
0.0799292 0.215407 0.845
0.0804429 0.215152 0.844
0.0810511 0.215152 0.844
0.0816595 0.215152 0.844
0.0821703 0.214897 0.843
0.0827779 0.214897 0.843
0.0833854 0.214897 0.843
0.083993 0.214897 0.843
0.0846006 0.214897 0.843
0.0852081 0.214897 0.843
0.0858157 0.214897 0.843
0.0864233 0.214897 0.843
0.0870309 0.214897 0.843
0.0876385 0.214897 0.843
0.088246 0.214897 0.843
0.0888536 0.214897 0.843
0.0894612 0.214897 0.843
0.0901756 0.215152 0.844
0.0907839 0.215152 0.844
0.0913922 0.215152 0.844
0.0920005 0.215152 0.844
0.0926088 0.215152 0.844
0.0932171 0.215152 0.844
0.0938254 0.215152 0.844
0.0944337 0.215152 0.844
0.095042 0.215152 0.844
0.0956503 0.215152 0.844
-0.0467224 0.227776 0.891
-0.0460802 0.227776 0.891
-0.0453871 0.227521 0.89
-0.0447456 0.227521 0.89
-0.0441042 0.227521 0.89
-0.0434627 0.227521 0.89
-0.0427731 0.227265 0.889
-0.0421324 0.227265 0.889
-0.0414917 0.227265 0.889
-0.040851 0.227265 0.889
-0.040165 0.227009 0.888
-0.039525 0.227009 0.888
-0.038885 0.227009 0.888
-0.038245 0.227009 0.888
-0.037605 0.227009 0.888
-0.036965 0.227009 0.888
-0.0363249 0.227009 0.888
-0.0357251 0.227265 0.889
-0.0350844 0.227265 0.889
-0.0344437 0.227265 0.889
-0.033841 0.227521 0.89
-0.0331995 0.227521 0.89
-0.0325581 0.227521 0.89
-0.0319166 0.227521 0.89
-0.0312752 0.227521 0.89
-0.0306337 0.227521 0.89
-0.0299923 0.227521 0.89
-0.0293508 0.227521 0.89
-0.0287094 0.227521 0.89
-0.0280364 0.227265 0.889
-0.0273956 0.227265 0.889
-0.0267248 0.227009 0.888
-0.0260848 0.227009 0.888
-0.0254448 0.227009 0.888
-0.0247769 0.226754 0.887
-0.0241104 0.226498 0.886
-0.0234718 0.226498 0.886
-0.0228075 0.226242 0.885
-0.0221446 0.225987 0.884
-0.0215074 0.225987 0.884
-0.0208703 0.225987 0.884
-0.0202103 0.225731 0.883
-0.0195739 0.225731 0.883
-0.018916 0.225475 0.882
-0.0182596 0.22522 0.881
-0.0176247 0.22522 0.881
-0.0169704 0.224964 0.88
-0.0163176 0.224708 0.879
-0.0156841 0.224708 0.879
-0.0150335 0.224453 0.878
-0.0143843 0.224197 0.877
-0.0137522 0.224197 0.877
-0.0131201 0.224197 0.877
-0.0124738 0.223942 0.876
-0.0118424 0.223942 0.876
-0.0112111 0.223942 0.876
-0.0105797 0.223942 0.876
-0.00993698 0.223686 0.875
-0.00930634 0.223686 0.875
-0.00867571 0.223686 0.875
-0.00804507 0.223686 0.875
-0.00741443 0.223686 0.875
-0.00678379 0.223686 0.875
-0.00615315 0.223686 0.875
-0.00552251 0.223686 0.875
-0.00488628 0.22343 0.874
-0.00425637 0.22343 0.874
-0.00362645 0.22343 0.874
-0.00299653 0.22343 0.874
-0.00236391 0.223175 0.873
-0.00173471 0.223175 0.873
-0.00110551 0.223175 0.873
-0.000475769 0.222919 0.872
0.000152708 0.222919 0.872
0.000781184 0.222919 0.872
0.00140804 0.222663 0.871
0.00203346 0.222408 0.87
0.0026605 0.222408 0.87
0.00328375 0.222152 0.869
0.00390557 0.221896 0.868
0.00453116 0.221896 0.868
0.00515081 0.221641 0.867
0.00577569 0.221641 0.867
0.00640056 0.221641 0.867
0.00701733 0.221385 0.866
0.00764148 0.221385 0.866
0.00826563 0.221385 0.866
0.00887952 0.221129 0.865
0.00950295 0.221129 0.865
0.0101381 0.221385 0.866
0.0107622 0.221385 0.866
0.0113864 0.221385 0.866
0.0120105 0.221385 0.866
0.0126347 0.221385 0.866
0.0132588 0.221385 0.866
0.013899 0.221641 0.867
0.0145239 0.221641 0.867
0.0151488 0.221641 0.867
0.0157918 0.221896 0.868
0.0164174 0.221896 0.868
0.017043 0.221896 0.868
0.017689 0.222152 0.869
0.0183153 0.222152 0.869
0.0189416 0.222152 0.869
0.0195679 0.222152 0.869
0.0202175 0.222408 0.87
0.0208445 0.222408 0.87
0.0214715 0.222408 0.87
0.0220986 0.222408 0.87
0.0227256 0.222408 0.87
0.0233258 0.222152 0.869
0.0239521 0.222152 0.869
0.0245784 0.222152 0.869
0.0252047 0.222152 0.869
0.0258311 0.222152 0.869
0.0264574 0.222152 0.869
0.0270525 0.221896 0.868
0.0276781 0.221896 0.868
0.0283037 0.221896 0.868
0.0289293 0.221896 0.868
0.0295208 0.221641 0.867
0.0301457 0.221641 0.867
0.0307351 0.221385 0.866
0.0313593 0.221385 0.866
0.0319834 0.221385 0.866
0.0326076 0.221385 0.866
0.0332317 0.221385 0.866
0.0338559 0.221385 0.866
0.0344402 0.221129 0.865
0.0350636 0.221129 0.865
0.0356871 0.221129 0.865
0.0363105 0.221129 0.865
0.0369339 0.221129 0.865
0.0375574 0.221129 0.865
0.0381808 0.221129 0.865
0.0388042 0.221129 0.865
0.0394276 0.221129 0.865
0.0400511 0.221129 0.865
0.0406275 0.220874 0.864
0.0412502 0.220874 0.864
0.0418729 0.220874 0.864
0.0424956 0.220874 0.864
0.0431183 0.220874 0.864
0.043741 0.220874 0.864
0.0443124 0.220618 0.863
0.0449344 0.220618 0.863
0.0455564 0.220618 0.863
0.0461249 0.220363 0.862
0.0466919 0.220107 0.861
0.0473124 0.220107 0.861
0.0478773 0.219851 0.86
0.0484408 0.219596 0.859
0.0490028 0.21934 0.858
0.0496211 0.21934 0.858
0.050181 0.219084 0.857
0.0507394 0.218829 0.856
0.0513563 0.218829 0.856
0.0519733 0.218829 0.856
0.0525288 0.218573 0.855
0.053145 0.218573 0.855
0.0536983 0.218317 0.854
0.0543138 0.218317 0.854
0.0549293 0.218317 0.854
0.0554798 0.218062 0.853
0.0560946 0.218062 0.853
0.0567094 0.218062 0.853
0.0573241 0.218062 0.853
0.057871 0.217806 0.852
0.0584851 0.217806 0.852
0.0590991 0.217806 0.852
0.0596431 0.217551 0.851
0.0602564 0.217551 0.851
0.0608698 0.217551 0.851
0.0614831 0.217551 0.851
0.0620965 0.217551 0.851
0.0626361 0.217295 0.85
0.0632487 0.217295 0.85
0.0638614 0.217295 0.85
0.0645498 0.217551 0.851
0.0651632 0.217551 0.851
0.0657765 0.217551 0.851
0.0663899 0.217551 0.851
0.0670032 0.217551 0.851
0.0676165 0.217551 0.851
0.0683101 0.217806 0.852
0.0689241 0.217806 0.852
0.0695382 0.217806 0.852
0.0701522 0.217806 0.852
0.0707663 0.217806 0.852
0.0713804 0.217806 0.852
0.0719944 0.217806 0.852
0.0725233 0.217551 0.851
0.0731366 0.217551 0.851
0.0736633 0.217295 0.85
0.0742759 0.217295 0.85
0.0748885 0.217295 0.85
0.0754123 0.217039 0.849
0.0760242 0.217039 0.849
0.0765459 0.216784 0.848
0.077066 0.216528 0.847
0.0776765 0.216528 0.847
0.0781945 0.216272 0.846
0.0787111 0.216017 0.845
0.0793201 0.216017 0.845
0.0798346 0.215761 0.844
0.0804429 0.215761 0.844
0.0810511 0.215761 0.844
0.0815627 0.215505 0.843
0.0821703 0.215505 0.843
0.0827779 0.215505 0.843
0.0833854 0.215505 0.843
0.083993 0.215505 0.843
0.0846006 0.215505 0.843
0.0852081 0.215505 0.843
0.0858157 0.215505 0.843
0.0864233 0.215505 0.843
0.0870309 0.215505 0.843
0.0876385 0.215505 0.843
0.088246 0.215505 0.843
0.0888536 0.215505 0.843
0.0894612 0.215505 0.843
0.0900688 0.215505 0.843
0.0906763 0.215505 0.843
0.0912839 0.215505 0.843
0.0920005 0.215761 0.844
0.0926088 0.215761 0.844
0.0932171 0.215761 0.844
0.0938254 0.215761 0.844
0.0944337 0.215761 0.844
0.095042 0.215761 0.844
0.0956503 0.215761 0.844
-0.0467224 0.228419 0.891
-0.0460802 0.228419 0.891
-0.0453871 0.228162 0.89
-0.0447456 0.228162 0.89
-0.0441042 0.228162 0.89
-0.0434627 0.228162 0.89
-0.0427731 0.227906 0.889
-0.0421324 0.227906 0.889
-0.0414917 0.227906 0.889
-0.040851 0.227906 0.889
-0.040165 0.22765 0.888
-0.039525 0.22765 0.888
-0.038885 0.22765 0.888
-0.038245 0.22765 0.888
-0.037605 0.22765 0.888
-0.036965 0.22765 0.888
-0.0363249 0.22765 0.888
-0.0357251 0.227906 0.889
-0.0350844 0.227906 0.889
-0.0344437 0.227906 0.889
-0.033841 0.228162 0.89
-0.0331995 0.228162 0.89
-0.0325581 0.228162 0.89
-0.0319166 0.228162 0.89
-0.0312752 0.228162 0.89
-0.0306337 0.228162 0.89
-0.0299923 0.228162 0.89
-0.0293508 0.228162 0.89
-0.0286771 0.227906 0.889
-0.0280364 0.227906 0.889
-0.0273956 0.227906 0.889
-0.0267248 0.22765 0.888
-0.0260554 0.227393 0.887
-0.0254162 0.227393 0.887
-0.0247489 0.227137 0.886
-0.0240832 0.226881 0.885
-0.0234453 0.226881 0.885
-0.0228075 0.226881 0.885
-0.0221446 0.226624 0.884
-0.0215074 0.226624 0.884
-0.0208467 0.226368 0.883
-0.0201874 0.226111 0.882
-0.0195517 0.226111 0.882
-0.0188946 0.225855 0.881
-0.0182389 0.225599 0.88
-0.0176047 0.225599 0.88
-0.0169511 0.225342 0.879
-0.0162991 0.225086 0.878
-0.0156663 0.225086 0.878
-0.0150335 0.225086 0.878
-0.0143843 0.22483 0.877
-0.0137522 0.22483 0.877
-0.0131051 0.224573 0.876
-0.0124738 0.224573 0.876
-0.0118289 0.224317 0.875
-0.0111983 0.224317 0.875
-0.0105676 0.224317 0.875
-0.00993698 0.224317 0.875
-0.00930634 0.224317 0.875
-0.00866579 0.224061 0.874
-0.00803587 0.224061 0.874
-0.00740595 0.224061 0.874
-0.00677604 0.224061 0.874
-0.00614612 0.224061 0.874
-0.0055162 0.224061 0.874
-0.00488069 0.223804 0.873
-0.0042515 0.223804 0.873
-0.0036223 0.223804 0.873
-0.00298967 0.223548 0.872
-0.0023612 0.223548 0.872
-0.00173272 0.223548 0.872
-0.00110424 0.223548 0.872
-0.000475769 0.223548 0.872
0.000152708 0.223548 0.872
0.000780288 0.223291 0.871
0.00140643 0.223035 0.87
0.00203112 0.222779 0.869
0.00265744 0.222779 0.869
0.00327997 0.222522 0.868
0.00390557 0.222522 0.868
0.00453116 0.222522 0.868
0.00515081 0.222266 0.867
0.00576902 0.22201 0.866
0.00639318 0.22201 0.866
0.00700923 0.221753 0.865
0.00763266 0.221753 0.865
0.00825609 0.221753 0.865
0.00887952 0.221753 0.865
0.00950295 0.221753 0.865
0.0101264 0.221753 0.865
0.0107498 0.221753 0.865
0.0113732 0.221753 0.865
0.0119967 0.221753 0.865
0.0126201 0.221753 0.865
0.0132588 0.22201 0.866
0.013883 0.22201 0.866
0.0145239 0.222266 0.867
0.0151488 0.222266 0.867
0.0157918 0.222522 0.868
0.0164174 0.222522 0.868
0.017043 0.222522 0.868
0.0176686 0.222522 0.868
0.0183153 0.222779 0.869
0.0189416 0.222779 0.869
0.0195679 0.222779 0.869
0.0201942 0.222779 0.869
0.0208205 0.222779 0.869
0.0214469 0.222779 0.869
0.0220732 0.222779 0.869
0.0226995 0.222779 0.869
0.0233258 0.222779 0.869
0.0239521 0.222779 0.869
0.0245784 0.222779 0.869
0.0252047 0.222779 0.869
0.0258013 0.222522 0.868
0.0264269 0.222522 0.868
0.0270525 0.222522 0.868
0.0276781 0.222522 0.868
0.0283037 0.222522 0.868
0.028896 0.222266 0.867
0.0295208 0.222266 0.867
0.0301457 0.222266 0.867
0.0307351 0.22201 0.866
0.0313593 0.22201 0.866
0.0319834 0.22201 0.866
0.0326076 0.22201 0.866
0.0332317 0.22201 0.866
0.0338559 0.22201 0.866
0.0344402 0.221753 0.865
0.0350636 0.221753 0.865
0.0356871 0.221753 0.865
0.0363105 0.221753 0.865
0.0369339 0.221753 0.865
0.0375574 0.221753 0.865
0.0381808 0.221753 0.865
0.0388042 0.221753 0.865
0.0394276 0.221753 0.865
0.0400511 0.221753 0.865
0.0406745 0.221753 0.865
0.0412502 0.221497 0.864
0.0418729 0.221497 0.864
0.0424956 0.221497 0.864
0.0431183 0.221497 0.864
0.043741 0.221497 0.864
0.0443637 0.221497 0.864
0.0449344 0.221241 0.863
0.0455564 0.221241 0.863
0.0461249 0.220984 0.862
0.0466919 0.220728 0.861
0.0473124 0.220728 0.861
0.0478773 0.220472 0.86
0.0484408 0.220215 0.859
0.0490028 0.219959 0.858
0.0496211 0.219959 0.858
0.050181 0.219702 0.857
0.0507394 0.219446 0.856
0.0513563 0.219446 0.856
0.0519733 0.219446 0.856
0.0525288 0.21919 0.855
0.053145 0.21919 0.855
0.0536983 0.218933 0.854
0.0542502 0.218677 0.853
0.054865 0.218677 0.853
0.0554798 0.218677 0.853
0.0560946 0.218677 0.853
0.0567094 0.218677 0.853
0.0573241 0.218677 0.853
0.057871 0.218421 0.852
0.0584851 0.218421 0.852
0.0590991 0.218421 0.852
0.0596431 0.218164 0.851
0.0602564 0.218164 0.851
0.0608698 0.218164 0.851
0.0614831 0.218164 0.851
0.0620965 0.218164 0.851
0.0626361 0.217908 0.85
0.0632487 0.217908 0.85
0.0638614 0.217908 0.85
0.0645498 0.218164 0.851
0.0651632 0.218164 0.851
0.0657765 0.218164 0.851
0.0663899 0.218164 0.851
0.0670032 0.218164 0.851
0.0676165 0.218164 0.851
0.0683101 0.218421 0.852
0.0689241 0.218421 0.852
0.0695382 0.218421 0.852
0.0701522 0.218421 0.852
0.0707663 0.218421 0.852
0.0713804 0.218421 0.852
0.0719944 0.218421 0.852
0.0725233 0.218164 0.851
0.0731366 0.218164 0.851
0.0736633 0.217908 0.85
0.0742759 0.217908 0.85
0.0748885 0.217908 0.85
0.0754123 0.217652 0.849
0.0760242 0.217652 0.849
0.0765459 0.217395 0.848
0.077066 0.217139 0.847
0.0776765 0.217139 0.847
0.0781945 0.216882 0.846
0.0787111 0.216626 0.845
0.0793201 0.216626 0.845
0.0798346 0.21637 0.844
0.0804429 0.21637 0.844
0.0810511 0.21637 0.844
0.0815627 0.216113 0.843
0.0821703 0.216113 0.843
0.0827779 0.216113 0.843
0.0833854 0.216113 0.843
0.083993 0.216113 0.843
0.0846006 0.216113 0.843
0.0852081 0.216113 0.843
0.0858157 0.216113 0.843
0.0864233 0.216113 0.843
0.0870309 0.216113 0.843
0.0876385 0.216113 0.843
0.088246 0.216113 0.843
0.0888536 0.216113 0.843
0.0894612 0.216113 0.843
0.0900688 0.216113 0.843
0.0906763 0.216113 0.843
0.0912839 0.216113 0.843
0.0920005 0.21637 0.844
0.0926088 0.21637 0.844
0.0932171 0.21637 0.844
0.0938254 0.21637 0.844
0.0944337 0.21637 0.844
0.095042 0.21637 0.844
0.0956503 0.21637 0.844
-0.0453871 0.228804 0.89
-0.0447456 0.228804 0.89
-0.0441042 0.228804 0.89
-0.0434627 0.228804 0.89
-0.0428213 0.228804 0.89
-0.0421798 0.228804 0.89
-0.0414917 0.228547 0.889
-0.040851 0.228547 0.889
-0.0402102 0.228547 0.889
-0.0395695 0.228547 0.889
-0.0389288 0.228547 0.889
-0.038288 0.228547 0.889
-0.0376473 0.228547 0.889
-0.0370066 0.228547 0.889
-0.0363659 0.228547 0.889
