0.104172 0.2997 0.849
0.104907 0.300053 0.85
0.10552 0.300053 0.85
0.106132 0.300053 0.85
-0.0468861 0.311985 0.882
-0.0462504 0.311985 0.882
-0.0456148 0.311985 0.882
-0.0449791 0.311985 0.882
-0.0443434 0.311985 0.882
-0.0437077 0.311985 0.882
-0.043072 0.311985 0.882
-0.0424363 0.311985 0.882
-0.0418481 0.312339 0.883
-0.0412116 0.312339 0.883
-0.0405752 0.312339 0.883
-0.0398936 0.311985 0.882
-0.0392579 0.311985 0.882
-0.0386222 0.311985 0.882
-0.0379435 0.311631 0.881
-0.0373085 0.311631 0.881
-0.0366319 0.311277 0.88
-0.0359568 0.310924 0.879
-0.0353233 0.310924 0.879
-0.0346503 0.31057 0.878
-0.0340175 0.31057 0.878
-0.0333847 0.31057 0.878
-0.0326773 0.309863 0.876
-0.0319727 0.309155 0.874
-0.0313428 0.309155 0.874
-0.0306778 0.308801 0.873
-0.0300142 0.308448 0.872
-0.0293857 0.308448 0.872
-0.0286912 0.30774 0.87
-0.0280642 0.30774 0.87
-0.0274372 0.30774 0.87
-0.0267485 0.307033 0.868
-0.0260928 0.306679 0.867
-0.0254679 0.306679 0.867
-0.0248144 0.306325 0.866
-0.0241623 0.305972 0.865
-0.0235117 0.305618 0.864
-0.022889 0.305618 0.864
-0.0222663 0.305618 0.864
-0.0216185 0.305264 0.863
-0.0209965 0.305264 0.863
-0.0203745 0.305264 0.863
-0.0197297 0.30491 0.862
-0.0191084 0.30491 0.862
-0.0184871 0.30491 0.862
-0.0178658 0.30491 0.862
-0.0172446 0.30491 0.862
-0.0166233 0.30491 0.862
-0.016002 0.30491 0.862
-0.0153808 0.30491 0.862
-0.0147595 0.30491 0.862
-0.0141382 0.30491 0.862
-0.013517 0.30491 0.862
-0.0128807 0.304557 0.861
-0.0122602 0.304557 0.861
-0.0116396 0.304557 0.861
-0.0110191 0.304557 0.861
-0.0103985 0.304557 0.861
-0.00976663 0.304203 0.86
-0.00914681 0.304203 0.86
-0.00852698 0.304203 0.86
-0.00790715 0.304203 0.86
-0.00728732 0.304203 0.86
-0.0066675 0.304203 0.86
-0.00604767 0.304203 0.86
-0.00542784 0.304203 0.86
-0.00480801 0.304203 0.86
-0.00418819 0.304203 0.86
-0.00357251 0.304557 0.861
-0.00295196 0.304557 0.861
-0.00233141 0.304557 0.861
-0.00171285 0.30491 0.862
-0.00109158 0.30491 0.862
-0.000470312 0.30491 0.862
0.000150957 0.30491 0.862
0.000773121 0.305264 0.863
0.00139511 0.305264 0.863
0.00201944 0.305618 0.864
0.00264215 0.305618 0.864
0.00326486 0.305618 0.864
0.00388757 0.305618 0.864
0.0045155 0.305972 0.865
0.00513893 0.305972 0.865
0.00576236 0.305972 0.865
0.00638579 0.305972 0.865
0.00700923 0.305972 0.865
0.00763266 0.305972 0.865
0.00824654 0.305618 0.864
0.00886925 0.305618 0.864
0.00949196 0.305618 0.864
0.010103 0.305264 0.863
0.010725 0.305264 0.863
0.0113469 0.305264 0.863
0.0119551 0.30491 0.862
0.0125763 0.30491 0.862
0.0131823 0.304557 0.861
0.0138028 0.304557 0.861
0.0144234 0.304557 0.861
0.0150265 0.304203 0.86
0.0156463 0.304203 0.86
0.0162661 0.304203 0.86
0.0168859 0.304203 0.86
0.0175058 0.304203 0.86
0.0181256 0.304203 0.86
0.0187236 0.303849 0.859
0.0193427 0.303849 0.859
0.0199618 0.303849 0.859
0.020581 0.303849 0.859
0.0212001 0.303849 0.859
0.0218192 0.303849 0.859
0.0224383 0.303849 0.859
0.0230574 0.303849 0.859
0.0236765 0.303849 0.859
0.0242956 0.303849 0.859
0.0249147 0.303849 0.859
0.0255338 0.303849 0.859
0.0261529 0.303849 0.859
0.0267409 0.303496 0.858
0.0273592 0.303496 0.858
0.0279776 0.303496 0.858
0.028596 0.303496 0.858
0.0292144 0.303496 0.858
0.0298328 0.303496 0.858
0.0304512 0.303496 0.858
0.0310696 0.303496 0.858
0.0316879 0.303496 0.858
0.0323063 0.303496 0.858
0.0329247 0.303496 0.858
0.033504 0.303142 0.857
0.0341217 0.303142 0.857
0.0347393 0.303142 0.857
0.035357 0.303142 0.857
0.0359747 0.303142 0.857
0.0365923 0.303142 0.857
0.03721 0.303142 0.857
0.0378277 0.303142 0.857
0.0384005 0.302788 0.856
0.0390174 0.302788 0.856
0.0396344 0.302788 0.856
0.0402513 0.302788 0.856
0.0408682 0.302788 0.856
0.0414852 0.302788 0.856
0.0421021 0.302788 0.856
0.0427191 0.302788 0.856
0.0432854 0.302434 0.855
0.0439016 0.302434 0.855
0.0445178 0.302434 0.855
0.0451341 0.302434 0.855
0.0457503 0.302434 0.855
0.0463665 0.302434 0.855
0.0469827 0.302434 0.855
0.047599 0.302434 0.855
0.0482152 0.302434 0.855
0.0488314 0.302434 0.855
0.0494476 0.302434 0.855
0.0500639 0.302434 0.855
0.0506801 0.302434 0.855
0.0512963 0.302434 0.855
0.0519125 0.302434 0.855
0.0525288 0.302434 0.855
0.053145 0.302434 0.855
0.0537612 0.302434 0.855
0.0543138 0.302081 0.854
0.0549293 0.302081 0.854
0.0555448 0.302081 0.854
0.0560946 0.301727 0.853
0.0567094 0.301727 0.853
0.0573241 0.301727 0.853
0.0579389 0.301727 0.853
0.0585537 0.301727 0.853
0.0591685 0.301727 0.853
0.0597833 0.301727 0.853
0.0603981 0.301727 0.853
0.0610128 0.301727 0.853
0.0616276 0.301727 0.853
0.0622424 0.301727 0.853
0.0628572 0.301727 0.853
0.063472 0.301727 0.853
0.0640868 0.301727 0.853
0.0647774 0.302081 0.854
0.0653929 0.302081 0.854
0.0660084 0.302081 0.854
0.0666239 0.302081 0.854
0.0672394 0.302081 0.854
0.0678549 0.302081 0.854
0.0684704 0.302081 0.854
0.0690859 0.302081 0.854
0.0697014 0.302081 0.854
0.0703169 0.302081 0.854
0.0709324 0.302081 0.854
0.0715479 0.302081 0.854
0.0721634 0.302081 0.854
0.0727789 0.302081 0.854
0.0733944 0.302081 0.854
0.0740099 0.302081 0.854
0.0746254 0.302081 0.854
0.0752409 0.302081 0.854
0.0758564 0.302081 0.854
0.0764719 0.302081 0.854
0.0770874 0.302081 0.854
0.077703 0.302081 0.854
0.0783185 0.302081 0.854
0.078934 0.302081 0.854
0.0795495 0.302081 0.854
0.0802588 0.302434 0.855
0.0808751 0.302434 0.855
0.0814913 0.302434 0.855
0.0821075 0.302434 0.855
0.0827237 0.302434 0.855
0.08334 0.302434 0.855
0.0839562 0.302434 0.855
0.0845724 0.302434 0.855
0.0851886 0.302434 0.855
0.0858048 0.302434 0.855
0.0864211 0.302434 0.855
0.0870373 0.302434 0.855
0.087551 0.302081 0.854
0.0881665 0.302081 0.854
0.088782 0.302081 0.854
0.0892928 0.301727 0.853
0.0899076 0.301727 0.853
0.0905224 0.301727 0.853
0.0910303 0.301373 0.852
0.0915368 0.301019 0.851
0.0921502 0.301019 0.851
0.0926545 0.300666 0.85
0.0930477 0.299958 0.848
0.0936589 0.299958 0.848
0.0941589 0.299605 0.847
0.0945456 0.298897 0.845
0.0951546 0.298897 0.845
0.0957636 0.298897 0.845
0.0962586 0.298543 0.844
0.0968668 0.298543 0.844
0.0974751 0.298543 0.844
0.0980834 0.298543 0.844
0.0986917 0.298543 0.844
0.0994177 0.298897 0.845
0.100027 0.298897 0.845
0.100755 0.299251 0.846
0.101484 0.299605 0.847
0.102095 0.299605 0.847
0.102705 0.299605 0.847
0.10356 0.300312 0.849
0.104172 0.300312 0.849
0.104907 0.300666 0.85
0.10552 0.300666 0.85
0.106132 0.300666 0.85
-0.0468861 0.312621 0.882
-0.046198 0.312267 0.881
-0.045563 0.312267 0.881
-0.0449281 0.312267 0.881
-0.0443434 0.312621 0.882
-0.0437077 0.312621 0.882
-0.043072 0.312621 0.882
-0.0424363 0.312621 0.882
-0.0418007 0.312621 0.882
-0.041165 0.312621 0.882
-0.0405293 0.312621 0.882
-0.0398936 0.312621 0.882
-0.0392579 0.312621 0.882
-0.0386222 0.312621 0.882
-0.0379866 0.312621 0.882
-0.0373509 0.312621 0.882
-0.0366736 0.312267 0.881
-0.0359977 0.311912 0.88
-0.0353635 0.311912 0.88
-0.0346897 0.311558 0.879
-0.0340175 0.311203 0.878
-0.0333847 0.311203 0.878
-0.0327146 0.310849 0.877
-0.0320093 0.31014 0.875
-0.0313787 0.31014 0.875
-0.0307129 0.309785 0.874
-0.0300142 0.309077 0.872
-0.0293857 0.309077 0.872
-0.0287242 0.308722 0.871
-0.0280642 0.308368 0.87
-0.0274372 0.308368 0.87
-0.0267793 0.308013 0.869
-0.0261229 0.307659 0.868
-0.0254679 0.307304 0.867
-0.0248431 0.307304 0.867
-0.0241903 0.30695 0.866
-0.0235389 0.306595 0.865
-0.0229155 0.306595 0.865
-0.022292 0.306595 0.865
-0.0216436 0.306241 0.864
-0.0210208 0.306241 0.864
-0.0203981 0.306241 0.864
-0.0197525 0.305887 0.863
-0.0191306 0.305887 0.863
-0.0185086 0.305887 0.863
-0.0178866 0.305887 0.863
-0.0172646 0.305887 0.863
-0.0166426 0.305887 0.863
-0.016002 0.305532 0.862
-0.0153808 0.305532 0.862
-0.0147595 0.305532 0.862
-0.0141546 0.305887 0.863
-0.0135326 0.305887 0.863
-0.0128957 0.305532 0.862
-0.0122744 0.305532 0.862
-0.0116532 0.305532 0.862
-0.0110319 0.305532 0.862
-0.0104106 0.305532 0.862
-0.00977799 0.305178 0.861
-0.00915744 0.305178 0.861
-0.00853689 0.305178 0.861
-0.00791635 0.305178 0.861
-0.0072958 0.305178 0.861
-0.00667525 0.305178 0.861
-0.0060547 0.305178 0.861
-0.00543415 0.305178 0.861
-0.0048136 0.305178 0.861
-0.00419306 0.305178 0.861
-0.00357666 0.305532 0.862
-0.00295539 0.305532 0.862
-0.00233412 0.305532 0.862
-0.00171484 0.305887 0.863
-0.00109285 0.305887 0.863
-0.000470858 0.305887 0.863
0.000151307 0.306241 0.864
0.000774017 0.306241 0.864
0.00139673 0.306241 0.864
0.00202178 0.306595 0.865
0.00264521 0.306595 0.865
0.00326864 0.306595 0.865
0.00389657 0.30695 0.866
0.00452072 0.30695 0.866
0.00514487 0.30695 0.866
0.00576902 0.30695 0.866
0.00639318 0.30695 0.866
0.00701733 0.30695 0.866
0.00763266 0.306595 0.865
0.00824654 0.306241 0.864
0.00886925 0.306241 0.864
0.00949196 0.306241 0.864
0.0101147 0.306241 0.864
0.0107374 0.306241 0.864
0.0113469 0.305887 0.863
0.0119551 0.305532 0.862
0.0125763 0.305532 0.862
0.0131823 0.305178 0.861
0.0138028 0.305178 0.861
0.0144234 0.305178 0.861
0.0150439 0.305178 0.861
0.0156463 0.304823 0.86
0.0162661 0.304823 0.86
0.0168859 0.304823 0.86
0.0175058 0.304823 0.86
0.0181256 0.304823 0.86
0.0187454 0.304823 0.86
0.0193653 0.304823 0.86
0.0199851 0.304823 0.86
0.0206049 0.304823 0.86
0.0212247 0.304823 0.86
0.0218446 0.304823 0.86
0.0224644 0.304823 0.86
0.0230574 0.304469 0.859
0.0236765 0.304469 0.859
0.0242956 0.304469 0.859
0.0249147 0.304469 0.859
0.0255338 0.304469 0.859
0.0261529 0.304469 0.859
0.0267409 0.304114 0.858
0.0273592 0.304114 0.858
0.0279776 0.304114 0.858
0.028596 0.304114 0.858
0.0292144 0.304114 0.858
0.0298328 0.304114 0.858
0.0304512 0.304114 0.858
0.0310696 0.304114 0.858
0.0316879 0.304114 0.858
0.0323063 0.304114 0.858
0.0329247 0.304114 0.858
0.033504 0.30376 0.857
0.0341217 0.30376 0.857
0.0347393 0.30376 0.857
0.035357 0.30376 0.857
0.0359747 0.30376 0.857
0.0365923 0.30376 0.857
0.03721 0.30376 0.857
0.0378277 0.30376 0.857
0.0384005 0.303405 0.856
0.0390174 0.303405 0.856
0.0396344 0.303405 0.856
0.0402513 0.303405 0.856
0.0408682 0.303405 0.856
0.0414852 0.303405 0.856
0.0421021 0.303405 0.856
0.0427191 0.303405 0.856
0.0432854 0.303051 0.855
0.0439016 0.303051 0.855
0.0445178 0.303051 0.855
0.0451341 0.303051 0.855
0.0457503 0.303051 0.855
0.0463665 0.303051 0.855
0.0469827 0.303051 0.855
0.047599 0.303051 0.855
0.0482152 0.303051 0.855
0.0488314 0.303051 0.855
0.0494476 0.303051 0.855
0.0500639 0.303051 0.855
0.0506801 0.303051 0.855
0.0512963 0.303051 0.855
0.0519125 0.303051 0.855
0.0525288 0.303051 0.855
0.053145 0.303051 0.855
0.0537612 0.303051 0.855
0.0543138 0.302697 0.854
0.0549293 0.302697 0.854
0.0555448 0.302697 0.854
0.0560946 0.302342 0.853
0.0567094 0.302342 0.853
0.0573241 0.302342 0.853
0.0579389 0.302342 0.853
0.0585537 0.302342 0.853
0.0591685 0.302342 0.853
0.0597833 0.302342 0.853
0.0603981 0.302342 0.853
0.0610128 0.302342 0.853
0.0616276 0.302342 0.853
0.0622424 0.302342 0.853
0.0628572 0.302342 0.853
0.063472 0.302342 0.853
0.0640868 0.302342 0.853
0.0647774 0.302697 0.854
0.0653929 0.302697 0.854
0.0660084 0.302697 0.854
0.0666239 0.302697 0.854
0.0672394 0.302697 0.854
0.0678549 0.302697 0.854
0.0684704 0.302697 0.854
0.0690859 0.302697 0.854
0.0697014 0.302697 0.854
0.0703169 0.302697 0.854
0.0709324 0.302697 0.854
0.0715479 0.302697 0.854
0.0721634 0.302697 0.854
0.0727789 0.302697 0.854
0.0733944 0.302697 0.854
0.0740099 0.302697 0.854
0.0746254 0.302697 0.854
0.0752409 0.302697 0.854
0.0758564 0.302697 0.854
0.0764719 0.302697 0.854
0.0770874 0.302697 0.854
0.077703 0.302697 0.854
0.0783185 0.302697 0.854
0.078934 0.302697 0.854
0.0795495 0.302697 0.854
0.0802588 0.303051 0.855
0.0808751 0.303051 0.855
0.0814913 0.303051 0.855
0.0821075 0.303051 0.855
0.0827237 0.303051 0.855
0.08334 0.303051 0.855
0.0839562 0.303051 0.855
0.0845724 0.303051 0.855
0.0851886 0.303051 0.855
0.0858048 0.303051 0.855
0.0864211 0.303051 0.855
0.0870373 0.303051 0.855
0.087551 0.302697 0.854
0.0881665 0.302697 0.854
0.088782 0.302697 0.854
0.0892928 0.302342 0.853
0.0899076 0.302342 0.853
0.0905224 0.302342 0.853
0.0910303 0.301988 0.852
0.0915368 0.301633 0.851
0.0921502 0.301633 0.851
0.0926545 0.301279 0.85
0.0931574 0.300924 0.849
0.0937693 0.300924 0.849
0.0941589 0.300215 0.847
0.0946574 0.299861 0.846
0.0952672 0.299861 0.846
0.0957636 0.299507 0.845
0.0962586 0.299152 0.844
0.0968668 0.299152 0.844
0.0974751 0.299152 0.844
0.0980834 0.299152 0.844
0.0986917 0.299152 0.844
0.0994177 0.299507 0.845
0.100027 0.299507 0.845
0.100755 0.299861 0.846
0.101484 0.300215 0.847
0.102095 0.300215 0.847
0.102827 0.30057 0.848
0.10356 0.300924 0.849
0.104172 0.300924 0.849
0.104907 0.301279 0.85
0.105644 0.301633 0.851
-0.046198 0.312902 0.881
-0.045563 0.312902 0.881
-0.0449281 0.312902 0.881
-0.0443434 0.313257 0.882
-0.0437077 0.313257 0.882
-0.043072 0.313257 0.882
-0.0424363 0.313257 0.882
-0.0418007 0.313257 0.882
-0.041165 0.313257 0.882
-0.0405293 0.313257 0.882
-0.0398936 0.313257 0.882
-0.0392579 0.313257 0.882
-0.0386222 0.313257 0.882
-0.0379866 0.313257 0.882
-0.0373509 0.313257 0.882
-0.0366736 0.312902 0.881
-0.0359977 0.312547 0.88
-0.0353635 0.312547 0.88
-0.0346897 0.312192 0.879
-0.0340175 0.311836 0.878
-0.0333847 0.311836 0.878
-0.0327146 0.311481 0.877
-0.0320093 0.310771 0.875
-0.0313787 0.310771 0.875
-0.0307129 0.310416 0.874
-0.0300142 0.309705 0.872
-0.0293857 0.309705 0.872
-0.0287242 0.30935 0.871
-0.0280642 0.308995 0.87
-0.0274372 0.308995 0.87
-0.0267793 0.30864 0.869
-0.0261229 0.308285 0.868
-0.0254679 0.30793 0.867
-0.0248431 0.30793 0.867
-0.0241903 0.307574 0.866
-0.0235389 0.307219 0.865
-0.0229155 0.307219 0.865
-0.022292 0.307219 0.865
-0.0216436 0.306864 0.864
-0.0210208 0.306864 0.864
-0.0203981 0.306864 0.864
-0.0197525 0.306509 0.863
-0.0191306 0.306509 0.863
-0.0185086 0.306509 0.863
-0.0178866 0.306509 0.863
-0.0172646 0.306509 0.863
-0.0166426 0.306509 0.863
-0.016002 0.306154 0.862
-0.0153808 0.306154 0.862
-0.0147595 0.306154 0.862
-0.0141546 0.306509 0.863
-0.0135326 0.306509 0.863
-0.0128957 0.306154 0.862
-0.0122744 0.306154 0.862
-0.0116532 0.306154 0.862
-0.0110319 0.306154 0.862
-0.0104106 0.306154 0.862
-0.00977799 0.305799 0.861
-0.00915744 0.305799 0.861
-0.00853689 0.305799 0.861
-0.00791635 0.305799 0.861
-0.0072958 0.305799 0.861
-0.00667525 0.305799 0.861
-0.0060547 0.305799 0.861
-0.00543415 0.305799 0.861
-0.0048136 0.305799 0.861
-0.00419306 0.305799 0.861
-0.00357666 0.306154 0.862
-0.00295539 0.306154 0.862
-0.00233412 0.306154 0.862
-0.00171484 0.306509 0.863
-0.00109285 0.306509 0.863
-0.000470858 0.306509 0.863
0.000151307 0.306864 0.864
0.000774017 0.306864 0.864
0.00139673 0.306864 0.864
0.00202178 0.307219 0.865
0.00264521 0.307219 0.865
0.00326864 0.307219 0.865
0.00389657 0.307574 0.866
0.00452072 0.307574 0.866
0.00514487 0.307574 0.866
0.00576902 0.307574 0.866
0.00639318 0.307574 0.866
0.00701733 0.307574 0.866
0.00763266 0.307219 0.865
0.00824654 0.306864 0.864
0.00886925 0.306864 0.864
0.00949196 0.306864 0.864
0.0101147 0.306864 0.864
0.0107374 0.306864 0.864
0.0113469 0.306509 0.863
0.0119551 0.306154 0.862
0.0125763 0.306154 0.862
0.0131823 0.305799 0.861
0.0138028 0.305799 0.861
0.0144234 0.305799 0.861
0.0150439 0.305799 0.861
0.0156463 0.305443 0.86
0.0162661 0.305443 0.86
0.0168859 0.305443 0.86
0.0175058 0.305443 0.86
0.0181256 0.305443 0.86
0.0187454 0.305443 0.86
0.0193653 0.305443 0.86
0.0199851 0.305443 0.86
0.0206049 0.305443 0.86
0.0212247 0.305443 0.86
0.0218446 0.305443 0.86
0.0224644 0.305443 0.86
0.0230574 0.305088 0.859
0.0236765 0.305088 0.859
0.0242956 0.305088 0.859
0.0249147 0.305088 0.859
0.0255338 0.305088 0.859
0.0261529 0.305088 0.859
0.026772 0.305088 0.859
0.0273911 0.305088 0.859
0.0280102 0.305088 0.859
0.028596 0.304733 0.858
0.0292144 0.304733 0.858
0.0298328 0.304733 0.858
0.0304512 0.304733 0.858
0.0310696 0.304733 0.858
0.0316879 0.304733 0.858
0.0323063 0.304733 0.858
0.0329247 0.304733 0.858
0.033504 0.304378 0.857
0.0341217 0.304378 0.857
0.0347393 0.304378 0.857
0.035357 0.304378 0.857
0.0359747 0.304378 0.857
0.0365923 0.304378 0.857
0.03721 0.304378 0.857
0.0378277 0.304378 0.857
0.0384453 0.304378 0.857
0.039063 0.304378 0.857
0.0396807 0.304378 0.857
0.0402513 0.304023 0.856
0.0408682 0.304023 0.856
0.0414852 0.304023 0.856
0.0421021 0.304023 0.856
0.0427191 0.304023 0.856
0.043336 0.304023 0.856
0.043953 0.304023 0.856
0.0445699 0.304023 0.856
0.0451869 0.304023 0.856
0.0458038 0.304023 0.856
0.0464208 0.304023 0.856
0.0470377 0.304023 0.856
0.0476546 0.304023 0.856
0.0482716 0.304023 0.856
0.0488885 0.304023 0.856
0.0495055 0.304023 0.856
0.0501224 0.304023 0.856
0.0507394 0.304023 0.856
0.0513563 0.304023 0.856
0.0519125 0.303668 0.855
0.0525288 0.303668 0.855
0.053145 0.303668 0.855
0.0537612 0.303668 0.855
0.0543138 0.303312 0.854
0.0549293 0.303312 0.854
0.0555448 0.303312 0.854
0.0560946 0.302957 0.853
0.0567094 0.302957 0.853
0.0573241 0.302957 0.853
0.0579389 0.302957 0.853
0.0585537 0.302957 0.853
0.0591685 0.302957 0.853
0.0597833 0.302957 0.853
0.0603981 0.302957 0.853
0.0610128 0.302957 0.853
0.0616276 0.302957 0.853
0.0622424 0.302957 0.853
0.0628572 0.302957 0.853
0.0635464 0.303312 0.854
0.0641619 0.303312 0.854
0.0647774 0.303312 0.854
0.0653929 0.303312 0.854
0.0660084 0.303312 0.854
0.0667019 0.303668 0.855
0.0673181 0.303668 0.855
0.0679344 0.303668 0.855
0.0685506 0.303668 0.855
0.0691668 0.303668 0.855
0.069783 0.303668 0.855
0.0703993 0.303668 0.855
0.0710155 0.303668 0.855
0.0716317 0.303668 0.855
0.0721634 0.303312 0.854
0.0727789 0.303312 0.854
0.0733944 0.303312 0.854
0.0740099 0.303312 0.854
0.0746254 0.303312 0.854
0.0752409 0.303312 0.854
0.0758564 0.303312 0.854
0.0764719 0.303312 0.854
0.0771777 0.303668 0.855
0.077703 0.303312 0.854
0.0783185 0.303312 0.854
0.0790264 0.303668 0.855
0.0796426 0.303668 0.855
0.0802588 0.303668 0.855
0.0808751 0.303668 0.855
0.0814913 0.303668 0.855
0.0821075 0.303668 0.855
0.0828205 0.304023 0.856
0.0834374 0.304023 0.856
0.0839562 0.303668 0.855
0.0845724 0.303668 0.855
0.0851886 0.303668 0.855
0.0858048 0.303668 0.855
0.0864211 0.303668 0.855
0.0870373 0.303668 0.855
0.087551 0.303312 0.854
0.0881665 0.303312 0.854
0.088782 0.303312 0.854
0.0893975 0.303312 0.854
0.0899076 0.302957 0.853
0.0905224 0.302957 0.853
0.0910303 0.302602 0.852
0.0915368 0.302247 0.851
0.0921502 0.302247 0.851
0.0926545 0.301892 0.85
0.0931574 0.301537 0.849
0.0937693 0.301537 0.849
0.0941589 0.300826 0.847
0.0946574 0.300471 0.846
0.0952672 0.300471 0.846
0.0957636 0.300116 0.845
0.0962586 0.299761 0.844
0.0968668 0.299761 0.844
0.0974751 0.299761 0.844
0.0980834 0.299761 0.844
0.0986917 0.299761 0.844
0.0994177 0.300116 0.845
0.100027 0.300116 0.845
0.100755 0.300471 0.846
0.101484 0.300826 0.847
0.102095 0.300826 0.847
0.102948 0.301537 0.849
0.10356 0.301537 0.849
0.104172 0.301537 0.849
0.104907 0.301892 0.85
0.105644 0.302247 0.851
-0.046833 0.313537 0.881
-0.0461456 0.313181 0.88
-0.0455113 0.313181 0.88
-0.0448771 0.313181 0.88
-0.0442931 0.313537 0.881
-0.0436582 0.313537 0.881
-0.0430232 0.313537 0.881
-0.0423882 0.313537 0.881
-0.0417533 0.313537 0.881
-0.0411183 0.313537 0.881
-0.0404833 0.313537 0.881
-0.0398484 0.313537 0.881
-0.0392579 0.313893 0.882
-0.0386222 0.313893 0.882
-0.0379435 0.313537 0.881
-0.0373085 0.313537 0.881
-0.0366736 0.313537 0.881
-0.0359977 0.313181 0.88
-0.0353635 0.313181 0.88
-0.0346897 0.312826 0.879
-0.0340175 0.31247 0.878
-0.0333847 0.31247 0.878
-0.0327146 0.312114 0.877
-0.0320459 0.311758 0.876
-0.0314145 0.311758 0.876
-0.0307129 0.311046 0.874
-0.0300486 0.31069 0.873
-0.0294194 0.31069 0.873
-0.0287572 0.310334 0.872
-0.0280965 0.309978 0.871
-0.0274372 0.309623 0.87
-0.0268101 0.309623 0.87
-0.026153 0.309267 0.869
-0.0254973 0.308911 0.868
-0.0248717 0.308911 0.868
-0.0242461 0.308911 0.868
-0.0235661 0.308199 0.866
-0.022942 0.308199 0.866
-0.0223178 0.308199 0.866
-0.0216686 0.307843 0.865
-0.0210452 0.307843 0.865
-0.0204217 0.307843 0.865
-0.0197754 0.307487 0.864
-0.0191527 0.307487 0.864
-0.01853 0.307487 0.864
-0.0179073 0.307487 0.864
-0.0172846 0.307487 0.864
-0.0166619 0.307487 0.864
-0.0160392 0.307487 0.864
-0.0154165 0.307487 0.864
-0.0147937 0.307487 0.864
-0.014171 0.307487 0.864
-0.0135326 0.307131 0.863
-0.0129107 0.307131 0.863
-0.0122887 0.307131 0.863
-0.0116667 0.307131 0.863
-0.0110447 0.307131 0.863
-0.0104227 0.307131 0.863
-0.0098007 0.307131 0.863
-0.00917871 0.307131 0.863
-0.00854681 0.306775 0.862
-0.00792554 0.306775 0.862
-0.00730427 0.306775 0.862
-0.006683 0.306775 0.862
-0.00606877 0.307131 0.863
-0.00544678 0.307131 0.863
-0.00482479 0.307131 0.863
-0.0042028 0.307131 0.863
-0.00358081 0.307131 0.863
-0.00296225 0.307487 0.864
-0.00233953 0.307487 0.864
-0.00171682 0.307487 0.864
-0.00109411 0.307487 0.864
-0.000471404 0.307487 0.864
0.000151482 0.307843 0.865
0.000774913 0.307843 0.865
0.00139834 0.307843 0.865
0.00202411 0.308199 0.866
0.00264826 0.308199 0.866
0.00327242 0.308199 0.866
0.00389657 0.308199 0.866
0.00452594 0.308555 0.867
0.00514487 0.308199 0.866
0.00576902 0.308199 0.866
0.00639318 0.308199 0.866
0.00701733 0.308199 0.866
0.00763266 0.307843 0.865
0.00824654 0.307487 0.864
0.00886925 0.307487 0.864
0.00949196 0.307487 0.864
0.0101147 0.307487 0.864
0.0107374 0.307487 0.864
0.0113469 0.307131 0.863
0.0119551 0.306775 0.862
0.0125763 0.306775 0.862
0.0131976 0.306775 0.862
0.0138028 0.30642 0.861
0.0144234 0.30642 0.861
0.0150439 0.30642 0.861
0.0156645 0.30642 0.861
0.016285 0.30642 0.861
0.0168859 0.306064 0.86
0.0175058 0.306064 0.86
0.0181256 0.306064 0.86
0.0187454 0.306064 0.86
0.0193653 0.306064 0.86
0.0199851 0.306064 0.86
0.0206049 0.306064 0.86
0.0212247 0.306064 0.86
0.0218446 0.306064 0.86
0.0224644 0.306064 0.86
0.0230842 0.306064 0.86
0.0237041 0.306064 0.86
0.0243239 0.306064 0.86
0.0249437 0.306064 0.86
0.0255338 0.305708 0.859
0.0261529 0.305708 0.859
0.026772 0.305708 0.859
0.0273911 0.305708 0.859
0.0280102 0.305708 0.859
0.0286293 0.305708 0.859
0.0292484 0.305708 0.859
0.0298676 0.305708 0.859
0.0304867 0.305708 0.859
0.0310696 0.305352 0.858
0.0316879 0.305352 0.858
0.0323063 0.305352 0.858
0.0329247 0.305352 0.858
0.033504 0.304996 0.857
0.0341217 0.304996 0.857
0.0347393 0.304996 0.857
0.035357 0.304996 0.857
0.0359747 0.304996 0.857
0.0365923 0.304996 0.857
0.03721 0.304996 0.857
0.0378277 0.304996 0.857
0.0384453 0.304996 0.857
0.039063 0.304996 0.857
0.0396807 0.304996 0.857
0.0402983 0.304996 0.857
0.040916 0.304996 0.857
0.0415337 0.304996 0.857
0.0421513 0.304996 0.857
0.042769 0.304996 0.857
0.0433867 0.304996 0.857
0.0440043 0.304996 0.857
0.0445699 0.30464 0.856
0.0451869 0.30464 0.856
0.0458038 0.30464 0.856
0.0464208 0.30464 0.856
0.0470377 0.30464 0.856
0.0476546 0.30464 0.856
0.0482716 0.30464 0.856
0.0488885 0.30464 0.856
0.0495055 0.30464 0.856
0.0501224 0.30464 0.856
0.0507394 0.30464 0.856
0.0513563 0.30464 0.856
0.0519733 0.30464 0.856
0.0525902 0.30464 0.856
0.053145 0.304284 0.855
0.0537612 0.304284 0.855
0.0543774 0.304284 0.855
0.0549293 0.303928 0.854
0.0555448 0.303928 0.854
0.0561603 0.303928 0.854
0.0567094 0.303572 0.853
0.0573241 0.303572 0.853
0.0579389 0.303572 0.853
0.0585537 0.303572 0.853
0.0591685 0.303572 0.853
0.0597833 0.303572 0.853
0.0603981 0.303572 0.853
0.0610128 0.303572 0.853
0.0616276 0.303572 0.853
0.0622424 0.303572 0.853
0.0629309 0.303928 0.854
0.0635464 0.303928 0.854
0.0641619 0.303928 0.854
0.0647774 0.303928 0.854
0.0654695 0.304284 0.855
0.0660857 0.304284 0.855
0.0667019 0.304284 0.855
0.0673181 0.304284 0.855
0.0679344 0.304284 0.855
0.0686308 0.30464 0.856
0.0692477 0.30464 0.856
0.0698647 0.30464 0.856
0.0704816 0.30464 0.856
0.0710985 0.30464 0.856
0.0717155 0.30464 0.856
0.0722479 0.304284 0.855
0.0728641 0.304284 0.855
0.0734804 0.304284 0.855
0.0740966 0.304284 0.855
0.0747128 0.304284 0.855
0.075329 0.304284 0.855
0.0759453 0.304284 0.855
0.0765615 0.304284 0.855
0.0771777 0.304284 0.855
0.0777939 0.304284 0.855
0.0784102 0.304284 0.855
0.0790264 0.304284 0.855
0.0796426 0.304284 0.855
0.0802588 0.304284 0.855
0.0808751 0.304284 0.855
0.0814913 0.304284 0.855
0.0821075 0.304284 0.855
0.0828205 0.30464 0.856
0.0834374 0.30464 0.856
0.0839562 0.304284 0.855
0.0845724 0.304284 0.855
0.0851886 0.304284 0.855
0.0858048 0.304284 0.855
0.0864211 0.304284 0.855
0.0870373 0.304284 0.855
0.087551 0.303928 0.854
0.0881665 0.303928 0.854
0.088782 0.303928 0.854
0.0893975 0.303928 0.854
0.0899076 0.303572 0.853
0.0905224 0.303572 0.853
0.0911372 0.303572 0.853
0.0916444 0.303217 0.852
0.0922585 0.303217 0.852
0.0927635 0.302861 0.851
0.0931574 0.302149 0.849
0.0937693 0.302149 0.849
0.0941589 0.301437 0.847
0.0946574 0.301081 0.846
0.0952672 0.301081 0.846
0.0957636 0.300725 0.845
0.0962586 0.300369 0.844
0.0968668 0.300369 0.844
0.0974751 0.300369 0.844
0.0980834 0.300369 0.844
0.0986917 0.300369 0.844
0.0994177 0.300725 0.845
0.100027 0.300725 0.845
0.100755 0.301081 0.846
0.101484 0.301437 0.847
0.102095 0.301437 0.847
0.102948 0.302149 0.849
0.10356 0.302149 0.849
0.104172 0.302149 0.849
0.104907 0.302505 0.85
0.105644 0.302861 0.851
-0.0467798 0.313816 0.88
-0.0461456 0.313816 0.88
-0.0455113 0.313816 0.88
-0.0448771 0.313816 0.88
-0.0442428 0.313816 0.88
-0.0436086 0.313816 0.88
-0.0429744 0.313816 0.88
-0.0423401 0.313816 0.88
-0.0417059 0.313816 0.88
-0.0411183 0.314173 0.881
-0.0404833 0.314173 0.881
-0.0398484 0.314173 0.881
-0.0392134 0.314173 0.881
-0.0385785 0.314173 0.881
-0.0379435 0.314173 0.881
-0.0373085 0.314173 0.881
-0.0366319 0.313816 0.88
-0.0359977 0.313816 0.88
-0.0353635 0.313816 0.88
-0.0347292 0.313816 0.88
-0.0340175 0.313103 0.878
-0.0333847 0.313103 0.878
-0.0327519 0.313103 0.878
-0.0320459 0.31239 0.876
-0.0314145 0.31239 0.876
-0.0307481 0.312033 0.875
-0.030083 0.311676 0.874
-0.0294194 0.31132 0.873
-0.0287572 0.310963 0.872
-0.0281287 0.310963 0.872
-0.0274687 0.310607 0.871
-0.026841 0.310607 0.871
-0.0261831 0.31025 0.87
-0.0255267 0.309893 0.869
-0.0249004 0.309893 0.869
-0.0242461 0.309537 0.868
-0.0236205 0.309537 0.868
-0.0229949 0.309537 0.868
-0.0223436 0.30918 0.867
-0.0217187 0.30918 0.867
-0.0210938 0.30918 0.867
-0.0204454 0.308824 0.866
-0.0197983 0.308467 0.865
-0.0191749 0.308467 0.865
-0.0185515 0.308467 0.865
-0.017928 0.308467 0.865
-0.0173046 0.308467 0.865
-0.0166619 0.30811 0.864
-0.0160392 0.30811 0.864
-0.0154343 0.308467 0.865
-0.0147937 0.30811 0.864
-0.014171 0.30811 0.864
-0.0135483 0.30811 0.864
-0.0129256 0.30811 0.864
-0.0123029 0.30811 0.864
-0.0116802 0.30811 0.864
-0.0110575 0.30811 0.864
-0.0104348 0.30811 0.864
-0.00981206 0.30811 0.864
-0.00918935 0.30811 0.864
-0.00856664 0.30811 0.864
-0.00794393 0.30811 0.864
-0.00732122 0.30811 0.864
-0.00669851 0.30811 0.864
-0.0060758 0.30811 0.864
-0.00545309 0.30811 0.864
-0.00483038 0.30811 0.864
-0.00420767 0.30811 0.864
-0.00358496 0.30811 0.864
-0.00296567 0.308467 0.865
-0.00234224 0.308467 0.865
-0.0017208 0.308824 0.866
-0.00109665 0.308824 0.866
-0.000472495 0.308824 0.866
0.000151657 0.308824 0.866
0.000775809 0.308824 0.866
0.00139996 0.308824 0.866
0.00202645 0.30918 0.867
0.00265132 0.30918 0.867
0.0032762 0.30918 0.867
0.00390107 0.30918 0.867
0.00452594 0.30918 0.867
0.00514487 0.308824 0.866
0.00576902 0.308824 0.866
0.00639318 0.308824 0.866
0.00701733 0.308824 0.866
0.00763266 0.308467 0.865
0.00825609 0.308467 0.865
0.00887952 0.308467 0.865
0.00949196 0.30811 0.864
0.0101147 0.30811 0.864
0.0107374 0.30811 0.864
0.0113469 0.307754 0.863
0.0119689 0.307754 0.863
0.0125909 0.307754 0.863
0.0131976 0.307397 0.862
0.0138189 0.307397 0.862
0.0144401 0.307397 0.862
0.0150439 0.307041 0.861
0.0156645 0.307041 0.861
0.016285 0.307041 0.861
0.0169056 0.307041 0.861
0.0175261 0.307041 0.861
0.0181467 0.307041 0.861
0.0187672 0.307041 0.861
0.0193878 0.307041 0.861
0.0200083 0.307041 0.861
0.0206289 0.307041 0.861
0.0212494 0.307041 0.861
0.02187 0.307041 0.861
0.0224905 0.307041 0.861
0.0230842 0.306684 0.86
0.0237041 0.306684 0.86
0.0243239 0.306684 0.86
0.0249437 0.306684 0.86
0.0255635 0.306684 0.86
0.0261834 0.306684 0.86
0.0268032 0.306684 0.86
0.0273911 0.306327 0.859
0.0280102 0.306327 0.859
0.0286293 0.306327 0.859
0.0292484 0.306327 0.859
0.0298676 0.306327 0.859
0.0304867 0.306327 0.859
0.0311058 0.306327 0.859
0.0316879 0.305971 0.858
0.0323063 0.305971 0.858
0.0329247 0.305971 0.858
0.0335431 0.305971 0.858
0.0341615 0.305971 0.858
0.0347799 0.305971 0.858
0.035357 0.305614 0.857
0.0359747 0.305614 0.857
0.0365923 0.305614 0.857
0.03721 0.305614 0.857
0.0378277 0.305614 0.857
0.0384453 0.305614 0.857
0.039063 0.305614 0.857
0.0396807 0.305614 0.857
0.0402983 0.305614 0.857
0.040916 0.305614 0.857
0.0415337 0.305614 0.857
0.0421513 0.305614 0.857
0.042769 0.305614 0.857
0.0433867 0.305614 0.857
0.0440043 0.305614 0.857
0.0445699 0.305257 0.856
0.0451869 0.305257 0.856
0.0458038 0.305257 0.856
0.0464208 0.305257 0.856
0.0470377 0.305257 0.856
0.0476546 0.305257 0.856
0.0482716 0.305257 0.856
0.0488885 0.305257 0.856
0.0495055 0.305257 0.856
0.0501224 0.305257 0.856
0.0507394 0.305257 0.856
0.0513563 0.305257 0.856
0.0519733 0.305257 0.856
0.0525902 0.305257 0.856
0.053145 0.304901 0.855
0.0537612 0.304901 0.855
0.0543774 0.304901 0.855
0.0549293 0.304544 0.854
0.0555448 0.304544 0.854
0.0561603 0.304544 0.854
0.0567094 0.304188 0.853
0.0573241 0.304188 0.853
0.0579389 0.304188 0.853
0.0585537 0.304188 0.853
0.0591685 0.304188 0.853
0.0597833 0.304188 0.853
0.0603981 0.304188 0.853
0.0610128 0.304188 0.853
0.0616276 0.304188 0.853
0.0622424 0.304188 0.853
0.0629309 0.304544 0.854
0.0635464 0.304544 0.854
0.0641619 0.304544 0.854
0.0647774 0.304544 0.854
0.0654695 0.304901 0.855
0.0660857 0.304901 0.855
0.0667019 0.304901 0.855
0.0673181 0.304901 0.855
0.0679344 0.304901 0.855
0.0686308 0.305257 0.856
0.0692477 0.305257 0.856
0.0698647 0.305257 0.856
0.0704816 0.305257 0.856
0.0710985 0.305257 0.856
0.0717155 0.305257 0.856
0.0722479 0.304901 0.855
0.0728641 0.304901 0.855
0.0734804 0.304901 0.855
0.0740966 0.304901 0.855
0.0747128 0.304901 0.855
0.075329 0.304901 0.855
0.0759453 0.304901 0.855
0.0765615 0.304901 0.855
0.0771777 0.304901 0.855
0.0777939 0.304901 0.855
0.0784102 0.304901 0.855
0.0790264 0.304901 0.855
0.0796426 0.304901 0.855
0.0802588 0.304901 0.855
0.0808751 0.304901 0.855
0.0814913 0.304901 0.855
0.0821075 0.304901 0.855
0.0828205 0.305257 0.856
0.0834374 0.305257 0.856
0.0839562 0.304901 0.855
0.0845724 0.304901 0.855
0.0851886 0.304901 0.855
0.0858048 0.304901 0.855
0.0864211 0.304901 0.855
0.0870373 0.304901 0.855
0.087551 0.304544 0.854
0.0881665 0.304544 0.854
0.088782 0.304544 0.854
0.0893975 0.304544 0.854
0.0899076 0.304188 0.853
0.0905224 0.304188 0.853
0.0911372 0.304188 0.853
0.0916444 0.303831 0.852
0.0922585 0.303831 0.852
0.0927635 0.303474 0.851
0.0931574 0.302761 0.849
0.0937693 0.302761 0.849
0.0941589 0.302048 0.847
0.0947693 0.302048 0.847
0.0953798 0.302048 0.847
0.0958769 0.301691 0.846
0.0963726 0.301335 0.845
0.0969816 0.301335 0.845
0.0975906 0.301335 0.845
0.0981997 0.301335 0.845
0.0988087 0.301335 0.845
0.0995353 0.301691 0.846
0.100145 0.301691 0.846
0.100874 0.302048 0.847
0.101604 0.302405 0.848
0.102215 0.302405 0.848
0.102948 0.302761 0.849
0.103682 0.303118 0.85
0.104294 0.303118 0.85
0.104907 0.303118 0.85
0.105768 0.303831 0.852
-0.0467798 0.314451 0.88
-0.0461456 0.314451 0.88
-0.0455113 0.314451 0.88
-0.0448771 0.314451 0.88
-0.0442428 0.314451 0.88
-0.0436086 0.314451 0.88
-0.0429744 0.314451 0.88
-0.0423401 0.314451 0.88
-0.0417059 0.314451 0.88
-0.0411183 0.314808 0.881
-0.0404833 0.314808 0.881
-0.0398484 0.314808 0.881
-0.0392134 0.314808 0.881
-0.0385785 0.314808 0.881
-0.0379435 0.314808 0.881
-0.0373085 0.314808 0.881
-0.0366319 0.314451 0.88
-0.0359977 0.314451 0.88
-0.0353635 0.314451 0.88
-0.0347292 0.314451 0.88
-0.0340562 0.314093 0.879
-0.0334227 0.314093 0.879
-0.0327519 0.313736 0.878
-0.0320825 0.313379 0.877
-0.0314145 0.313021 0.876
-0.0307832 0.313021 0.876
-0.030083 0.312307 0.874
-0.0294194 0.311949 0.873
-0.0287902 0.311949 0.873
-0.0281287 0.311592 0.872
-0.0275002 0.311592 0.872
-0.0268718 0.311592 0.872
-0.0261831 0.310877 0.87
-0.0255267 0.31052 0.869
-0.0249004 0.31052 0.869
-0.0242461 0.310163 0.868
-0.0236205 0.310163 0.868
-0.0229949 0.310163 0.868
-0.0223436 0.309805 0.867
-0.0217187 0.309805 0.867
-0.0210938 0.309805 0.867
-0.0204454 0.309448 0.866
-0.0197983 0.309091 0.865
-0.0191749 0.309091 0.865
-0.0185515 0.309091 0.865
-0.017928 0.309091 0.865
-0.0173046 0.309091 0.865
-0.0166619 0.308733 0.864
-0.0160392 0.308733 0.864
-0.0154343 0.309091 0.865
-0.0147937 0.308733 0.864
-0.014171 0.308733 0.864
-0.0135483 0.308733 0.864
-0.0129256 0.308733 0.864
-0.0123029 0.308733 0.864
-0.0116802 0.308733 0.864
-0.0110575 0.308733 0.864
-0.0104348 0.308733 0.864
-0.00981206 0.308733 0.864
-0.00918935 0.308733 0.864
-0.00856664 0.308733 0.864
-0.00794393 0.308733 0.864
-0.00732122 0.308733 0.864
-0.00669851 0.308733 0.864
-0.0060758 0.308733 0.864
-0.00545309 0.308733 0.864
-0.00483038 0.308733 0.864
-0.00420767 0.308733 0.864
-0.00358496 0.308733 0.864
-0.00296567 0.309091 0.865
-0.00234224 0.309091 0.865
-0.0017208 0.309448 0.866
-0.00109665 0.309448 0.866
-0.000472495 0.309448 0.866
0.000151657 0.309448 0.866
0.000775809 0.309448 0.866
0.00139996 0.309448 0.866
0.00202645 0.309805 0.867
0.00265132 0.309805 0.867
0.0032762 0.309805 0.867
0.00390107 0.309805 0.867
0.00452594 0.309805 0.867
0.00514487 0.309448 0.866
0.00576902 0.309448 0.866
0.00639318 0.309448 0.866
0.00701733 0.309448 0.866
0.00763266 0.309091 0.865
0.00825609 0.309091 0.865
0.00887952 0.309091 0.865
0.00949196 0.308733 0.864
0.0101147 0.308733 0.864
0.0107374 0.308733 0.864
0.0113469 0.308376 0.863
0.0119689 0.308376 0.863
0.0125909 0.308376 0.863
0.0131976 0.308019 0.862
0.0138189 0.308019 0.862
0.0144401 0.308019 0.862
0.0150439 0.307661 0.861
0.0156645 0.307661 0.861
0.016285 0.307661 0.861
0.0169056 0.307661 0.861
0.0175261 0.307661 0.861
0.0181467 0.307661 0.861
0.0187672 0.307661 0.861
0.0193878 0.307661 0.861
0.0200083 0.307661 0.861
0.0206289 0.307661 0.861
0.0212494 0.307661 0.861
0.02187 0.307661 0.861
0.0224905 0.307661 0.861
0.0230842 0.307304 0.86
0.0237041 0.307304 0.86
0.0243239 0.307304 0.86
0.0249437 0.307304 0.86
0.0255635 0.307304 0.86
0.0261834 0.307304 0.86
0.0268032 0.307304 0.86
0.0273911 0.306947 0.859
0.0280102 0.306947 0.859
0.0286293 0.306947 0.859
0.0292484 0.306947 0.859
0.0298676 0.306947 0.859
0.0304867 0.306947 0.859
0.0310696 0.306589 0.858
0.0316879 0.306589 0.858
0.0323063 0.306589 0.858
0.0329247 0.306589 0.858
0.0335431 0.306589 0.858
0.0341615 0.306589 0.858
0.0347799 0.306589 0.858
0.035357 0.306232 0.857
0.0359747 0.306232 0.857
0.0365923 0.306232 0.857
0.03721 0.306232 0.857
0.0378277 0.306232 0.857
0.0384453 0.306232 0.857
0.039063 0.306232 0.857
0.039727 0.306589 0.858
0.0403454 0.306589 0.858
0.040916 0.306232 0.857
0.0415337 0.306232 0.857
0.0421513 0.306232 0.857
0.042769 0.306232 0.857
0.0433867 0.306232 0.857
0.0440043 0.306232 0.857
0.044622 0.306232 0.857
0.0452396 0.306232 0.857
0.0458573 0.306232 0.857
0.046475 0.306232 0.857
0.0470926 0.306232 0.857
0.0477103 0.306232 0.857
0.048328 0.306232 0.857
0.0489456 0.306232 0.857
0.0495633 0.306232 0.857
0.050181 0.306232 0.857
0.0507394 0.305875 0.856
0.0513563 0.305875 0.856
0.0519733 0.305875 0.856
0.0525902 0.305875 0.856
0.053145 0.305517 0.855
0.0537612 0.305517 0.855
0.0543774 0.305517 0.855
0.0549293 0.30516 0.854
0.0555448 0.30516 0.854
0.0561603 0.30516 0.854
0.0567758 0.30516 0.854
0.0573914 0.30516 0.854
0.0579389 0.304803 0.853
0.0585537 0.304803 0.853
0.0591685 0.304803 0.853
0.0597833 0.304803 0.853
0.0603981 0.304803 0.853
0.0610128 0.304803 0.853
0.0616276 0.304803 0.853
0.0623154 0.30516 0.854
0.0629309 0.30516 0.854
0.0636208 0.305517 0.855
0.064237 0.305517 0.855
0.0648532 0.305517 0.855
0.0654695 0.305517 0.855
0.0660857 0.305517 0.855
0.0667799 0.305875 0.856
0.0673969 0.305875 0.856
0.0680138 0.305875 0.856
0.0686308 0.305875 0.856
0.0692477 0.305875 0.856
0.0698647 0.305875 0.856
0.0704816 0.305875 0.856
0.0710985 0.305875 0.856
0.0717155 0.305875 0.856
0.0723324 0.305875 0.856
0.0729494 0.305875 0.856
0.0735663 0.305875 0.856
0.0740966 0.305517 0.855
0.0747128 0.305517 0.855
0.075329 0.305517 0.855
0.0759453 0.305517 0.855
0.0765615 0.305517 0.855
0.0771777 0.305517 0.855
0.0777939 0.305517 0.855
0.0784102 0.305517 0.855
0.0790264 0.305517 0.855
0.0796426 0.305517 0.855
0.0802588 0.305517 0.855
0.0808751 0.305517 0.855
0.0814913 0.305517 0.855
0.0822035 0.305875 0.856
0.0828205 0.305875 0.856
0.0834374 0.305875 0.856
0.0840544 0.305875 0.856
0.0845724 0.305517 0.855
0.0851886 0.305517 0.855
0.0858048 0.305517 0.855
0.0864211 0.305517 0.855
0.0870373 0.305517 0.855
0.0876535 0.305517 0.855
0.0881665 0.30516 0.854
0.088782 0.30516 0.854
0.0893975 0.30516 0.854
0.0899076 0.304803 0.853
0.0905224 0.304803 0.853
0.0911372 0.304803 0.853
0.0916444 0.304446 0.852
0.0922585 0.304446 0.852
0.0927635 0.304088 0.851
0.0932671 0.303731 0.85
0.0938797 0.303731 0.85
0.0943812 0.303374 0.849
0.0947693 0.302659 0.847
0.0953798 0.302659 0.847
0.0959902 0.302659 0.847
0.0964867 0.302301 0.846
0.0970964 0.302301 0.846
0.0977061 0.302301 0.846
0.0983159 0.302301 0.846
0.0989256 0.302301 0.846
0.0995353 0.302301 0.846
0.100145 0.302301 0.846
0.100874 0.302659 0.847
0.101724 0.303374 0.849
0.102336 0.303374 0.849
0.103069 0.303731 0.85
0.103804 0.304088 0.851
0.104417 0.304088 0.851
0.10503 0.304088 0.851
0.105892 0.304803 0.853
-0.0467267 0.314727 0.879
-0.0460931 0.314727 0.879
-0.0454596 0.314727 0.879
-0.0448261 0.314727 0.879
-0.0441926 0.314727 0.879
-0.043559 0.314727 0.879
-0.0429255 0.314727 0.879
-0.042292 0.314727 0.879
-0.0416585 0.314727 0.879
-0.041025 0.314727 0.879
-0.0403914 0.314727 0.879
-0.0397579 0.314727 0.879
-0.0391689 0.315085 0.88
-0.0385347 0.315085 0.88
-0.0379004 0.315085 0.88
-0.0372662 0.315085 0.88
-0.0366319 0.315085 0.88
-0.0359977 0.315085 0.88
-0.0353635 0.315085 0.88
-0.0346897 0.314727 0.879
-0.0340562 0.314727 0.879
-0.0334227 0.314727 0.879
-0.0327519 0.314369 0.878
-0.0320825 0.314011 0.877
-0.0314145 0.313653 0.876
-0.0307832 0.313653 0.876
-0.030083 0.312937 0.874
-0.0294194 0.312579 0.873
-0.0287902 0.312579 0.873
-0.0281287 0.312221 0.872
-0.0275002 0.312221 0.872
-0.0268718 0.312221 0.872
-0.0261831 0.311505 0.87
-0.0255561 0.311505 0.87
-0.024929 0.311505 0.87
-0.0242741 0.311147 0.869
-0.0236478 0.311147 0.869
-0.0230214 0.311147 0.869
-0.0223694 0.310789 0.868
-0.0217438 0.310789 0.868
-0.0211182 0.310789 0.868
-0.020469 0.310431 0.867
-0.0198441 0.310431 0.867
-0.0192192 0.310431 0.867
-0.0185729 0.310073 0.866
-0.0179487 0.310073 0.866
-0.0173246 0.310073 0.866
-0.0167004 0.310073 0.866
-0.0160577 0.309715 0.865
-0.0154343 0.309715 0.865
-0.0148109 0.309715 0.865
-0.0141874 0.309715 0.865
-0.013564 0.309715 0.865
-0.0129406 0.309715 0.865
-0.0123171 0.309715 0.865
-0.0116937 0.309715 0.865
-0.0110703 0.309715 0.865
-0.0104348 0.309357 0.864
-0.00981206 0.309357 0.864
-0.00918935 0.309357 0.864
-0.00856664 0.309357 0.864
-0.00794393 0.309357 0.864
-0.00732122 0.309357 0.864
-0.00669851 0.309357 0.864
-0.00608283 0.309715 0.865
-0.0054594 0.309715 0.865
-0.00483597 0.309715 0.865
-0.00421741 0.310073 0.866
-0.00359325 0.310073 0.866
-0.0029691 0.310073 0.866
-0.00234495 0.310073 0.866
-0.0017208 0.310073 0.866
-0.00109791 0.310431 0.867
-0.000473041 0.310431 0.867
0.000151832 0.310431 0.867
0.000776705 0.310431 0.867
0.00140158 0.310431 0.867
0.00202645 0.310431 0.867
0.00265132 0.310431 0.867
0.0032762 0.310431 0.867
0.00390107 0.310431 0.867
0.00452594 0.310431 0.867
0.00515081 0.310431 0.867
0.00576902 0.310073 0.866
0.00639318 0.310073 0.866
0.00701733 0.310073 0.866
0.00763266 0.309715 0.865
0.00825609 0.309715 0.865
0.00887952 0.309715 0.865
0.00949196 0.309357 0.864
0.0101147 0.309357 0.864
0.0107374 0.309357 0.864
0.0113469 0.308999 0.863
0.0119689 0.308999 0.863
0.0125909 0.308999 0.863
0.0131976 0.30864 0.862
0.0138189 0.30864 0.862
0.0144401 0.30864 0.862
0.0150614 0.30864 0.862
0.0156827 0.30864 0.862
0.016304 0.30864 0.862
0.0169252 0.30864 0.862
0.0175465 0.30864 0.862
0.0181678 0.30864 0.862
0.018789 0.30864 0.862
0.0194103 0.30864 0.862
0.0200316 0.30864 0.862
0.0206528 0.30864 0.862
0.0212741 0.30864 0.862
0.02187 0.308282 0.861
0.0224905 0.308282 0.861
0.0231111 0.308282 0.861
0.0237041 0.307924 0.86
0.0243239 0.307924 0.86
0.0249437 0.307924 0.86
0.0255635 0.307924 0.86
0.0261834 0.307924 0.86
0.0268032 0.307924 0.86
0.0273911 0.307566 0.859
0.0280102 0.307566 0.859
0.0286293 0.307566 0.859
0.0292484 0.307566 0.859
0.0298676 0.307566 0.859
0.0304867 0.307566 0.859
0.0310696 0.307208 0.858
0.0316879 0.307208 0.858
0.0323063 0.307208 0.858
0.0329247 0.307208 0.858
0.0335431 0.307208 0.858
0.0341615 0.307208 0.858
0.0347799 0.307208 0.858
0.035357 0.30685 0.857
0.0359747 0.30685 0.857
0.0365923 0.30685 0.857
0.03721 0.30685 0.857
0.0378277 0.30685 0.857
0.0384453 0.30685 0.857
0.0391086 0.307208 0.858
0.039727 0.307208 0.858
0.0403454 0.307208 0.858
0.0409637 0.307208 0.858
0.0415821 0.307208 0.858
0.0422005 0.307208 0.858
0.0428189 0.307208 0.858
0.0434373 0.307208 0.858
0.0440557 0.307208 0.858
0.0446741 0.307208 0.858
0.0452924 0.307208 0.858
0.0459108 0.307208 0.858
0.0465292 0.307208 0.858
0.0471476 0.307208 0.858
0.047766 0.307208 0.858
0.048328 0.30685 0.857
0.0489456 0.30685 0.857
0.0495633 0.30685 0.857
0.050181 0.30685 0.857
0.0507394 0.306492 0.856
0.0513563 0.306492 0.856
0.0519733 0.306492 0.856
0.0525902 0.306492 0.856
0.0532071 0.306492 0.856
0.0538241 0.306492 0.856
0.0543774 0.306134 0.855
0.0549937 0.306134 0.855
0.0556099 0.306134 0.855
0.0561603 0.305776 0.854
0.0567758 0.305776 0.854
0.0573914 0.305776 0.854
0.0579389 0.305418 0.853
0.0585537 0.305418 0.853
0.0591685 0.305418 0.853
0.0597833 0.305418 0.853
0.0604689 0.305776 0.854
0.0610844 0.305776 0.854
0.0616999 0.305776 0.854
0.0623154 0.305776 0.854
0.0629309 0.305776 0.854
0.0636208 0.306134 0.855
0.064237 0.306134 0.855
0.0648532 0.306134 0.855
0.065546 0.306492 0.856
0.066163 0.306492 0.856
0.0667799 0.306492 0.856
0.0674756 0.30685 0.857
0.0680933 0.30685 0.857
0.0687109 0.30685 0.857
0.0693286 0.30685 0.857
0.0699463 0.30685 0.857
0.0705639 0.30685 0.857
0.0711816 0.30685 0.857
0.0717993 0.30685 0.857
0.0723324 0.306492 0.856
0.0729494 0.306492 0.856
0.0735663 0.306492 0.856
0.0741833 0.306492 0.856
0.0748002 0.306492 0.856
0.0754172 0.306492 0.856
0.0759453 0.306134 0.855
0.0765615 0.306134 0.855
0.0771777 0.306134 0.855
0.0777939 0.306134 0.855
0.0784102 0.306134 0.855
0.0790264 0.306134 0.855
0.0796426 0.306134 0.855
0.0803527 0.306492 0.856
0.0809697 0.306492 0.856
0.0815866 0.306492 0.856
0.0822035 0.306492 0.856
0.0828205 0.306492 0.856
0.0834374 0.306492 0.856
0.0840544 0.306492 0.856
0.0845724 0.306134 0.855
0.0851886 0.306134 0.855
0.0858048 0.306134 0.855
0.0864211 0.306134 0.855
0.0870373 0.306134 0.855
0.0876535 0.306134 0.855
0.0882697 0.306134 0.855
0.088886 0.306134 0.855
0.0893975 0.305776 0.854
0.0899076 0.305418 0.853
0.0905224 0.305418 0.853
0.0911372 0.305418 0.853
0.0916444 0.30506 0.852
0.0922585 0.30506 0.852
0.0927635 0.304702 0.851
0.0932671 0.304344 0.85
0.0938797 0.304344 0.85
0.0943812 0.303986 0.849
0.0948812 0.303628 0.848
0.0954924 0.303628 0.848
0.0959902 0.30327 0.847
0.0966007 0.30327 0.847
0.0972112 0.30327 0.847
0.0978216 0.30327 0.847
0.0984321 0.30327 0.847
0.0990425 0.30327 0.847
0.099653 0.30327 0.847
0.100263 0.30327 0.847
0.100993 0.303628 0.848
0.101724 0.303986 0.849
0.102336 0.303986 0.849
0.103069 0.304344 0.85
0.103804 0.304702 0.851
0.104417 0.304702 0.851
0.105277 0.305418 0.853
0.105892 0.305418 0.853
-0.0466735 0.315003 0.878
-0.0460407 0.315003 0.878
-0.0454079 0.315003 0.878
-0.0447751 0.315003 0.878
-0.0441423 0.315003 0.878
-0.043559 0.315361 0.879
-0.0428767 0.315003 0.878
-0.0422439 0.315003 0.878
-0.0416111 0.315003 0.878
-0.0409783 0.315003 0.878
-0.0403455 0.315003 0.878
-0.0397579 0.315361 0.879
-0.0391244 0.315361 0.879
-0.0384909 0.315361 0.879
-0.0379004 0.31572 0.88
-0.0372662 0.31572 0.88
-0.0365903 0.315361 0.879
-0.0359568 0.315361 0.879
-0.0353635 0.31572 0.88
-0.0346897 0.315361 0.879
-0.0340562 0.315361 0.879
-0.0334227 0.315361 0.879
-0.0327519 0.315003 0.878
-0.0320825 0.314644 0.877
-0.0314145 0.314285 0.876
-0.0307832 0.314285 0.876
-0.0301174 0.313926 0.875
-0.0294531 0.313567 0.874
-0.0288232 0.313567 0.874
-0.0281287 0.31285 0.872
-0.0275002 0.31285 0.872
-0.0268718 0.31285 0.872
-0.0262132 0.312491 0.871
-0.0255561 0.312132 0.87
-0.024929 0.312132 0.87
-0.024302 0.312132 0.87
-0.0236478 0.311774 0.869
-0.0230214 0.311774 0.869
-0.0223694 0.311415 0.868
-0.0217438 0.311415 0.868
-0.0211182 0.311415 0.868
-0.0204926 0.311415 0.868
-0.019867 0.311415 0.868
-0.0192414 0.311415 0.868
-0.0185943 0.311056 0.867
-0.0179695 0.311056 0.867
-0.0173446 0.311056 0.867
-0.0167197 0.311056 0.867
-0.0160763 0.310697 0.866
-0.0154521 0.310697 0.866
-0.014828 0.310697 0.866
-0.0142038 0.310697 0.866
-0.0135797 0.310697 0.866
-0.0129555 0.310697 0.866
-0.0123171 0.310338 0.865
-0.0116937 0.310338 0.865
-0.0110703 0.310338 0.865
-0.0104468 0.310338 0.865
-0.00982342 0.310338 0.865
-0.00919999 0.310338 0.865
-0.00857656 0.310338 0.865
-0.00795312 0.310338 0.865
-0.00733817 0.310697 0.866
-0.00671401 0.310697 0.866
-0.00608986 0.310697 0.866
-0.00546571 0.310697 0.866
-0.00484156 0.310697 0.866
-0.00421741 0.310697 0.866
-0.0035974 0.311056 0.867
-0.00297253 0.311056 0.867
-0.00234766 0.311056 0.867
-0.00172279 0.311056 0.867
-0.00109791 0.311056 0.867
-0.000473041 0.311056 0.867
0.000151832 0.311056 0.867
0.000776705 0.311056 0.867
0.00140158 0.311056 0.867
0.00202645 0.311056 0.867
0.00265132 0.311056 0.867
0.0032762 0.311056 0.867
0.00390107 0.311056 0.867
0.00452594 0.311056 0.867
0.00515081 0.311056 0.867
0.00576902 0.310697 0.866
0.00639318 0.310697 0.866
0.00701733 0.310697 0.866
0.00764148 0.310697 0.866
0.00825609 0.310338 0.865
0.00887952 0.310338 0.865
0.00949196 0.30998 0.864
0.0101147 0.30998 0.864
0.0107374 0.30998 0.864
0.0113601 0.30998 0.864
0.0119828 0.30998 0.864
0.0126055 0.30998 0.864
0.0132129 0.309621 0.863
0.0138349 0.309621 0.863
0.0144569 0.309621 0.863
0.0150789 0.309621 0.863
0.0157009 0.309621 0.863
0.0163229 0.309621 0.863
0.0169449 0.309621 0.863
0.0175668 0.309621 0.863
0.0181888 0.309621 0.863
0.0188108 0.309621 0.863
0.0194328 0.309621 0.863
0.0200316 0.309262 0.862
0.0206528 0.309262 0.862
0.0212741 0.309262 0.862
0.0218954 0.309262 0.862
0.0225166 0.309262 0.862
0.0231111 0.308903 0.861
0.0237316 0.308903 0.861
0.0243522 0.308903 0.861
0.0249437 0.308545 0.86
0.0255635 0.308545 0.86
0.0261834 0.308545 0.86
0.0268032 0.308545 0.86
0.0273911 0.308186 0.859
0.0280102 0.308186 0.859
0.0286293 0.308186 0.859
0.0292484 0.308186 0.859
0.0298676 0.308186 0.859
0.0304867 0.308186 0.859
0.0311058 0.308186 0.859
0.0316879 0.307827 0.858
0.0323063 0.307827 0.858
0.0329247 0.307827 0.858
0.0335431 0.307827 0.858
0.0341615 0.307827 0.858
0.0347799 0.307827 0.858
0.0353983 0.307827 0.858
0.0360166 0.307827 0.858
0.036635 0.307827 0.858
0.03721 0.307468 0.857
0.0378277 0.307468 0.857
0.0384453 0.307468 0.857
0.0391086 0.307827 0.858
0.039727 0.307827 0.858
0.0403454 0.307827 0.858
0.0409637 0.307827 0.858
0.0415821 0.307827 0.858
0.0422005 0.307827 0.858
0.0428189 0.307827 0.858
0.0434373 0.307827 0.858
0.0440557 0.307827 0.858
0.0446741 0.307827 0.858
0.0452924 0.307827 0.858
0.0459108 0.307827 0.858
0.0465292 0.307827 0.858
0.0471476 0.307827 0.858
0.047766 0.307827 0.858
0.048328 0.307468 0.857
0.0489456 0.307468 0.857
0.0495633 0.307468 0.857
0.050181 0.307468 0.857
0.0507394 0.30711 0.856
0.0513563 0.30711 0.856
0.0519733 0.30711 0.856
0.0525902 0.30711 0.856
0.0532071 0.30711 0.856
0.0538241 0.30711 0.856
0.0543774 0.306751 0.855
0.0549937 0.306751 0.855
0.0556099 0.306751 0.855
0.0561603 0.306392 0.854
0.0567758 0.306392 0.854
0.0573914 0.306392 0.854
0.0579389 0.306033 0.853
0.0585537 0.306033 0.853
0.0591685 0.306033 0.853
0.0597833 0.306033 0.853
0.0604689 0.306392 0.854
0.0610844 0.306392 0.854
0.0616999 0.306392 0.854
0.0623154 0.306392 0.854
