0.100637 0.210358 0.888
0.101391 0.210595 0.889
0.102032 0.210595 0.889
0.102672 0.210595 0.889
0.103429 0.210832 0.89
0.104071 0.210832 0.89
0.104712 0.210832 0.89
0.105472 0.211069 0.891
0.106114 0.211069 0.891
0.106756 0.211069 0.891
0.107398 0.211069 0.891
0.108162 0.211306 0.892
0.108805 0.211306 0.892
0.109448 0.211306 0.892
0.110091 0.211306 0.892
0.110733 0.211306 0.892
0.111376 0.211306 0.892
0.112019 0.211306 0.892
0.112662 0.211306 0.892
0.113305 0.211306 0.892
0.113948 0.211306 0.892
0.114591 0.211306 0.892
0.115234 0.211306 0.892
-0.0284421 0.200544 0.844
-0.0278338 0.200544 0.844
-0.0271933 0.200306 0.843
-0.0265541 0.200068 0.842
-0.0259473 0.200068 0.842
-0.0253103 0.199831 0.841
-0.0247042 0.199831 0.841
-0.0234361 0.199356 0.839
-0.0227769 0.19888 0.837
-0.0221737 0.19888 0.837
-0.0215447 0.198643 0.836
-0.020892 0.198168 0.834
-0.020291 0.198168 0.834
-0.0196899 0.198168 0.834
-0.0190659 0.19793 0.833
-0.0184655 0.19793 0.833
-0.0178652 0.19793 0.833
-0.0172648 0.19793 0.833
-0.0166644 0.19793 0.833
-0.0160641 0.19793 0.833
-0.0154823 0.198168 0.834
-0.014899 0.198405 0.835
-0.0143143 0.198643 0.836
-0.0137118 0.198643 0.836
-0.0131249 0.19888 0.837
-0.0125366 0.199118 0.838
-0.0119327 0.199118 0.838
-0.0113422 0.199356 0.839
-0.0107503 0.199593 0.84
-0.0101449 0.199593 0.84
-0.00955086 0.199831 0.841
-0.00894473 0.199831 0.841
-0.00833859 0.199831 0.841
-0.00773246 0.199831 0.841
-0.0071348 0.200068 0.842
-0.00652794 0.200068 0.842
-0.00592109 0.200068 0.842
-0.00532055 0.200306 0.843
-0.00471297 0.200306 0.843
-0.0041054 0.200306 0.843
-0.00350197 0.200544 0.844
-0.00289368 0.200544 0.844
-0.00228538 0.200544 0.844
-0.00167708 0.200544 0.844
-0.00106879 0.200544 0.844
-0.000461037 0.200781 0.845
0.000147979 0.200781 0.845
0.000756996 0.200781 0.845
0.00136601 0.200781 0.845
0.00197503 0.200781 0.845
0.0025871 0.201019 0.846
0.00319684 0.201019 0.846
0.00380658 0.201019 0.846
0.00442154 0.201257 0.847
0.00503199 0.201257 0.847
0.00564245 0.201257 0.847
0.00625291 0.201257 0.847
0.00687147 0.201494 0.848
0.00748265 0.201494 0.848
0.00809383 0.201494 0.848
0.00871527 0.201732 0.849
0.00932717 0.201732 0.849
0.00993907 0.201732 0.849
0.010551 0.201732 0.849
0.011176 0.201969 0.85
0.0117886 0.201969 0.85
0.0124013 0.201969 0.85
0.0130139 0.201969 0.85
0.0136265 0.201969 0.85
0.0142391 0.201969 0.85
0.0148517 0.201969 0.85
0.0154644 0.201969 0.85
0.016077 0.201969 0.85
0.0166896 0.201969 0.85
0.0173022 0.201969 0.85
0.0179148 0.201969 0.85
0.0185493 0.202207 0.851
0.0191626 0.202207 0.851
0.0197759 0.202207 0.851
0.0203893 0.202207 0.851
0.0210026 0.202207 0.851
0.021616 0.202207 0.851
0.0222554 0.202445 0.852
0.0228695 0.202445 0.852
0.0234836 0.202445 0.852
0.0241259 0.202682 0.853
0.0247407 0.202682 0.853
0.0253555 0.202682 0.853
0.0259702 0.202682 0.853
0.0266162 0.20292 0.854
0.0272636 0.203157 0.855
0.0278798 0.203157 0.855
0.0285294 0.203395 0.856
0.0291804 0.203633 0.857
0.029798 0.203633 0.857
0.0304512 0.20387 0.858
0.0311058 0.204108 0.859
0.0317618 0.204345 0.86
0.0323816 0.204345 0.86
0.0330398 0.204583 0.861
0.0336995 0.204821 0.862
0.0343208 0.204821 0.862
0.0349826 0.205058 0.863
0.0356458 0.205296 0.864
0.0362685 0.205296 0.864
0.0368912 0.205296 0.864
0.0375139 0.205296 0.864
0.0381366 0.205296 0.864
0.0387594 0.205296 0.864
0.0393821 0.205296 0.864
0.0400048 0.205296 0.864
0.0406275 0.205296 0.864
0.0412979 0.205534 0.865
0.0419214 0.205534 0.865
0.0425448 0.205534 0.865
0.0432181 0.205771 0.866
0.0438423 0.205771 0.866
0.0444664 0.205771 0.866
0.0450906 0.205771 0.866
0.0457147 0.205771 0.866
0.0463389 0.205771 0.866
0.0470173 0.206009 0.867
0.0476422 0.206009 0.867
0.048267 0.206009 0.867
0.0488919 0.206009 0.867
0.0495168 0.206009 0.867
0.0501416 0.206009 0.867
0.0507665 0.206009 0.867
0.0514507 0.206246 0.868
0.0520763 0.206246 0.868
0.0527019 0.206246 0.868
0.0533274 0.206246 0.868
0.053953 0.206246 0.868
0.0545786 0.206246 0.868
0.0552678 0.206484 0.869
0.0558941 0.206484 0.869
0.0565204 0.206484 0.869
0.0571468 0.206484 0.869
0.0578396 0.206722 0.87
0.0585338 0.206959 0.871
0.0591616 0.206959 0.871
0.059858 0.207197 0.872
0.0605558 0.207434 0.873
0.061185 0.207434 0.873
0.0619558 0.20791 0.875
0.0625864 0.20791 0.875
0.0633616 0.208385 0.877
0.0639937 0.208385 0.877
0.0646257 0.208385 0.877
0.0652578 0.208385 0.877
0.0658899 0.208385 0.877
0.066522 0.208385 0.877
0.0671541 0.208385 0.877
0.0677861 0.208385 0.877
0.0684182 0.208385 0.877
0.0690503 0.208385 0.877
0.0696029 0.208147 0.876
0.0702343 0.208147 0.876
0.0708656 0.208147 0.876
0.071497 0.208147 0.876
0.072046 0.20791 0.875
0.0726767 0.20791 0.875
0.0733073 0.20791 0.875
0.0739379 0.20791 0.875
0.0745686 0.20791 0.875
0.0752852 0.208147 0.876
0.0759165 0.208147 0.876
0.0765479 0.208147 0.876
0.0772673 0.208385 0.877
0.0778994 0.208385 0.877
0.0785315 0.208385 0.877
0.0792538 0.208622 0.878
0.0798866 0.208622 0.878
0.0805194 0.208622 0.878
0.0812447 0.20886 0.879
0.0818782 0.20886 0.879
0.0825117 0.20886 0.879
0.0832398 0.209098 0.88
0.0838741 0.209098 0.88
0.0845083 0.209098 0.88
0.0852393 0.209335 0.881
0.0858743 0.209335 0.881
0.0865092 0.209335 0.881
0.0871442 0.209335 0.881
0.0877792 0.209335 0.881
0.0884141 0.209335 0.881
0.0891502 0.209573 0.882
0.0897858 0.209573 0.882
0.0904215 0.209573 0.882
0.0910572 0.209573 0.882
0.0917969 0.20981 0.883
0.0924333 0.20981 0.883
0.0930697 0.20981 0.883
0.0938122 0.210048 0.884
0.0944493 0.210048 0.884
0.0950864 0.210048 0.884
0.0958318 0.210286 0.885
0.0964697 0.210286 0.885
0.0971075 0.210286 0.885
0.0978558 0.210523 0.886
0.0984944 0.210523 0.886
0.099133 0.210523 0.886
0.0998841 0.210761 0.887
0.100637 0.210999 0.888
0.101391 0.211236 0.889
0.102032 0.211236 0.889
0.102672 0.211236 0.889
0.103429 0.211474 0.89
0.104071 0.211474 0.89
0.104712 0.211474 0.89
0.105472 0.211711 0.891
0.106114 0.211711 0.891
0.106756 0.211711 0.891
0.107398 0.211711 0.891
0.108162 0.211949 0.892
0.108805 0.211949 0.892
0.109448 0.211949 0.892
0.110091 0.211949 0.892
0.110733 0.211949 0.892
0.111376 0.211949 0.892
0.112019 0.211949 0.892
0.112662 0.211949 0.892
0.113305 0.211949 0.892
0.113948 0.211949 0.892
0.114591 0.211949 0.892
0.115234 0.211949 0.892
-0.0284421 0.201152 0.844
-0.0278338 0.201152 0.844
-0.027161 0.200676 0.842
-0.0265541 0.200676 0.842
-0.0259473 0.200676 0.842
-0.0253103 0.200437 0.841
-0.0246748 0.200199 0.84
-0.0240694 0.200199 0.84
-0.0234361 0.199961 0.839
-0.0227769 0.199484 0.837
-0.0221737 0.199484 0.837
-0.0215447 0.199246 0.836
-0.020892 0.198769 0.834
-0.020291 0.198769 0.834
-0.0196663 0.198531 0.833
-0.0190659 0.198531 0.833
-0.0184655 0.198531 0.833
-0.0178652 0.198531 0.833
-0.0172648 0.198531 0.833
-0.0166644 0.198531 0.833
-0.0160641 0.198531 0.833
-0.0154637 0.198531 0.833
-0.0148812 0.198769 0.834
-0.0143143 0.199246 0.836
-0.0137118 0.199246 0.836
-0.0131093 0.199246 0.836
-0.0125366 0.199722 0.838
-0.0119327 0.199722 0.838
-0.0113422 0.199961 0.839
-0.0107503 0.200199 0.84
-0.0101449 0.200199 0.84
-0.00955086 0.200437 0.841
-0.00894473 0.200437 0.841
-0.00833859 0.200437 0.841
-0.00773246 0.200437 0.841
-0.0071348 0.200676 0.842
-0.00652794 0.200676 0.842
-0.00592109 0.200676 0.842
-0.00532055 0.200914 0.843
-0.00471297 0.200914 0.843
-0.0041054 0.200914 0.843
-0.00350197 0.201152 0.844
-0.00289368 0.201152 0.844
-0.00228538 0.201152 0.844
-0.00167708 0.201152 0.844
-0.00107005 0.201391 0.845
-0.000461037 0.201391 0.845
0.000147979 0.201391 0.845
0.000756996 0.201391 0.845
0.00136763 0.201629 0.846
0.00197737 0.201629 0.846
0.0025871 0.201629 0.846
0.00320062 0.201867 0.847
0.00381108 0.201867 0.847
0.00442154 0.201867 0.847
0.00503199 0.201867 0.847
0.00564245 0.201867 0.847
0.00625291 0.201867 0.847
0.00686337 0.201867 0.847
0.00748265 0.202106 0.848
0.00809383 0.202106 0.848
0.00870501 0.202106 0.848
0.00931619 0.202106 0.848
0.00992737 0.202106 0.848
0.010551 0.202344 0.849
0.0111629 0.202344 0.849
0.0117748 0.202344 0.849
0.0124013 0.202582 0.85
0.0130139 0.202582 0.85
0.0136265 0.202582 0.85
0.0142391 0.202582 0.85
0.0148517 0.202582 0.85
0.0154644 0.202582 0.85
0.016077 0.202582 0.85
0.0166896 0.202582 0.85
0.0173022 0.202582 0.85
0.0179148 0.202582 0.85
0.0185493 0.202821 0.851
0.0191626 0.202821 0.851
0.0197759 0.202821 0.851
0.0203893 0.202821 0.851
0.0210026 0.202821 0.851
0.021616 0.202821 0.851
0.0222554 0.203059 0.852
0.0228695 0.203059 0.852
0.0234836 0.203059 0.852
0.0241259 0.203297 0.853
0.0247407 0.203297 0.853
0.0253852 0.203536 0.854
0.0260007 0.203536 0.854
0.0266162 0.203536 0.854
0.0272636 0.203774 0.855
0.0278798 0.203774 0.855
0.0285294 0.204012 0.856
0.0291804 0.204251 0.857
0.029798 0.204251 0.857
0.0304512 0.204489 0.858
0.0311058 0.204727 0.859
0.0317618 0.204966 0.86
0.0323816 0.204966 0.86
0.0330782 0.205442 0.862
0.0336995 0.205442 0.862
0.0343208 0.205442 0.862
0.0349826 0.205681 0.863
0.0356458 0.205919 0.864
0.0362685 0.205919 0.864
0.0368912 0.205919 0.864
0.0375139 0.205919 0.864
0.0381366 0.205919 0.864
0.0387594 0.205919 0.864
0.0393821 0.205919 0.864
0.0400048 0.205919 0.864
0.0406275 0.205919 0.864
0.0412979 0.206157 0.865
0.0419214 0.206157 0.865
0.0425448 0.206157 0.865
0.0432181 0.206396 0.866
0.0438423 0.206396 0.866
0.0444664 0.206396 0.866
0.0450906 0.206396 0.866
0.0457147 0.206396 0.866
0.0463389 0.206396 0.866
0.0470173 0.206634 0.867
0.0476422 0.206634 0.867
0.048267 0.206634 0.867
0.0488919 0.206634 0.867
0.0495168 0.206634 0.867
0.0501995 0.206872 0.868
0.0508251 0.206872 0.868
0.0514507 0.206872 0.868
0.0520763 0.206872 0.868
0.0527019 0.206872 0.868
0.0533274 0.206872 0.868
0.0540152 0.207111 0.869
0.0546415 0.207111 0.869
0.0553314 0.207349 0.87
0.0559585 0.207349 0.87
0.0566505 0.207587 0.871
0.0572783 0.207587 0.871
0.0579725 0.207826 0.872
0.058601 0.207826 0.872
0.0592295 0.207826 0.872
0.0599266 0.208064 0.873
0.0606252 0.208302 0.874
0.0612551 0.208302 0.874
0.0620266 0.208779 0.876
0.062658 0.208779 0.876
0.0633616 0.209017 0.877
0.0639937 0.209017 0.877
0.0646257 0.209017 0.877
0.0652578 0.209017 0.877
0.0658899 0.209017 0.877
0.066522 0.209017 0.877
0.0671541 0.209017 0.877
0.0677861 0.209017 0.877
0.0684182 0.209017 0.877
0.0690503 0.209017 0.877
0.0696029 0.208779 0.876
0.0702343 0.208779 0.876
0.0708656 0.208779 0.876
0.071497 0.208779 0.876
0.072046 0.208541 0.875
0.0726767 0.208541 0.875
0.0733073 0.208541 0.875
0.0739379 0.208541 0.875
0.0745686 0.208541 0.875
0.0752852 0.208779 0.876
0.0759165 0.208779 0.876
0.0765479 0.208779 0.876
0.0772673 0.209017 0.877
0.0778994 0.209017 0.877
0.0785315 0.209017 0.877
0.0792538 0.209256 0.878
0.0798866 0.209256 0.878
0.0805194 0.209256 0.878
0.0812447 0.209494 0.879
0.0818782 0.209494 0.879
0.0825117 0.209494 0.879
0.0832398 0.209732 0.88
0.0838741 0.209732 0.88
0.0845083 0.209732 0.88
0.0852393 0.209971 0.881
0.0858743 0.209971 0.881
0.0865092 0.209971 0.881
0.0871442 0.209971 0.881
0.0877792 0.209971 0.881
0.0884141 0.209971 0.881
0.0891502 0.210209 0.882
0.0897858 0.210209 0.882
0.0904215 0.210209 0.882
0.0910572 0.210209 0.882
0.0917969 0.210447 0.883
0.0924333 0.210447 0.883
0.0930697 0.210447 0.883
0.0938122 0.210686 0.884
0.0944493 0.210686 0.884
0.0950864 0.210686 0.884
0.0958318 0.210924 0.885
0.0964697 0.210924 0.885
0.0971075 0.210924 0.885
0.0978558 0.211162 0.886
0.0984944 0.211162 0.886
0.099133 0.211162 0.886
0.0998841 0.211401 0.887
0.100637 0.211639 0.888
0.101391 0.211877 0.889
0.102032 0.211877 0.889
0.102672 0.211877 0.889
0.103429 0.212116 0.89
0.104071 0.212116 0.89
0.104712 0.212116 0.89
0.105472 0.212354 0.891
0.106114 0.212354 0.891
0.106756 0.212354 0.891
0.107398 0.212354 0.891
0.108162 0.212592 0.892
0.108805 0.212592 0.892
0.109448 0.212592 0.892
0.110091 0.212592 0.892
0.110733 0.212592 0.892
0.111376 0.212592 0.892
0.112019 0.212592 0.892
0.112662 0.212592 0.892
0.113305 0.212592 0.892
0.113948 0.212592 0.892
0.114591 0.212592 0.892
0.115234 0.212592 0.892
-0.0284421 0.201761 0.844
-0.0278338 0.201761 0.844
-0.027161 0.201283 0.842
-0.0265541 0.201283 0.842
-0.0259473 0.201283 0.842
-0.0253103 0.201044 0.841
-0.0246748 0.200805 0.84
-0.0240694 0.200805 0.84
-0.0234361 0.200566 0.839
-0.0227769 0.200088 0.837
-0.0221737 0.200088 0.837
-0.0215447 0.199849 0.836
-0.020892 0.199371 0.834
-0.020291 0.199371 0.834
-0.0196663 0.199131 0.833
-0.0190659 0.199131 0.833
-0.0184655 0.199131 0.833
-0.0178652 0.199131 0.833
-0.0172648 0.199131 0.833
-0.0166644 0.199131 0.833
-0.0160641 0.199131 0.833
-0.0154637 0.199131 0.833
-0.0148812 0.199371 0.834
-0.0143143 0.199849 0.836
-0.0137118 0.199849 0.836
-0.0131093 0.199849 0.836
-0.0125366 0.200327 0.838
-0.0119327 0.200327 0.838
-0.0113422 0.200566 0.839
-0.0107503 0.200805 0.84
-0.0101449 0.200805 0.84
-0.00955086 0.201044 0.841
-0.00894473 0.201044 0.841
-0.00833859 0.201044 0.841
-0.00773246 0.201044 0.841
-0.0071348 0.201283 0.842
-0.00652794 0.201283 0.842
-0.00592109 0.201283 0.842
-0.00532055 0.201522 0.843
-0.00471297 0.201522 0.843
-0.0041054 0.201522 0.843
-0.00350197 0.201761 0.844
-0.00289368 0.201761 0.844
-0.00228538 0.201761 0.844
-0.00167708 0.201761 0.844
-0.00107005 0.202 0.845
-0.000461037 0.202 0.845
0.000147979 0.202 0.845
0.000756996 0.202 0.845
0.00136763 0.202239 0.846
0.00197737 0.202239 0.846
0.0025871 0.202239 0.846
0.00320062 0.202478 0.847
0.00381108 0.202478 0.847
0.00442154 0.202478 0.847
0.00503199 0.202478 0.847
0.00564245 0.202478 0.847
0.00625291 0.202478 0.847
0.00686337 0.202478 0.847
0.00748265 0.202717 0.848
0.00809383 0.202717 0.848
0.00870501 0.202717 0.848
0.00931619 0.202717 0.848
0.00992737 0.202717 0.848
0.010551 0.202956 0.849
0.0111629 0.202956 0.849
0.0117748 0.202956 0.849
0.0124013 0.203195 0.85
0.0130139 0.203195 0.85
0.0136265 0.203195 0.85
0.0142391 0.203195 0.85
0.0148517 0.203195 0.85
0.0154644 0.203195 0.85
0.016077 0.203195 0.85
0.0166896 0.203195 0.85
0.0173022 0.203195 0.85
0.0179148 0.203195 0.85
0.0185493 0.203434 0.851
0.0191626 0.203434 0.851
0.0197759 0.203434 0.851
0.0203893 0.203434 0.851
0.0210026 0.203434 0.851
0.021616 0.203434 0.851
0.0222554 0.203673 0.852
0.0228695 0.203673 0.852
0.0234836 0.203673 0.852
0.0241259 0.203913 0.853
0.0247407 0.203913 0.853
0.0253852 0.204152 0.854
0.0260007 0.204152 0.854
0.0266162 0.204152 0.854
0.0272636 0.204391 0.855
0.0278798 0.204391 0.855
0.0285294 0.20463 0.856
0.0291804 0.204869 0.857
0.029798 0.204869 0.857
0.0304512 0.205108 0.858
0.0311058 0.205347 0.859
0.0317618 0.205586 0.86
0.0323816 0.205586 0.86
0.0330782 0.206064 0.862
0.0336995 0.206064 0.862
0.0343208 0.206064 0.862
0.0349826 0.206303 0.863
0.0356045 0.206303 0.863
0.0362265 0.206303 0.863
0.0368912 0.206542 0.864
0.0375139 0.206542 0.864
0.0381366 0.206542 0.864
0.0387594 0.206542 0.864
0.0393821 0.206542 0.864
0.0400048 0.206542 0.864
0.0406275 0.206542 0.864
0.0412979 0.206781 0.865
0.0419214 0.206781 0.865
0.0425448 0.206781 0.865
0.0431682 0.206781 0.865
0.0438423 0.20702 0.866
0.0444664 0.20702 0.866
0.0450906 0.20702 0.866
0.0457147 0.20702 0.866
0.0463389 0.20702 0.866
0.0470173 0.207259 0.867
0.0476422 0.207259 0.867
0.048267 0.207259 0.867
0.0488919 0.207259 0.867
0.0495168 0.207259 0.867
0.0501995 0.207498 0.868
0.0508251 0.207498 0.868
0.0514507 0.207498 0.868
0.0520763 0.207498 0.868
0.0527019 0.207498 0.868
0.0533274 0.207498 0.868
0.0540152 0.207737 0.869
0.0546415 0.207737 0.869
0.0553314 0.207976 0.87
0.0559585 0.207976 0.87
0.0566505 0.208216 0.871
0.0572783 0.208216 0.871
0.0579725 0.208455 0.872
0.058601 0.208455 0.872
0.0592295 0.208455 0.872
0.0599266 0.208694 0.873
0.0606252 0.208933 0.874
0.0612551 0.208933 0.874
0.0620266 0.209411 0.876
0.062658 0.209411 0.876
0.0633616 0.20965 0.877
0.0639937 0.20965 0.877
0.0646257 0.20965 0.877
0.0652578 0.20965 0.877
0.0658899 0.20965 0.877
0.066522 0.20965 0.877
0.0671541 0.20965 0.877
0.0677861 0.20965 0.877
0.0684182 0.20965 0.877
0.0690503 0.20965 0.877
0.0696029 0.209411 0.876
0.0702343 0.209411 0.876
0.0708656 0.209411 0.876
0.071497 0.209411 0.876
0.072046 0.209172 0.875
0.0726767 0.209172 0.875
0.0733073 0.209172 0.875
0.0739379 0.209172 0.875
0.0745686 0.209172 0.875
0.0752852 0.209411 0.876
0.0759165 0.209411 0.876
0.0765479 0.209411 0.876
0.0772673 0.20965 0.877
0.0778994 0.20965 0.877
0.0785315 0.20965 0.877
0.0792538 0.209889 0.878
0.0798866 0.209889 0.878
0.0805194 0.209889 0.878
0.0812447 0.210128 0.879
0.0818782 0.210128 0.879
0.0825117 0.210128 0.879
0.0832398 0.210367 0.88
0.0838741 0.210367 0.88
0.0845083 0.210367 0.88
0.0852393 0.210606 0.881
0.0858743 0.210606 0.881
0.0865092 0.210606 0.881
0.0871442 0.210606 0.881
0.0878788 0.210845 0.882
0.0885145 0.210845 0.882
0.0891502 0.210845 0.882
0.0897858 0.210845 0.882
0.0904215 0.210845 0.882
0.0911604 0.211084 0.883
0.0917969 0.211084 0.883
0.0925379 0.211323 0.884
0.0931751 0.211323 0.884
0.0938122 0.211323 0.884
0.0944493 0.211323 0.884
0.0950864 0.211323 0.884
0.0958318 0.211562 0.885
0.0965787 0.211801 0.886
0.0972173 0.211801 0.886
0.0978558 0.211801 0.886
0.0986056 0.21204 0.887
0.0992449 0.21204 0.887
0.0998841 0.21204 0.887
0.100637 0.212279 0.888
0.101391 0.212518 0.889
0.102032 0.212518 0.889
0.102672 0.212518 0.889
0.103429 0.212758 0.89
0.104071 0.212758 0.89
0.104712 0.212758 0.89
0.105472 0.212997 0.891
0.106114 0.212997 0.891
0.106756 0.212997 0.891
0.107398 0.212997 0.891
0.108162 0.213236 0.892
0.108805 0.213236 0.892
0.109448 0.213236 0.892
0.110091 0.213236 0.892
0.110733 0.213236 0.892
0.111376 0.213236 0.892
0.112019 0.213236 0.892
0.112662 0.213236 0.892
0.113305 0.213236 0.892
0.113948 0.213236 0.892
0.114591 0.213236 0.892
-0.0284421 0.20237 0.844
-0.0278338 0.20237 0.844
-0.027161 0.20189 0.842
-0.0265226 0.20165 0.841
-0.0259165 0.20165 0.841
-0.0252802 0.201411 0.84
-0.0246748 0.201411 0.84
-0.0240694 0.201411 0.84
-0.0234361 0.201171 0.839
-0.0227769 0.200691 0.837
-0.0221737 0.200691 0.837
-0.0215447 0.200452 0.836
-0.020892 0.199972 0.834
-0.020291 0.199972 0.834
-0.0196663 0.199732 0.833
-0.0190659 0.199732 0.833
-0.0184655 0.199732 0.833
-0.0178652 0.199732 0.833
-0.0172648 0.199732 0.833
-0.0166644 0.199732 0.833
-0.0160641 0.199732 0.833
-0.0154637 0.199732 0.833
-0.0148812 0.199972 0.834
-0.0142972 0.200212 0.835
-0.0136954 0.200212 0.835
-0.0131093 0.200452 0.836
-0.0125217 0.200691 0.837
-0.0119184 0.200691 0.837
-0.0113422 0.201171 0.839
-0.0107503 0.201411 0.84
-0.0101449 0.201411 0.84
-0.0095395 0.201411 0.84
-0.00894473 0.20165 0.841
-0.00833859 0.20165 0.841
-0.00773246 0.20165 0.841
-0.0071348 0.20189 0.842
-0.00652794 0.20189 0.842
-0.00592109 0.20189 0.842
-0.00531424 0.20189 0.842
-0.00471297 0.20213 0.843
-0.0041054 0.20213 0.843
-0.00350197 0.20237 0.844
-0.00289368 0.20237 0.844
-0.00228538 0.20237 0.844
-0.00167708 0.20237 0.844
-0.00107005 0.20261 0.845
-0.000461037 0.20261 0.845
0.000147979 0.20261 0.845
0.000756996 0.20261 0.845
0.00136763 0.202849 0.846
0.00197737 0.202849 0.846
0.0025871 0.202849 0.846
0.00320062 0.203089 0.847
0.00381108 0.203089 0.847
0.00442154 0.203089 0.847
0.00503199 0.203089 0.847
0.00564245 0.203089 0.847
0.00625291 0.203089 0.847
0.00686337 0.203089 0.847
0.00747383 0.203089 0.847
0.00808428 0.203089 0.847
0.00869474 0.203089 0.847
0.00931619 0.203329 0.848
0.00992737 0.203329 0.848
0.0105385 0.203329 0.848
0.0111629 0.203569 0.849
0.0117748 0.203569 0.849
0.0123867 0.203569 0.849
0.0129986 0.203569 0.849
0.0136105 0.203569 0.849
0.0142391 0.203808 0.85
0.0148517 0.203808 0.85
0.0154644 0.203808 0.85
0.016077 0.203808 0.85
0.0166896 0.203808 0.85
0.0173226 0.204048 0.851
0.0179359 0.204048 0.851
0.0185493 0.204048 0.851
0.0191626 0.204048 0.851
0.0197759 0.204048 0.851
0.0203893 0.204048 0.851
0.0210273 0.204288 0.852
0.0216414 0.204288 0.852
0.0222554 0.204288 0.852
0.0228963 0.204528 0.853
0.0235111 0.204528 0.853
0.0241259 0.204528 0.853
0.0247407 0.204528 0.853
0.0253852 0.204768 0.854
0.0260007 0.204768 0.854
0.0266162 0.204768 0.854
0.0272636 0.205007 0.855
0.0278798 0.205007 0.855
0.0285294 0.205247 0.856
0.0291804 0.205487 0.857
0.029798 0.205487 0.857
0.0304512 0.205727 0.858
0.0311058 0.205966 0.859
0.0317618 0.206206 0.86
0.0323816 0.206206 0.86
0.0330398 0.206446 0.861
0.0336995 0.206686 0.862
0.0343208 0.206686 0.862
0.0349826 0.206925 0.863
0.0356045 0.206925 0.863
0.0362265 0.206925 0.863
0.0368485 0.206925 0.863
0.0374705 0.206925 0.863
0.0380925 0.206925 0.863
0.0387145 0.206925 0.863
0.0393365 0.206925 0.863
0.0400048 0.207165 0.864
0.0406275 0.207165 0.864
0.0412502 0.207165 0.864
0.0418729 0.207165 0.864
0.0424956 0.207165 0.864
0.0431183 0.207165 0.864
0.0437917 0.207405 0.865
0.0444151 0.207405 0.865
0.0450906 0.207645 0.866
0.0457147 0.207645 0.866
0.0463389 0.207645 0.866
0.0469631 0.207645 0.866
0.0476422 0.207885 0.867
0.048267 0.207885 0.867
0.0488919 0.207885 0.867
0.0495168 0.207885 0.867
0.0501995 0.208124 0.868
0.0508251 0.208124 0.868
0.0514507 0.208124 0.868
0.0520763 0.208124 0.868
0.0527019 0.208124 0.868
0.0533889 0.208364 0.869
0.0540152 0.208364 0.869
0.0546415 0.208364 0.869
0.0553314 0.208604 0.87
0.0560228 0.208844 0.871
0.0567156 0.209083 0.872
0.057344 0.209083 0.872
0.0579725 0.209083 0.872
0.0586682 0.209323 0.873
0.0592974 0.209323 0.873
0.0600639 0.209803 0.875
0.0607639 0.210043 0.876
0.0613953 0.210043 0.876
0.0620266 0.210043 0.876
0.0627295 0.210282 0.877
0.0633616 0.210282 0.877
0.0639937 0.210282 0.877
0.0646257 0.210282 0.877
0.0652578 0.210282 0.877
0.0658899 0.210282 0.877
0.066522 0.210282 0.877
0.0671541 0.210282 0.877
0.0677861 0.210282 0.877
0.0684182 0.210282 0.877
0.0690503 0.210282 0.877
0.0696029 0.210043 0.876
0.0702343 0.210043 0.876
0.0708656 0.210043 0.876
0.071497 0.210043 0.876
0.072046 0.209803 0.875
0.0726767 0.209803 0.875
0.0733073 0.209803 0.875
0.0739379 0.209803 0.875
0.0745686 0.209803 0.875
0.0752852 0.210043 0.876
0.0759165 0.210043 0.876
0.0765479 0.210043 0.876
0.0771792 0.210043 0.876
0.0778106 0.210043 0.876
0.0785315 0.210282 0.877
0.0791636 0.210282 0.877
0.0797957 0.210282 0.877
0.0805194 0.210522 0.878
0.0812447 0.210762 0.879
0.0818782 0.210762 0.879
0.0825117 0.210762 0.879
0.0832398 0.211002 0.88
0.0838741 0.211002 0.88
0.0845083 0.211002 0.88
0.0852393 0.211241 0.881
0.0858743 0.211241 0.881
0.0865092 0.211241 0.881
0.0872431 0.211481 0.882
0.0878788 0.211481 0.882
0.0885145 0.211481 0.882
0.0892512 0.211721 0.883
0.0898876 0.211721 0.883
0.0906266 0.211961 0.884
0.0912637 0.211961 0.884
0.0919008 0.211961 0.884
0.0925379 0.211961 0.884
0.0931751 0.211961 0.884
0.0938122 0.211961 0.884
0.0945562 0.212201 0.885
0.095194 0.212201 0.885
0.0959401 0.21244 0.886
0.0965787 0.21244 0.886
0.0972173 0.21244 0.886
0.0979663 0.21268 0.887
0.0987167 0.21292 0.888
0.0993567 0.21292 0.888
0.0999968 0.21292 0.888
0.10075 0.21316 0.889
0.101391 0.21316 0.889
0.102032 0.21316 0.889
0.102788 0.213399 0.89
0.103429 0.213399 0.89
0.104071 0.213399 0.89
0.10483 0.213639 0.891
0.105472 0.213639 0.891
0.106114 0.213639 0.891
0.106756 0.213639 0.891
0.107398 0.213639 0.891
0.108162 0.213879 0.892
0.108805 0.213879 0.892
0.109448 0.213879 0.892
0.110091 0.213879 0.892
0.110733 0.213879 0.892
0.111376 0.213879 0.892
0.112019 0.213879 0.892
0.112662 0.213879 0.892
0.113305 0.213879 0.892
0.113948 0.213879 0.892
0.114591 0.213879 0.892
-0.0270965 0.202016 0.84
-0.0264911 0.202016 0.84
-0.0258857 0.202016 0.84
-0.0252802 0.202016 0.84
-0.0246161 0.201535 0.838
-0.0240121 0.201535 0.838
-0.0234081 0.201535 0.838
-0.0227769 0.201295 0.837
-0.0221737 0.201295 0.837
-0.0215447 0.201054 0.836
-0.020892 0.200574 0.834
-0.020291 0.200574 0.834
-0.0196663 0.200333 0.833
-0.0190659 0.200333 0.833
-0.0184655 0.200333 0.833
-0.0178652 0.200333 0.833
-0.0172648 0.200333 0.833
-0.0166644 0.200333 0.833
-0.0160641 0.200333 0.833
-0.0154637 0.200333 0.833
-0.0148812 0.200574 0.834
-0.0142801 0.200574 0.834
-0.013679 0.200574 0.834
-0.0131093 0.201054 0.836
-0.0125217 0.201295 0.837
-0.0119184 0.201295 0.837
-0.0113287 0.201535 0.838
-0.0107375 0.201776 0.839
-0.0101328 0.201776 0.839
-0.0095395 0.202016 0.84
-0.00894473 0.202257 0.841
-0.00833859 0.202257 0.841
-0.00773246 0.202257 0.841
-0.00712632 0.202257 0.841
-0.00652794 0.202497 0.842
-0.00592109 0.202497 0.842
-0.00531424 0.202497 0.842
-0.00471297 0.202738 0.843
-0.0041054 0.202738 0.843
-0.00349782 0.202738 0.843
-0.00289368 0.202978 0.844
-0.00228538 0.202978 0.844
-0.00167708 0.202978 0.844
-0.00107005 0.203219 0.845
-0.000461037 0.203219 0.845
0.000147979 0.203219 0.845
0.000756996 0.203219 0.845
0.00136763 0.203459 0.846
0.00197737 0.203459 0.846
0.0025871 0.203459 0.846
0.00320062 0.2037 0.847
0.00381108 0.2037 0.847
0.00442154 0.2037 0.847
0.00503199 0.2037 0.847
0.00564245 0.2037 0.847
0.00625291 0.2037 0.847
0.00686337 0.2037 0.847
0.00747383 0.2037 0.847
0.00808428 0.2037 0.847
0.00869474 0.2037 0.847
0.0093052 0.2037 0.847
0.00991566 0.2037 0.847
0.0105385 0.20394 0.848
0.0111629 0.204181 0.849
0.0117748 0.204181 0.849
0.0123867 0.204181 0.849
0.0129986 0.204181 0.849
0.0136105 0.204181 0.849
0.0142391 0.204421 0.85
0.0148517 0.204421 0.85
0.0154644 0.204421 0.85
0.016077 0.204421 0.85
0.0166896 0.204421 0.85
0.0173226 0.204662 0.851
0.0179359 0.204662 0.851
0.0185493 0.204662 0.851
0.0191626 0.204662 0.851
0.0197759 0.204662 0.851
0.0204132 0.204902 0.852
0.0210273 0.204902 0.852
0.0216414 0.204902 0.852
0.0222815 0.205143 0.853
0.0228963 0.205143 0.853
0.0235111 0.205143 0.853
0.0241259 0.205143 0.853
0.0247697 0.205383 0.854
0.0253852 0.205383 0.854
0.0260007 0.205383 0.854
0.0266474 0.205624 0.855
0.0272955 0.205864 0.856
0.0279124 0.205864 0.856
0.0285294 0.205864 0.856
0.0291804 0.206105 0.857
0.029798 0.206105 0.857
0.0304512 0.206345 0.858
0.0311058 0.206586 0.859
0.0317618 0.206826 0.86
0.0323816 0.206826 0.86
0.0330398 0.207067 0.861
0.0336995 0.207307 0.862
0.0343208 0.207307 0.862
0.0349826 0.207548 0.863
0.0356045 0.207548 0.863
0.0362265 0.207548 0.863
0.0368485 0.207548 0.863
0.0374705 0.207548 0.863
0.0380925 0.207548 0.863
0.0387145 0.207548 0.863
0.0393365 0.207548 0.863
0.0400048 0.207788 0.864
0.0406275 0.207788 0.864
0.0412502 0.207788 0.864
0.0418729 0.207788 0.864
0.0424956 0.207788 0.864
0.0431183 0.207788 0.864
0.0437917 0.208029 0.865
0.0444151 0.208029 0.865
0.0450906 0.208269 0.866
0.0457147 0.208269 0.866
0.0463389 0.208269 0.866
0.0469631 0.208269 0.866
0.0476422 0.20851 0.867
0.048267 0.20851 0.867
0.0488919 0.20851 0.867
0.0495739 0.20875 0.868
0.0501995 0.20875 0.868
0.0508251 0.20875 0.868
0.0514507 0.20875 0.868
0.0521362 0.208991 0.869
0.0527626 0.208991 0.869
0.0533889 0.208991 0.869
0.0540774 0.209231 0.87
0.0547673 0.209472 0.871
0.055395 0.209472 0.871
0.0560871 0.209712 0.872
0.0567156 0.209712 0.872
0.057344 0.209712 0.872
0.058039 0.209953 0.873
0.0588026 0.210434 0.875
0.0594333 0.210434 0.875
0.0601325 0.210674 0.876
0.0608333 0.210915 0.877
0.0614653 0.210915 0.877
0.0620974 0.210915 0.877
0.0627295 0.210915 0.877
0.0634338 0.211155 0.878
0.0640666 0.211155 0.878
0.0646994 0.211155 0.878
0.0653322 0.211155 0.878
0.065965 0.211155 0.878
0.066522 0.210915 0.877
0.0671541 0.210915 0.877
0.0677861 0.210915 0.877
0.0684182 0.210915 0.877
0.0690503 0.210915 0.877
0.0696029 0.210674 0.876
0.0702343 0.210674 0.876
0.0708656 0.210674 0.876
0.071497 0.210674 0.876
0.072046 0.210434 0.875
0.0726767 0.210434 0.875
0.0733073 0.210434 0.875
0.0739379 0.210434 0.875
0.0745686 0.210434 0.875
0.0752852 0.210674 0.876
0.0759165 0.210674 0.876
0.0765479 0.210674 0.876
0.0771792 0.210674 0.876
0.0778106 0.210674 0.876
0.0785315 0.210915 0.877
0.0791636 0.210915 0.877
0.0797957 0.210915 0.877
0.0805194 0.211155 0.878
0.0812447 0.211396 0.879
0.0818782 0.211396 0.879
0.0825117 0.211396 0.879
0.0832398 0.211636 0.88
0.0839694 0.211877 0.881
0.0846043 0.211877 0.881
0.0852393 0.211877 0.881
0.0858743 0.211877 0.881
0.0865092 0.211877 0.881
0.0872431 0.212117 0.882
0.0879784 0.212358 0.883
0.0886148 0.212358 0.883
0.0892512 0.212358 0.883
0.0899894 0.212598 0.884
0.0906266 0.212598 0.884
0.0912637 0.212598 0.884
0.0919008 0.212598 0.884
0.0926426 0.212839 0.885
0.0932805 0.212839 0.885
0.0940244 0.213079 0.886
0.094663 0.213079 0.886
0.0953016 0.213079 0.886
0.0960484 0.21332 0.887
0.0967967 0.21356 0.888
0.0974367 0.21356 0.888
0.0980767 0.21356 0.888
0.0987167 0.21356 0.888
0.0993567 0.21356 0.888
0.0999968 0.21356 0.888
0.10075 0.213801 0.889
0.101391 0.213801 0.889
0.102032 0.213801 0.889
0.102788 0.214041 0.89
0.103429 0.214041 0.89
0.104071 0.214041 0.89
0.10483 0.214282 0.891
0.105472 0.214282 0.891
0.106114 0.214282 0.891
0.106756 0.214282 0.891
0.107398 0.214282 0.891
0.108162 0.214522 0.892
0.108805 0.214522 0.892
0.109448 0.214522 0.892
0.110091 0.214522 0.892
0.110733 0.214522 0.892
0.111376 0.214522 0.892
0.112019 0.214522 0.892
0.112662 0.214522 0.892
0.113305 0.214522 0.892
0.113948 0.214522 0.892
0.114591 0.214522 0.892
-0.0270965 0.202622 0.84
-0.0264911 0.202622 0.84
-0.0258857 0.202622 0.84
-0.0252802 0.202622 0.84
-0.0246161 0.20214 0.838
-0.0240121 0.20214 0.838
-0.0234081 0.20214 0.838
-0.0215447 0.201657 0.836
-0.020892 0.201175 0.834
-0.020291 0.201175 0.834
-0.0196663 0.200934 0.833
-0.0190659 0.200934 0.833
-0.0184655 0.200934 0.833
-0.0178652 0.200934 0.833
-0.0172648 0.200934 0.833
-0.0166644 0.200934 0.833
-0.0160641 0.200934 0.833
-0.0154637 0.200934 0.833
-0.0148812 0.201175 0.834
-0.0142801 0.201175 0.834
-0.013679 0.201175 0.834
-0.0131093 0.201657 0.836
-0.0125217 0.201899 0.837
-0.0119184 0.201899 0.837
-0.0113287 0.20214 0.838
-0.0107375 0.202381 0.839
-0.0101328 0.202381 0.839
-0.0095395 0.202622 0.84
-0.00894473 0.202863 0.841
-0.00833859 0.202863 0.841
-0.00773246 0.202863 0.841
-0.00712632 0.202863 0.841
-0.00652794 0.203105 0.842
-0.00592109 0.203105 0.842
-0.00531424 0.203105 0.842
-0.00471297 0.203346 0.843
-0.0041054 0.203346 0.843
-0.00349782 0.203346 0.843
-0.00289368 0.203587 0.844
-0.00228538 0.203587 0.844
-0.00167708 0.203587 0.844
-0.00107005 0.203828 0.845
-0.000461037 0.203828 0.845
0.000147979 0.203828 0.845
0.000756996 0.203828 0.845
0.00136763 0.20407 0.846
0.00197737 0.20407 0.846
0.0025871 0.20407 0.846
0.00320062 0.204311 0.847
0.00381108 0.204311 0.847
0.00442154 0.204311 0.847
0.00503199 0.204311 0.847
0.00564245 0.204311 0.847
0.00625291 0.204311 0.847
0.00686337 0.204311 0.847
0.00747383 0.204311 0.847
0.00808428 0.204311 0.847
0.00869474 0.204311 0.847
0.0093052 0.204311 0.847
0.00991566 0.204311 0.847
0.0105385 0.204552 0.848
0.0111629 0.204793 0.849
0.0117748 0.204793 0.849
0.0123867 0.204793 0.849
0.0129986 0.204793 0.849
0.0136105 0.204793 0.849
0.0142391 0.205034 0.85
0.0148517 0.205034 0.85
0.0154644 0.205034 0.85
0.016077 0.205034 0.85
0.0167092 0.205276 0.851
0.0173226 0.205276 0.851
0.0179359 0.205276 0.851
0.0185711 0.205517 0.852
0.0191851 0.205517 0.852
0.0197992 0.205517 0.852
0.0204132 0.205517 0.852
0.021052 0.205758 0.853
0.0216668 0.205758 0.853
0.0222815 0.205758 0.853
0.0228963 0.205758 0.853
0.0235387 0.205999 0.854
0.0241542 0.205999 0.854
0.0247697 0.205999 0.854
0.0253852 0.205999 0.854
0.0260007 0.205999 0.854
0.0266474 0.206241 0.855
0.0272955 0.206482 0.856
0.0279124 0.206482 0.856
0.0285294 0.206482 0.856
0.0291804 0.206723 0.857
0.029798 0.206723 0.857
0.0304512 0.206964 0.858
0.0311058 0.207205 0.859
0.0317618 0.207447 0.86
0.0323816 0.207447 0.86
0.0330398 0.207688 0.861
0.0336995 0.207929 0.862
0.0343208 0.207929 0.862
0.034942 0.207929 0.862
0.0355633 0.207929 0.862
0.0361846 0.207929 0.862
0.0368485 0.20817 0.863
0.0374705 0.20817 0.863
0.0380925 0.20817 0.863
0.0387145 0.20817 0.863
0.0393365 0.20817 0.863
0.0399585 0.20817 0.863
0.0405805 0.20817 0.863
0.0412502 0.208411 0.864
0.0418729 0.208411 0.864
0.0424956 0.208411 0.864
0.0431183 0.208411 0.864
0.0437917 0.208653 0.865
0.0444151 0.208653 0.865
0.0450385 0.208653 0.865
0.0457147 0.208894 0.866
0.0463389 0.208894 0.866
0.0469631 0.208894 0.866
0.0475872 0.208894 0.866
0.048267 0.209135 0.867
0.0488919 0.209135 0.867
0.0495739 0.209376 0.868
0.0501995 0.209376 0.868
0.0508251 0.209376 0.868
0.0514507 0.209376 0.868
0.0521362 0.209618 0.869
0.0527626 0.209618 0.869
0.0533889 0.209618 0.869
0.0540774 0.209859 0.87
0.0547673 0.2101 0.871
0.055395 0.2101 0.871
0.0560871 0.210341 0.872
0.0567156 0.210341 0.872
0.057344 0.210341 0.872
0.058039 0.210582 0.873
0.0588026 0.211065 0.875
0.0594333 0.211065 0.875
0.0601325 0.211306 0.876
0.0608333 0.211547 0.877
0.0614653 0.211547 0.877
0.0620974 0.211547 0.877
0.0627295 0.211547 0.877
0.0634338 0.211789 0.878
0.0640666 0.211789 0.878
0.0646994 0.211789 0.878
0.0653322 0.211789 0.878
0.065965 0.211789 0.878
0.066522 0.211547 0.877
0.0671541 0.211547 0.877
0.0677861 0.211547 0.877
0.0684182 0.211547 0.877
0.0690503 0.211547 0.877
0.0696029 0.211306 0.876
0.0702343 0.211306 0.876
0.0708656 0.211306 0.876
0.071497 0.211306 0.876
0.072046 0.211065 0.875
0.0726767 0.211065 0.875
0.0733073 0.211065 0.875
0.0739379 0.211065 0.875
0.0745686 0.211065 0.875
0.0751992 0.211065 0.875
0.0758298 0.211065 0.875
0.0764605 0.211065 0.875
0.0771792 0.211306 0.876
0.0778106 0.211306 0.876
0.0785315 0.211547 0.877
0.0791636 0.211547 0.877
0.0797957 0.211547 0.877
0.0805194 0.211789 0.878
0.0812447 0.21203 0.879
0.0818782 0.21203 0.879
0.0825117 0.21203 0.879
0.0832398 0.212271 0.88
0.0839694 0.212512 0.881
0.0846043 0.212512 0.881
0.0852393 0.212512 0.881
0.0858743 0.212512 0.881
0.0865092 0.212512 0.881
0.0872431 0.212753 0.882
0.0879784 0.212995 0.883
0.0886148 0.212995 0.883
0.0892512 0.212995 0.883
0.0899894 0.213236 0.884
0.0906266 0.213236 0.884
0.0912637 0.213236 0.884
0.0919008 0.213236 0.884
0.0926426 0.213477 0.885
0.0932805 0.213477 0.885
0.0940244 0.213718 0.886
0.094663 0.213718 0.886
0.0953016 0.213718 0.886
0.0960484 0.213959 0.887
0.0967967 0.214201 0.888
0.0974367 0.214201 0.888
0.0980767 0.214201 0.888
0.0988279 0.214442 0.889
0.0994686 0.214442 0.889
0.100109 0.214442 0.889
0.100863 0.214683 0.89
0.101505 0.214683 0.89
0.102146 0.214683 0.89
0.102788 0.214683 0.89
0.103545 0.214924 0.891
0.104188 0.214924 0.891
0.10483 0.214924 0.891
0.105472 0.214924 0.891
0.106114 0.214924 0.891
0.106876 0.215166 0.892
0.107519 0.215166 0.892
0.108162 0.215166 0.892
0.108805 0.215166 0.892
0.10957 0.215407 0.893
0.110214 0.215407 0.893
0.110858 0.215407 0.893
0.111501 0.215407 0.893
0.112145 0.215407 0.893
0.112788 0.215407 0.893
0.113432 0.215407 0.893
0.114076 0.215407 0.893
0.114719 0.215407 0.893
-0.027603 0.202502 0.837
-0.0269997 0.202502 0.837
-0.0263965 0.202502 0.837
-0.0257932 0.202502 0.837
-0.02519 0.202502 0.837
-0.0245867 0.202502 0.837
-0.0239835 0.202502 0.837
-0.0233802 0.202502 0.837
-0.0215189 0.202018 0.835
-0.020892 0.201776 0.834
-0.020291 0.201776 0.834
-0.0196663 0.201535 0.833
-0.0190659 0.201535 0.833
-0.0184655 0.201535 0.833
-0.0178652 0.201535 0.833
-0.0172441 0.201293 0.832
-0.0166444 0.201293 0.832
-0.0160448 0.201293 0.832
-0.0154637 0.201535 0.833
-0.0148633 0.201535 0.833
-0.0142801 0.201776 0.834
-0.013679 0.201776 0.834
-0.0130936 0.202018 0.835
-0.0125067 0.20226 0.836
-0.0119042 0.20226 0.836
-0.0113287 0.202744 0.838
-0.0107375 0.202986 0.839
-0.0101328 0.202986 0.839
-0.00952815 0.202986 0.839
-0.00893409 0.203228 0.84
-0.00833859 0.20347 0.841
-0.00773246 0.20347 0.841
-0.00712632 0.20347 0.841
-0.00652019 0.20347 0.841
-0.00591406 0.20347 0.841
-0.00531424 0.203712 0.842
-0.00471297 0.203954 0.843
-0.0041054 0.203954 0.843
-0.00349782 0.203954 0.843
-0.00289368 0.204196 0.844
-0.00228538 0.204196 0.844
-0.00167708 0.204196 0.844
-0.00107005 0.204438 0.845
-0.000461037 0.204438 0.845
0.000147979 0.204438 0.845
0.000756996 0.204438 0.845
0.00136763 0.20468 0.846
0.00197737 0.20468 0.846
0.0025871 0.20468 0.846
0.00320062 0.204922 0.847
0.00381108 0.204922 0.847
0.00442154 0.204922 0.847
0.00503199 0.204922 0.847
0.00564245 0.204922 0.847
0.00625291 0.204922 0.847
0.00686337 0.204922 0.847
0.00747383 0.204922 0.847
0.00808428 0.204922 0.847
0.00869474 0.204922 0.847
0.0093052 0.204922 0.847
0.00991566 0.204922 0.847
0.0105385 0.205164 0.848
0.0111497 0.205164 0.848
0.0117609 0.205164 0.848
0.0123867 0.205406 0.849
0.0129986 0.205406 0.849
0.0136105 0.205406 0.849
0.0142391 0.205647 0.85
0.0148517 0.205647 0.85
0.0154644 0.205647 0.85
0.016077 0.205647 0.85
0.0167092 0.205889 0.851
0.0173226 0.205889 0.851
0.0179359 0.205889 0.851
0.0185711 0.206131 0.852
0.0191851 0.206131 0.852
0.0197992 0.206131 0.852
0.0204132 0.206131 0.852
0.021052 0.206373 0.853
0.0216668 0.206373 0.853
0.0222815 0.206373 0.853
0.0228963 0.206373 0.853
0.0235387 0.206615 0.854
0.0241542 0.206615 0.854
0.0247697 0.206615 0.854
0.0253852 0.206615 0.854
0.0260007 0.206615 0.854
0.0266474 0.206857 0.855
0.0272955 0.207099 0.856
0.0279124 0.207099 0.856
0.0285294 0.207099 0.856
0.0291804 0.207341 0.857
0.029798 0.207341 0.857
0.0304512 0.207583 0.858
0.0311058 0.207825 0.859
0.0317618 0.208067 0.86
0.0323816 0.208067 0.86
0.0330015 0.208067 0.86
0.0336604 0.208309 0.861
0.0342809 0.208309 0.861
0.0349015 0.208309 0.861
0.035522 0.208309 0.861
0.0361426 0.208309 0.861
0.0368058 0.208551 0.862
0.0374271 0.208551 0.862
0.0380484 0.208551 0.862
0.0386696 0.208551 0.862
0.0393365 0.208793 0.863
0.0399585 0.208793 0.863
0.0405805 0.208793 0.863
0.0412025 0.208793 0.863
0.0418729 0.209035 0.864
0.0424956 0.209035 0.864
0.0431183 0.209035 0.864
0.043741 0.209035 0.864
0.0443637 0.209035 0.864
0.0450385 0.209277 0.865
0.045662 0.209277 0.865
0.0462854 0.209277 0.865
0.0469631 0.209518 0.866
0.0475872 0.209518 0.866
0.048267 0.20976 0.867
0.0488919 0.20976 0.867
0.0495168 0.20976 0.867
0.0501995 0.210002 0.868
0.0508251 0.210002 0.868
0.0514507 0.210002 0.868
0.0521362 0.210244 0.869
0.0527626 0.210244 0.869
0.0534503 0.210486 0.87
0.0541395 0.210728 0.871
0.0548301 0.21097 0.872
0.0554586 0.21097 0.872
0.0561514 0.211212 0.873
0.0568457 0.211454 0.874
0.0574756 0.211454 0.874
0.058172 0.211696 0.875
0.0588698 0.211938 0.876
0.0595012 0.211938 0.876
0.0602012 0.21218 0.877
0.0608333 0.21218 0.877
0.0615354 0.212422 0.878
0.0621682 0.212422 0.878
0.062801 0.212422 0.878
0.0634338 0.212422 0.878
0.0640666 0.212422 0.878
0.0646994 0.212422 0.878
0.0653322 0.212422 0.878
0.065965 0.212422 0.878
0.0665978 0.212422 0.878
0.0672306 0.212422 0.878
0.0677861 0.21218 0.877
0.0684182 0.21218 0.877
0.0690503 0.21218 0.877
0.0696824 0.21218 0.877
0.0703145 0.21218 0.877
0.0709465 0.21218 0.877
0.071497 0.211938 0.876
0.0721284 0.211938 0.876
0.0726767 0.211696 0.875
0.0733073 0.211696 0.875
0.0739379 0.211696 0.875
0.0745686 0.211696 0.875
0.0751992 0.211696 0.875
0.0758298 0.211696 0.875
0.0764605 0.211696 0.875
0.0771792 0.211938 0.876
0.0778106 0.211938 0.876
0.0785315 0.21218 0.877
0.0791636 0.21218 0.877
0.0797957 0.21218 0.877
0.0805194 0.212422 0.878
0.0812447 0.212664 0.879
0.0818782 0.212664 0.879
0.0825117 0.212664 0.879
0.0832398 0.212906 0.88
0.0839694 0.213148 0.881
0.0846043 0.213148 0.881
0.0852393 0.213148 0.881
0.0859717 0.213389 0.882
0.0866074 0.213389 0.882
0.087342 0.213631 0.883
0.0879784 0.213631 0.883
0.0886148 0.213631 0.883
0.0893523 0.213873 0.884
0.0900912 0.214115 0.885
0.0907291 0.214115 0.885
0.0913669 0.214115 0.885
0.0921087 0.214357 0.886
0.092852 0.214599 0.887
0.0934913 0.214599 0.887
0.0941306 0.214599 0.887
0.0948767 0.214841 0.888
0.0955167 0.214841 0.888
0.0961567 0.214841 0.888
0.0969057 0.215083 0.889
0.0975465 0.215083 0.889
0.0981872 0.215083 0.889
0.0989391 0.215325 0.89
0.0995805 0.215325 0.89
0.100222 0.215325 0.89
0.100977 0.215567 0.891
0.101619 0.215567 0.891
0.102261 0.215567 0.891
0.102903 0.215567 0.891
0.103545 0.215567 0.891
0.104188 0.215567 0.891
0.10483 0.215567 0.891
0.10559 0.215809 0.892
0.106233 0.215809 0.892
0.106876 0.215809 0.892
0.10764 0.216051 0.893
0.108283 0.216051 0.893
0.108927 0.216051 0.893
0.10957 0.216051 0.893
0.110214 0.216051 0.893
0.110858 0.216051 0.893
0.111501 0.216051 0.893
0.11227 0.216293 0.894
0.112788 0.216051 0.893
0.113432 0.216051 0.893
0.114203 0.216293 0.894
0.114848 0.216293 0.894
-0.0272732 0.200679 0.827
-0.0266771 0.200679 0.827
-0.0262072 0.20165 0.831
-0.0256083 0.20165 0.831
-0.0250696 0.202135 0.833
-0.0245573 0.202863 0.836
-0.0239548 0.202863 0.836
-0.0233523 0.202863 0.836
-0.0227497 0.202863 0.836
-0.0215189 0.202621 0.835
-0.020892 0.202378 0.834
-0.020291 0.202378 0.834
-0.0196663 0.202135 0.833
-0.0190659 0.202135 0.833
-0.0184655 0.202135 0.833
-0.0178652 0.202135 0.833
-0.0172441 0.201893 0.832
-0.0166444 0.201893 0.832
-0.0160448 0.201893 0.832
-0.0154451 0.201893 0.832
-0.0148633 0.202135 0.833
-0.0142801 0.202378 0.834
-0.013679 0.202378 0.834
-0.0130936 0.202621 0.835
-0.0125067 0.202863 0.836
-0.0119042 0.202863 0.836
-0.0113152 0.203106 0.837
-0.0107375 0.203591 0.839
-0.0101328 0.203591 0.839
-0.00952815 0.203591 0.839
-0.00893409 0.203834 0.84
-0.00833859 0.204077 0.841
-0.00773246 0.204077 0.841
-0.00712632 0.204077 0.841
-0.00652019 0.204077 0.841
-0.00591406 0.204077 0.841
-0.00531424 0.204319 0.842
-0.00471297 0.204562 0.843
-0.0041054 0.204562 0.843
-0.00349782 0.204562 0.843
-0.00289368 0.204805 0.844
-0.00228538 0.204805 0.844
-0.00167708 0.204805 0.844
-0.00107005 0.205047 0.845
-0.000461037 0.205047 0.845
0.000147979 0.205047 0.845
0.000757892 0.20529 0.846
0.00136763 0.20529 0.846
0.00197737 0.20529 0.846
0.0025871 0.20529 0.846
0.00320062 0.205533 0.847
0.00381108 0.205533 0.847
0.00442154 0.205533 0.847
0.00503199 0.205533 0.847
0.00564245 0.205533 0.847
0.00625291 0.205533 0.847
0.00686337 0.205533 0.847
0.00747383 0.205533 0.847
0.00808428 0.205533 0.847
0.00869474 0.205533 0.847
0.0093052 0.205533 0.847
0.00991566 0.205533 0.847
0.0105385 0.205775 0.848
0.0111497 0.205775 0.848
0.0117609 0.205775 0.848
0.0123867 0.206018 0.849
0.0129986 0.206018 0.849
0.0136105 0.206018 0.849
0.0142391 0.20626 0.85
0.0148517 0.20626 0.85
0.0154644 0.20626 0.85
0.016077 0.20626 0.85
0.0167092 0.206503 0.851
0.0173226 0.206503 0.851
0.0179359 0.206503 0.851
0.0185711 0.206746 0.852
0.0191851 0.206746 0.852
0.0197992 0.206746 0.852
0.0204372 0.206988 0.853
0.021052 0.206988 0.853
0.0216668 0.206988 0.853
0.0222815 0.206988 0.853
0.0229232 0.207231 0.854
0.0235387 0.207231 0.854
0.0241542 0.207231 0.854
0.0247697 0.207231 0.854
0.0254149 0.207474 0.855
0.0260311 0.207474 0.855
0.0266474 0.207474 0.855
0.0272955 0.207716 0.856
0.0279124 0.207716 0.856
0.0285294 0.207716 0.856
0.0291804 0.207959 0.857
0.029798 0.207959 0.857
0.0304512 0.208202 0.858
0.0310696 0.208202 0.858
0.0317249 0.208444 0.859
0.032344 0.208444 0.859
0.0330015 0.208687 0.86
0.0336213 0.208687 0.86
0.0342411 0.208687 0.86
0.0348609 0.208687 0.86
0.0354808 0.208687 0.86
0.0361006 0.208687 0.86
0.0367631 0.20893 0.861
0.0373837 0.20893 0.861
0.0380042 0.20893 0.861
0.0386248 0.20893 0.861
0.0392453 0.20893 0.861
0.0399122 0.209172 0.862
0.0405334 0.209172 0.862
0.0411547 0.209172 0.862
0.0418244 0.209415 0.863
0.0424464 0.209415 0.863
0.0430684 0.209415 0.863
0.043741 0.209658 0.864
0.0443637 0.209658 0.864
0.0450385 0.2099 0.865
0.045662 0.2099 0.865
0.0462854 0.2099 0.865
0.0469631 0.210143 0.866
0.0475872 0.210143 0.866
0.048267 0.210386 0.867
0.0488919 0.210386 0.867
0.0495168 0.210386 0.867
0.0501995 0.210628 0.868
0.0508251 0.210628 0.868
0.0515099 0.210871 0.869
0.0521362 0.210871 0.869
0.0527626 0.210871 0.869
0.0534503 0.211114 0.87
0.0541395 0.211356 0.871
0.0548301 0.211599 0.872
0.0554586 0.211599 0.872
0.0561514 0.211842 0.873
0.0568457 0.212084 0.874
0.0574756 0.212084 0.874
0.058172 0.212327 0.875
0.0588698 0.21257 0.876
0.0595012 0.21257 0.876
0.0602012 0.212812 0.877
0.0609026 0.213055 0.878
0.0615354 0.213055 0.878
0.0621682 0.213055 0.878
0.062801 0.213055 0.878
0.0634338 0.213055 0.878
0.0640666 0.213055 0.878
0.0646994 0.213055 0.878
0.0653322 0.213055 0.878
0.065965 0.213055 0.878
0.0665978 0.213055 0.878
0.0672306 0.213055 0.878
0.0678634 0.213055 0.878
0.0684182 0.212812 0.877
0.0690503 0.212812 0.877
0.0696824 0.212812 0.877
0.0703145 0.212812 0.877
0.0709465 0.212812 0.877
0.071497 0.21257 0.876
0.0721284 0.21257 0.876
0.0727597 0.21257 0.876
0.0733911 0.21257 0.876
0.0740224 0.21257 0.876
0.0746538 0.21257 0.876
0.0752852 0.21257 0.876
0.0759165 0.21257 0.876
0.0765479 0.21257 0.876
0.0771792 0.21257 0.876
0.0778106 0.21257 0.876
0.0785315 0.212812 0.877
0.0791636 0.212812 0.877
0.0797957 0.212812 0.877
0.0805194 0.213055 0.878
0.0812447 0.213298 0.879
0.0819713 0.21354 0.88
0.0826056 0.21354 0.88
0.0832398 0.21354 0.88
0.0839694 0.213783 0.881
0.0846043 0.213783 0.881
0.0853361 0.214026 0.882
0.0860692 0.214268 0.883
0.0867056 0.214268 0.883
0.0874409 0.214511 0.884
0.0880781 0.214511 0.884
0.0887152 0.214511 0.884
0.0893523 0.214511 0.884
0.0900912 0.214754 0.885
0.0908316 0.214996 0.886
0.0914702 0.214996 0.886
0.0922127 0.215239 0.887
0.0929567 0.215482 0.888
0.0935967 0.215482 0.888
0.0943428 0.215724 0.889
0.0949835 0.215724 0.889
0.0956243 0.215724 0.889
0.0963733 0.215967 0.89
0.0970147 0.215967 0.89
0.0977659 0.21621 0.891
0.0984081 0.21621 0.891
0.0990502 0.21621 0.891
0.0996924 0.21621 0.891
0.100335 0.21621 0.891
0.100977 0.21621 0.891
0.101619 0.21621 0.891
0.102261 0.21621 0.891
0.102903 0.21621 0.891
0.103662 0.216452 0.892
0.104305 0.216452 0.892
0.104947 0.216452 0.892
0.105709 0.216695 0.893
0.106352 0.216695 0.893
0.106996 0.216695 0.893
0.10764 0.216695 0.893
0.108283 0.216695 0.893
0.108927 0.216695 0.893
0.109693 0.216938 0.894
0.110337 0.216938 0.894
0.110982 0.216938 0.894
0.111626 0.216938 0.894
0.11227 0.216938 0.894
0.112915 0.216938 0.894
0.113559 0.216938 0.894
0.114203 0.216938 0.894
0.114848 0.216938 0.894
-0.0310652 0.198842 0.817
-0.0304764 0.198842 0.817
-0.0299242 0.199085 0.818
-0.0293346 0.199085 0.818
-0.028745 0.199085 0.818
-0.0281899 0.199329 0.819
-0.0275996 0.199329 0.819
-0.0270753 0.199815 0.821
-0.0266126 0.200789 0.825
-0.0261126 0.201519 0.828
-0.0255159 0.201519 0.828
-0.0250094 0.202249 0.831
-0.0244986 0.202979 0.834
-0.0238975 0.202979 0.834
-0.0232964 0.202979 0.834
-0.0227497 0.203466 0.836
-0.0215189 0.203223 0.835
-0.020892 0.202979 0.834
-0.020291 0.202979 0.834
-0.0196663 0.202736 0.833
-0.0190659 0.202736 0.833
-0.0184655 0.202736 0.833
-0.0178652 0.202736 0.833
-0.0172441 0.202493 0.832
-0.0166444 0.202493 0.832
-0.0160448 0.202493 0.832
-0.0154451 0.202493 0.832
-0.0148633 0.202736 0.833
-0.0142801 0.202979 0.834
-0.013679 0.202979 0.834
-0.0130936 0.203223 0.835
-0.0125067 0.203466 0.836
-0.0119042 0.203466 0.836
-0.0113152 0.20371 0.837
-0.0107375 0.204196 0.839
-0.0101328 0.204196 0.839
-0.00952815 0.204196 0.839
-0.00893409 0.20444 0.84
-0.00833859 0.204683 0.841
-0.00773246 0.204683 0.841
-0.00712632 0.204683 0.841
-0.00652019 0.204683 0.841
-0.00591406 0.204683 0.841
-0.00531424 0.204926 0.842
-0.00471297 0.20517 0.843
-0.0041054 0.20517 0.843
-0.00350197 0.205413 0.844
-0.00289368 0.205413 0.844
-0.00228538 0.205413 0.844
-0.00167708 0.205413 0.844
-0.00107005 0.205657 0.845
-0.000461583 0.2059 0.846
0.000148155 0.2059 0.846
0.000757892 0.2059 0.846
0.00136763 0.2059 0.846
0.00197737 0.2059 0.846
0.0025871 0.2059 0.846
0.00320062 0.206143 0.847
0.00381108 0.206143 0.847
0.00442154 0.206143 0.847
0.00503199 0.206143 0.847
0.00564245 0.206143 0.847
0.00625291 0.206143 0.847
0.00686337 0.206143 0.847
0.00747383 0.206143 0.847
0.00808428 0.206143 0.847
0.00869474 0.206143 0.847
0.0093052 0.206143 0.847
0.00991566 0.206143 0.847
0.0105385 0.206387 0.848
0.0111497 0.206387 0.848
0.0117609 0.206387 0.848
0.0123867 0.20663 0.849
0.0129986 0.20663 0.849
0.0136105 0.20663 0.849
0.0142391 0.206874 0.85
0.0148517 0.206874 0.85
0.0154826 0.207117 0.851
0.0160959 0.207117 0.851
0.0167092 0.207117 0.851
0.0173429 0.20736 0.852
0.017957 0.20736 0.852
0.0185711 0.20736 0.852
0.0192076 0.207604 0.853
0.0198224 0.207604 0.853
0.0204372 0.207604 0.853
0.021052 0.207604 0.853
0.0216668 0.207604 0.853
0.0223077 0.207847 0.854
0.0229232 0.207847 0.854
0.0235662 0.20809 0.855
0.0241825 0.20809 0.855
0.0247987 0.20809 0.855
0.0254149 0.20809 0.855
0.0260311 0.20809 0.855
0.0266785 0.208334 0.856
0.0272955 0.208334 0.856
0.0279124 0.208334 0.856
0.0285294 0.208334 0.856
0.0291804 0.208577 0.857
