0.0694566 0.310226 0.851
0.0699876 0.309861 0.85
0.0706002 0.309861 0.85
0.0712128 0.309861 0.85
0.0718254 0.309861 0.85
0.072438 0.309861 0.85
0.0729647 0.309496 0.849
0.0735766 0.309496 0.849
0.0741885 0.309496 0.849
0.0748004 0.309496 0.849
0.0754123 0.309496 0.849
0.0761138 0.309861 0.85
0.0767264 0.309861 0.85
0.077339 0.309861 0.85
0.0780433 0.310226 0.851
0.0787491 0.31059 0.852
0.0793632 0.31059 0.852
0.0800711 0.310955 0.853
0.0806859 0.310955 0.853
0.0813007 0.310955 0.853
0.0819154 0.310955 0.853
0.082627 0.311319 0.854
0.0832425 0.311319 0.854
0.083858 0.311319 0.854
0.0845724 0.311684 0.855
0.0851886 0.311684 0.855
0.0858048 0.311684 0.855
0.0865222 0.312048 0.856
0.0871391 0.312048 0.856
0.087756 0.312048 0.856
0.088373 0.312048 0.856
0.0889899 0.312048 0.856
0.0896069 0.312048 0.856
0.0902238 0.312048 0.856
0.0908408 0.312048 0.856
0.0914577 0.312048 0.856
0.0920747 0.312048 0.856
0.0926916 0.312048 0.856
0.0933085 0.312048 0.856
0.0939255 0.312048 0.856
0.0945424 0.312048 0.856
0.0951594 0.312048 0.856
0.0957763 0.312048 0.856
0.0963933 0.312048 0.856
0.0970102 0.312048 0.856
0.0976272 0.312048 0.856
0.0984736 0.312777 0.858
0.0992075 0.313142 0.859
0.0998266 0.313142 0.859
0.100563 0.313506 0.86
0.101418 0.314236 0.862
0.102513 0.315694 0.866
0.103137 0.315694 0.866
0.104001 0.316423 0.868
0.105711 0.319704 0.877
0.106343 0.319704 0.877
0.106975 0.319704 0.877
0.10773 0.320068 0.878
0.108733 0.321162 0.881
0.109368 0.321162 0.881
0.110253 0.321891 0.883
0.11114 0.32262 0.885
0.111904 0.322985 0.886
0.112543 0.322985 0.886
0.113437 0.323714 0.888
0.114077 0.323714 0.888
0.114717 0.323714 0.888
0.115487 0.324078 0.889
0.116258 0.324443 0.89
0.1169 0.324443 0.89
-0.0779706 0.347366 0.951
-0.0772852 0.347366 0.951
-0.0765998 0.347366 0.951
-0.0758346 0.347 0.95
-0.0750708 0.346635 0.949
-0.0743868 0.346635 0.949
-0.0737028 0.346635 0.949
-0.0730189 0.346635 0.949
-0.0723349 0.346635 0.949
-0.0715754 0.34627 0.948
-0.0708922 0.34627 0.948
-0.0702089 0.34627 0.948
-0.0695257 0.34627 0.948
-0.0687698 0.345905 0.947
-0.0680873 0.345905 0.947
-0.0673335 0.345539 0.946
-0.0666517 0.345539 0.946
-0.0659699 0.345539 0.946
-0.0652191 0.345174 0.945
-0.0644697 0.344809 0.944
-0.0637894 0.344809 0.944
-0.0630421 0.344444 0.943
-0.0622302 0.343713 0.941
-0.061552 0.343713 0.941
-0.0607444 0.342983 0.939
-0.0600037 0.342617 0.938
-0.0593276 0.342617 0.938
-0.0585891 0.342252 0.937
-0.0577901 0.341522 0.935
-0.0571163 0.341522 0.935
-0.056382 0.341156 0.934
-0.0557088 0.341156 0.934
-0.0550357 0.341156 0.934
-0.0464609 0.31924 0.874
-0.0457785 0.318875 0.873
-0.0451493 0.318875 0.873
-0.0444691 0.31851 0.872
-0.0438406 0.31851 0.872
-0.0432122 0.31851 0.872
-0.0425837 0.31851 0.872
-0.0419552 0.31851 0.872
-0.0413267 0.31851 0.872
-0.0406982 0.31851 0.872
-0.0400238 0.318145 0.871
-0.0393961 0.318145 0.871
-0.0387683 0.318145 0.871
-0.0381406 0.318145 0.871
-0.0375128 0.318145 0.871
-0.036885 0.318145 0.871
-0.0362573 0.318145 0.871
-0.0355886 0.317779 0.87
-0.0349616 0.317779 0.87
-0.0343346 0.317779 0.87
-0.0336688 0.317414 0.869
-0.0330425 0.317414 0.869
-0.0323788 0.317049 0.868
-0.0317533 0.317049 0.868
-0.0311277 0.317049 0.868
-0.0305021 0.317049 0.868
-0.0298421 0.316684 0.867
-0.0292172 0.316684 0.867
-0.0285593 0.316318 0.866
-0.0279352 0.316318 0.866
-0.027311 0.316318 0.866
-0.0266252 0.315588 0.864
-0.0260025 0.315588 0.864
-0.0253798 0.315588 0.864
-0.0247285 0.315223 0.863
-0.0241065 0.315223 0.863
-0.0234573 0.314857 0.862
-0.022836 0.314857 0.862
-0.0222147 0.314857 0.862
-0.0215935 0.314857 0.862
-0.0209722 0.314857 0.862
-0.0203509 0.314857 0.862
-0.0197297 0.314857 0.862
-0.0191084 0.314857 0.862
-0.0184871 0.314857 0.862
-0.0178658 0.314857 0.862
-0.0172446 0.314857 0.862
-0.0166233 0.314857 0.862
-0.0160206 0.315223 0.863
-0.0153986 0.315223 0.863
-0.0147766 0.315223 0.863
-0.014171 0.315588 0.864
-0.0135483 0.315588 0.864
-0.0129406 0.315953 0.865
-0.0123171 0.315953 0.865
-0.0117072 0.316318 0.866
-0.0110831 0.316318 0.866
-0.0104589 0.316318 0.866
-0.00984613 0.316684 0.867
-0.00922126 0.316684 0.867
-0.00859638 0.316684 0.867
-0.00797151 0.316684 0.867
-0.00734664 0.316684 0.867
-0.00672177 0.316684 0.867
-0.00609689 0.316684 0.867
-0.00547202 0.316684 0.867
-0.00484715 0.316684 0.867
-0.00421741 0.316318 0.866
-0.00359325 0.316318 0.866
-0.0029691 0.316318 0.866
-0.00234495 0.316318 0.866
-0.0017208 0.316318 0.866
-0.00109665 0.316318 0.866
-0.000472495 0.316318 0.866
0.000151657 0.316318 0.866
0.000775809 0.316318 0.866
0.00139996 0.316318 0.866
0.00202411 0.316318 0.866
0.00264826 0.316318 0.866
0.00327242 0.316318 0.866
0.00389657 0.316318 0.866
0.00452072 0.316318 0.866
0.00514487 0.316318 0.866
0.00576902 0.316318 0.866
0.00639318 0.316318 0.866
0.00701733 0.316318 0.866
0.00764148 0.316318 0.866
0.00826563 0.316318 0.866
0.00888978 0.316318 0.866
0.00951394 0.316318 0.866
0.0101381 0.316318 0.866
0.0107622 0.316318 0.866
0.0113864 0.316318 0.866
0.0120105 0.316318 0.866
0.0126347 0.316318 0.866
0.0132588 0.316318 0.866
0.013883 0.316318 0.866
0.0145072 0.316318 0.866
0.0151313 0.316318 0.866
0.0157373 0.315953 0.865
0.0163607 0.315953 0.865
0.0169841 0.315953 0.865
0.0175872 0.315588 0.864
0.0182099 0.315588 0.864
0.0188326 0.315588 0.864
0.0194328 0.315223 0.863
0.0200548 0.315223 0.863
0.0206768 0.315223 0.863
0.0212741 0.314857 0.862
0.02187 0.314492 0.861
0.0224905 0.314492 0.861
0.0231111 0.314492 0.861
0.0237041 0.314127 0.86
0.0243239 0.314127 0.86
0.0249147 0.313761 0.859
0.0255338 0.313761 0.859
0.0261529 0.313761 0.859
0.0267409 0.313396 0.858
0.0273274 0.313031 0.857
0.027945 0.313031 0.857
0.0285627 0.313031 0.857
0.0291463 0.312666 0.856
0.0297632 0.312666 0.856
0.0303802 0.312666 0.856
0.0309971 0.312666 0.856
0.0315772 0.3123 0.855
0.0321934 0.3123 0.855
0.0328096 0.3123 0.855
0.0334258 0.3123 0.855
0.034042 0.3123 0.855
0.0346583 0.3123 0.855
0.0352332 0.311935 0.854
0.0358487 0.311935 0.854
0.0364642 0.311935 0.854
0.0370797 0.311935 0.854
0.0376952 0.311935 0.854
0.0383108 0.311935 0.854
0.0389263 0.311935 0.854
0.0395418 0.311935 0.854
0.0401573 0.311935 0.854
0.0408205 0.3123 0.855
0.0414367 0.3123 0.855
0.042053 0.3123 0.855
0.0426692 0.3123 0.855
0.043336 0.312666 0.856
0.043953 0.312666 0.856
0.0445699 0.312666 0.856
0.0452396 0.313031 0.857
0.0459108 0.313396 0.858
0.0465292 0.313396 0.858
0.0472025 0.313761 0.859
0.0478773 0.314127 0.86
0.0484972 0.314127 0.86
0.049117 0.314127 0.86
0.0497946 0.314492 0.861
0.0504152 0.314492 0.861
0.0510357 0.314492 0.861
0.0517163 0.314857 0.862
0.0523376 0.314857 0.862
0.0529588 0.314857 0.862
0.0535801 0.314857 0.862
0.0542014 0.314857 0.862
0.054759 0.314492 0.861
0.0553796 0.314492 0.861
0.0560001 0.314492 0.861
0.0565549 0.314127 0.86
0.0571747 0.314127 0.86
0.0577946 0.314127 0.86
0.0584144 0.314127 0.86
0.0589656 0.313761 0.859
0.0595153 0.313396 0.858
0.0601337 0.313396 0.858
0.0606813 0.313031 0.857
0.061299 0.313031 0.857
0.0619166 0.313031 0.857
0.0624613 0.312666 0.856
0.0630046 0.3123 0.855
0.0636208 0.3123 0.855
0.064237 0.3123 0.855
0.0647774 0.311935 0.854
0.0653929 0.311935 0.854
0.0659311 0.31157 0.853
0.0665459 0.31157 0.853
0.0671607 0.31157 0.853
0.067696 0.311205 0.852
0.0682299 0.310839 0.851
0.0688432 0.310839 0.851
0.0694566 0.310839 0.851
0.0699876 0.310474 0.85
0.0706002 0.310474 0.85
0.0712128 0.310474 0.85
0.0718254 0.310474 0.85
0.072438 0.310474 0.85
0.0729647 0.310109 0.849
0.0735766 0.310109 0.849
0.0741885 0.310109 0.849
0.0748004 0.310109 0.849
0.0754123 0.310109 0.849
0.0761138 0.310474 0.85
0.0767264 0.310474 0.85
0.077339 0.310474 0.85
0.0780433 0.310839 0.851
0.0787491 0.311205 0.852
0.0793632 0.311205 0.852
0.0800711 0.31157 0.853
0.0806859 0.31157 0.853
0.0813007 0.31157 0.853
0.0819154 0.31157 0.853
0.082627 0.311935 0.854
0.0832425 0.311935 0.854
0.083858 0.311935 0.854
0.0845724 0.3123 0.855
0.0851886 0.3123 0.855
0.0858048 0.3123 0.855
0.0865222 0.312666 0.856
0.0871391 0.312666 0.856
0.087756 0.312666 0.856
0.088373 0.312666 0.856
0.0889899 0.312666 0.856
0.0896069 0.312666 0.856
0.0902238 0.312666 0.856
0.0908408 0.312666 0.856
0.0914577 0.312666 0.856
0.0920747 0.312666 0.856
0.0926916 0.312666 0.856
0.0933085 0.312666 0.856
0.0939255 0.312666 0.856
0.0945424 0.312666 0.856
0.0951594 0.312666 0.856
0.0957763 0.312666 0.856
0.0963933 0.312666 0.856
0.0970102 0.312666 0.856
0.0976272 0.312666 0.856
0.0983589 0.313031 0.857
0.0992075 0.313761 0.859
0.0998266 0.313761 0.859
0.100563 0.314127 0.86
0.101418 0.314857 0.862
0.102394 0.315953 0.865
0.103018 0.315953 0.865
0.104001 0.317049 0.868
0.105108 0.31851 0.872
0.105979 0.31924 0.874
0.106609 0.31924 0.874
0.107607 0.320336 0.877
0.108486 0.321067 0.879
0.10912 0.321067 0.879
0.110003 0.321797 0.881
0.110889 0.322528 0.883
0.111778 0.323258 0.885
0.112416 0.323258 0.885
0.113181 0.323624 0.886
0.113948 0.323989 0.887
0.114588 0.323989 0.887
0.115357 0.324354 0.888
0.116128 0.324719 0.889
0.116768 0.324719 0.889
-0.0798586 0.34732 0.949
-0.0791746 0.34732 0.949
-0.0784906 0.34732 0.949
-0.0778067 0.34732 0.949
-0.0771227 0.34732 0.949
-0.0764387 0.34732 0.949
-0.0757548 0.34732 0.949
-0.0750708 0.34732 0.949
-0.0743868 0.34732 0.949
-0.0736252 0.346954 0.948
-0.0729419 0.346954 0.948
-0.0722587 0.346954 0.948
-0.0715754 0.346954 0.948
-0.0708174 0.346588 0.947
-0.0701348 0.346588 0.947
-0.0694523 0.346588 0.947
-0.0687698 0.346588 0.947
-0.0680873 0.346588 0.947
-0.0673335 0.346222 0.946
-0.0666517 0.346222 0.946
-0.0659699 0.346222 0.946
-0.0651501 0.34549 0.944
-0.0644697 0.34549 0.944
-0.0637894 0.34549 0.944
-0.0630421 0.345124 0.943
-0.0622302 0.344392 0.941
-0.061552 0.344392 0.941
-0.0608091 0.344026 0.94
-0.0600037 0.343294 0.938
-0.0593276 0.343294 0.938
-0.0585891 0.342928 0.937
-0.0578519 0.342562 0.936
-0.0571773 0.342562 0.936
-0.0564424 0.342196 0.935
-0.0557088 0.34183 0.934
-0.0550357 0.34183 0.934
-0.0543625 0.34183 0.934
-0.0536894 0.34183 0.934
-0.0438406 0.319139 0.872
-0.0432122 0.319139 0.872
-0.0425837 0.319139 0.872
-0.0419071 0.318773 0.871
-0.0412793 0.318773 0.871
-0.0406516 0.318773 0.871
-0.0400238 0.318773 0.871
-0.0393961 0.318773 0.871
-0.0387683 0.318773 0.871
-0.0381406 0.318773 0.871
-0.0375128 0.318773 0.871
-0.036885 0.318773 0.871
-0.0362157 0.318407 0.87
-0.0355886 0.318407 0.87
-0.0349616 0.318407 0.87
-0.0343346 0.318407 0.87
-0.0336688 0.318041 0.869
-0.0330425 0.318041 0.869
-0.0323788 0.317675 0.868
-0.0317533 0.317675 0.868
-0.0311277 0.317675 0.868
-0.0305021 0.317675 0.868
-0.0298421 0.317309 0.867
-0.0292172 0.317309 0.867
-0.0285593 0.316943 0.866
-0.0279352 0.316943 0.866
-0.027311 0.316943 0.866
-0.0266252 0.316211 0.864
-0.0260025 0.316211 0.864
-0.0253798 0.316211 0.864
-0.0247285 0.315845 0.863
-0.0241065 0.315845 0.863
-0.0234573 0.315479 0.862
-0.022836 0.315479 0.862
-0.0222147 0.315479 0.862
-0.0215935 0.315479 0.862
-0.0209722 0.315479 0.862
-0.0203509 0.315479 0.862
-0.0197297 0.315479 0.862
-0.0191084 0.315479 0.862
-0.0184871 0.315479 0.862
-0.0178658 0.315479 0.862
-0.0172646 0.315845 0.863
-0.0166426 0.315845 0.863
-0.0160206 0.315845 0.863
-0.0154165 0.316211 0.864
-0.0147937 0.316211 0.864
-0.014171 0.316211 0.864
-0.013564 0.316577 0.865
-0.0129555 0.316943 0.866
-0.0123314 0.316943 0.866
-0.0117072 0.316943 0.866
-0.0110959 0.317309 0.867
-0.010471 0.317309 0.867
-0.00984613 0.317309 0.867
-0.00922126 0.317309 0.867
-0.00859638 0.317309 0.867
-0.00797151 0.317309 0.867
-0.00734664 0.317309 0.867
-0.00672177 0.317309 0.867
-0.00609689 0.317309 0.867
-0.00547202 0.317309 0.867
-0.00484715 0.317309 0.867
-0.00421741 0.316943 0.866
-0.00359325 0.316943 0.866
-0.0029691 0.316943 0.866
-0.00234495 0.316943 0.866
-0.0017208 0.316943 0.866
-0.00109665 0.316943 0.866
-0.000472495 0.316943 0.866
0.000151657 0.316943 0.866
0.000775809 0.316943 0.866
0.00139996 0.316943 0.866
0.00202411 0.316943 0.866
0.00264826 0.316943 0.866
0.00327242 0.316943 0.866
0.00389657 0.316943 0.866
0.00452072 0.316943 0.866
0.00514487 0.316943 0.866
0.00576902 0.316943 0.866
0.00639318 0.316943 0.866
0.00702543 0.317309 0.867
0.00764148 0.316943 0.866
0.00826563 0.316943 0.866
0.00890005 0.317309 0.867
0.00952492 0.317309 0.867
0.0101498 0.317309 0.867
0.0107747 0.317309 0.867
0.0113995 0.317309 0.867
0.0120244 0.317309 0.867
0.0126493 0.317309 0.867
0.0132588 0.316943 0.866
0.013883 0.316943 0.866
0.0145072 0.316943 0.866
0.0151313 0.316943 0.866
0.0157373 0.316577 0.865
0.0163607 0.316577 0.865
0.0169841 0.316577 0.865
0.0175872 0.316211 0.864
0.0182099 0.316211 0.864
0.0188326 0.316211 0.864
0.0194328 0.315845 0.863
0.0200548 0.315845 0.863
0.0206768 0.315845 0.863
0.0212741 0.315479 0.862
0.02187 0.315113 0.861
0.0224905 0.315113 0.861
0.0231111 0.315113 0.861
0.0237041 0.314747 0.86
0.0243239 0.314747 0.86
0.0249147 0.314381 0.859
0.0255338 0.314381 0.859
0.0261529 0.314381 0.859
0.0267409 0.314015 0.858
0.0273274 0.313649 0.857
0.027945 0.313649 0.857
0.0285627 0.313649 0.857
0.0291463 0.313283 0.856
0.0297632 0.313283 0.856
0.0303802 0.313283 0.856
0.0309971 0.313283 0.856
0.0315772 0.312917 0.855
0.0321934 0.312917 0.855
0.0328096 0.312917 0.855
0.0334258 0.312917 0.855
0.034042 0.312917 0.855
0.0346177 0.312551 0.854
0.0352332 0.312551 0.854
0.0358487 0.312551 0.854
0.0364642 0.312551 0.854
0.0370797 0.312551 0.854
0.0376952 0.312551 0.854
0.0383108 0.312551 0.854
0.0389263 0.312551 0.854
0.0395418 0.312551 0.854
0.0401573 0.312551 0.854
0.0407728 0.312551 0.854
0.0414367 0.312917 0.855
0.042053 0.312917 0.855
0.0426692 0.312917 0.855
0.0432854 0.312917 0.855
0.043953 0.313283 0.856
0.0445699 0.313283 0.856
0.0452396 0.313649 0.857
0.0458573 0.313649 0.857
0.046475 0.313649 0.857
0.0471476 0.314015 0.858
0.0478773 0.314747 0.86
0.0484972 0.314747 0.86
0.049117 0.314747 0.86
0.0497368 0.314747 0.86
0.0504152 0.315113 0.861
0.0510357 0.315113 0.861
0.0516563 0.315113 0.861
0.0523376 0.315479 0.862
0.0529588 0.315479 0.862
0.0535801 0.315479 0.862
0.0542014 0.315479 0.862
0.054759 0.315113 0.861
0.0553153 0.314747 0.86
0.0559351 0.314747 0.86
0.0565549 0.314747 0.86
0.0571747 0.314747 0.86
0.0577946 0.314747 0.86
0.0583465 0.314381 0.859
0.0589656 0.314381 0.859
0.0595153 0.314015 0.858
0.0601337 0.314015 0.858
0.0606813 0.313649 0.857
0.0612274 0.313283 0.856
0.0618444 0.313283 0.856
0.0624613 0.313283 0.856
0.0630046 0.312917 0.855
0.0636208 0.312917 0.855
0.064237 0.312917 0.855
0.0647774 0.312551 0.854
0.0653929 0.312551 0.854
0.0659311 0.312185 0.853
0.0664679 0.311819 0.852
0.0670819 0.311819 0.852
0.0676165 0.311453 0.851
0.0681497 0.311087 0.85
0.0687623 0.311087 0.85
0.0693749 0.311087 0.85
0.0699052 0.310721 0.849
0.0705171 0.310721 0.849
0.071129 0.310721 0.849
0.0716564 0.310355 0.848
0.0722676 0.310355 0.848
0.0727928 0.309989 0.847
0.0734033 0.309989 0.847
0.0740138 0.309989 0.847
0.0746242 0.309989 0.847
0.0753235 0.310355 0.848
0.0760242 0.310721 0.849
0.0767264 0.311087 0.85
0.077339 0.311087 0.85
0.0780433 0.311453 0.851
0.0786567 0.311453 0.851
0.07927 0.311453 0.851
0.0799772 0.311819 0.852
0.0806859 0.312185 0.853
0.0813007 0.312185 0.853
0.0819154 0.312185 0.853
0.082627 0.312551 0.854
0.0832425 0.312551 0.854
0.083858 0.312551 0.854
0.0845724 0.312917 0.855
0.0852883 0.313283 0.856
0.0859052 0.313283 0.856
0.0865222 0.313283 0.856
0.0871391 0.313283 0.856
0.087756 0.313283 0.856
0.088373 0.313283 0.856
0.0889899 0.313283 0.856
0.0896069 0.313283 0.856
0.0902238 0.313283 0.856
0.0908408 0.313283 0.856
0.0914577 0.313283 0.856
0.0920747 0.313283 0.856
0.0926916 0.313283 0.856
0.0933085 0.313283 0.856
0.0939255 0.313283 0.856
0.0945424 0.313283 0.856
0.0951594 0.313283 0.856
0.0957763 0.313283 0.856
0.0963933 0.313283 0.856
0.0970102 0.313283 0.856
0.0976272 0.313283 0.856
0.0983589 0.313649 0.857
0.0992075 0.314381 0.859
0.0998266 0.314381 0.859
0.100563 0.314747 0.86
0.101418 0.315479 0.862
0.102394 0.316577 0.865
0.103018 0.316577 0.865
0.104001 0.317675 0.868
0.104988 0.318773 0.871
0.105858 0.319505 0.873
0.106487 0.319505 0.873
0.107362 0.320237 0.875
0.108239 0.320969 0.877
0.108871 0.320969 0.877
0.109753 0.321701 0.879
0.110763 0.322799 0.882
0.111652 0.323531 0.884
0.112289 0.323531 0.884
0.113054 0.323897 0.885
0.11382 0.324263 0.886
0.114459 0.324263 0.886
0.115227 0.324629 0.887
0.116128 0.325361 0.889
0.116768 0.325361 0.889
-0.0798586 0.348004 0.949
-0.0791746 0.348004 0.949
-0.0784906 0.348004 0.949
-0.0778067 0.348004 0.949
-0.0771227 0.348004 0.949
-0.0764387 0.348004 0.949
-0.0757548 0.348004 0.949
-0.0750708 0.348004 0.949
-0.0743868 0.348004 0.949
-0.0736252 0.347637 0.948
-0.0729419 0.347637 0.948
-0.0722587 0.347637 0.948
-0.0715754 0.347637 0.948
-0.0708174 0.347271 0.947
-0.0701348 0.347271 0.947
-0.0694523 0.347271 0.947
-0.0687698 0.347271 0.947
-0.0680873 0.347271 0.947
-0.0674047 0.347271 0.947
-0.0666517 0.346904 0.946
-0.0659699 0.346904 0.946
-0.0651501 0.346171 0.944
-0.0644697 0.346171 0.944
-0.0637894 0.346171 0.944
-0.0630421 0.345804 0.943
-0.0622302 0.34507 0.941
-0.061552 0.34507 0.941
-0.0608091 0.344704 0.94
-0.0600677 0.344337 0.939
-0.0593909 0.344337 0.939
-0.0586516 0.34397 0.938
-0.0579138 0.343604 0.937
-0.0571773 0.343237 0.936
-0.0565027 0.343237 0.936
-0.0557685 0.34287 0.935
-0.0550357 0.342503 0.934
-0.0543625 0.342503 0.934
-0.0536894 0.342503 0.934
-0.0438406 0.319768 0.872
-0.0432122 0.319768 0.872
-0.0425837 0.319768 0.872
-0.0419071 0.319401 0.871
-0.0412793 0.319401 0.871
-0.0406516 0.319401 0.871
-0.0400238 0.319401 0.871
-0.0393961 0.319401 0.871
-0.0387683 0.319401 0.871
-0.0381406 0.319401 0.871
-0.0375128 0.319401 0.871
-0.036885 0.319401 0.871
-0.0362157 0.319034 0.87
-0.0355886 0.319034 0.87
-0.0349616 0.319034 0.87
-0.0342951 0.318668 0.869
-0.0336688 0.318668 0.869
-0.0330425 0.318668 0.869
-0.0323788 0.318301 0.868
-0.0317533 0.318301 0.868
-0.0311277 0.318301 0.868
-0.0304669 0.317934 0.867
-0.0298076 0.317567 0.866
-0.0291835 0.317567 0.866
-0.0285593 0.317567 0.866
-0.0279029 0.317201 0.865
-0.0272795 0.317201 0.865
-0.0266252 0.316834 0.864
-0.0259724 0.316467 0.863
-0.0253504 0.316467 0.863
-0.0247285 0.316467 0.863
-0.0240785 0.316101 0.862
-0.0234573 0.316101 0.862
-0.022836 0.316101 0.862
-0.022189 0.315734 0.861
-0.0215684 0.315734 0.861
-0.0209722 0.316101 0.862
-0.0203273 0.315734 0.861
-0.0197068 0.315734 0.861
-0.0191084 0.316101 0.862
-0.0184871 0.316101 0.862
-0.0178658 0.316101 0.862
-0.0172646 0.316467 0.863
-0.0166426 0.316467 0.863
-0.0160206 0.316467 0.863
-0.0154165 0.316834 0.864
-0.0147937 0.316834 0.864
-0.014171 0.316834 0.864
-0.013564 0.317201 0.865
-0.0129555 0.317567 0.866
-0.0123314 0.317567 0.866
-0.0117072 0.317567 0.866
-0.0110959 0.317934 0.867
-0.010471 0.317934 0.867
-0.00984613 0.317934 0.867
-0.00922126 0.317934 0.867
-0.00859638 0.317934 0.867
-0.00797151 0.317934 0.867
-0.00734664 0.317934 0.867
-0.00671401 0.317567 0.866
-0.00608986 0.317567 0.866
-0.00546571 0.317567 0.866
-0.00484156 0.317567 0.866
-0.00421741 0.317567 0.866
-0.00358911 0.317201 0.865
-0.00296567 0.317201 0.865
-0.00234224 0.317201 0.865
-0.00171881 0.317201 0.865
-0.00109538 0.317201 0.865
-0.000471949 0.317201 0.865
0.000151482 0.317201 0.865
0.000774913 0.317201 0.865
0.00139834 0.317201 0.865
0.00202178 0.317201 0.865
0.00264521 0.317201 0.865
0.00326864 0.317201 0.865
0.00389207 0.317201 0.865
0.00452072 0.317567 0.866
0.00514487 0.317567 0.866
0.00576902 0.317567 0.866
0.00639318 0.317567 0.866
0.00701733 0.317567 0.866
0.00764148 0.317567 0.866
0.00826563 0.317567 0.866
0.00888978 0.317567 0.866
0.00951394 0.317567 0.866
0.0101498 0.317934 0.867
0.0107747 0.317934 0.867
0.0113864 0.317567 0.866
0.0120105 0.317567 0.866
0.0126347 0.317567 0.866
0.0132588 0.317567 0.866
0.013883 0.317567 0.866
0.0145072 0.317567 0.866
0.0151138 0.317201 0.865
0.0157373 0.317201 0.865
0.0163418 0.316834 0.864
0.0169645 0.316834 0.864
0.0175872 0.316834 0.864
0.0182099 0.316834 0.864
0.0188326 0.316834 0.864
0.0194328 0.316467 0.863
0.0200316 0.316101 0.862
0.0206528 0.316101 0.862
0.0212741 0.316101 0.862
0.02187 0.315734 0.861
0.0224905 0.315734 0.861
0.0231111 0.315734 0.861
0.0237041 0.315367 0.86
0.0243239 0.315367 0.86
0.0249437 0.315367 0.86
0.0255338 0.315 0.859
0.0261529 0.315 0.859
0.0267409 0.314634 0.858
0.0273592 0.314634 0.858
0.0279776 0.314634 0.858
0.0285627 0.314267 0.857
0.0291463 0.3139 0.856
0.0297632 0.3139 0.856
0.0303802 0.3139 0.856
0.0309971 0.3139 0.856
0.0315772 0.313534 0.855
0.0321934 0.313534 0.855
0.0328096 0.313534 0.855
0.0334258 0.313534 0.855
0.034042 0.313534 0.855
0.0346177 0.313167 0.854
0.0352332 0.313167 0.854
0.0358487 0.313167 0.854
0.0364642 0.313167 0.854
0.0370797 0.313167 0.854
0.0376952 0.313167 0.854
0.0383108 0.313167 0.854
0.0389263 0.313167 0.854
0.0395418 0.313167 0.854
0.0401573 0.313167 0.854
0.0407728 0.313167 0.854
0.0413883 0.313167 0.854
0.042053 0.313534 0.855
0.0426692 0.313534 0.855
0.0432854 0.313534 0.855
0.043953 0.3139 0.856
0.0445699 0.3139 0.856
0.0451869 0.3139 0.856
0.0458573 0.314267 0.857
0.046475 0.314267 0.857
0.0471476 0.314634 0.858
0.0478217 0.315 0.859
0.0484408 0.315 0.859
0.049117 0.315367 0.86
0.0497368 0.315367 0.86
0.0504152 0.315734 0.861
0.0510357 0.315734 0.861
0.0516563 0.315734 0.861
0.0523376 0.316101 0.862
0.0529588 0.316101 0.862
0.0535179 0.315734 0.861
0.0541385 0.315734 0.861
0.0546954 0.315367 0.86
0.0553153 0.315367 0.86
0.0559351 0.315367 0.86
0.0565549 0.315367 0.86
0.0571083 0.315 0.859
0.0577274 0.315 0.859
0.0583465 0.315 0.859
0.0588969 0.314634 0.858
0.0595153 0.314634 0.858
0.0601337 0.314634 0.858
0.0606813 0.314267 0.857
0.0612274 0.3139 0.856
0.0618444 0.3139 0.856
0.0624613 0.3139 0.856
0.0630046 0.313534 0.855
0.0636208 0.313534 0.855
0.0641619 0.313167 0.854
0.0647015 0.3128 0.853
0.0653163 0.3128 0.853
0.0659311 0.3128 0.853
0.0663899 0.312067 0.851
0.0670032 0.312067 0.851
0.0675371 0.3117 0.85
0.0681497 0.3117 0.85
0.0687623 0.3117 0.85
0.0692933 0.311333 0.849
0.0698229 0.310967 0.848
0.0704341 0.310967 0.848
0.0709615 0.3106 0.847
0.0715719 0.3106 0.847
0.0721824 0.3106 0.847
0.0727928 0.3106 0.847
0.0734033 0.3106 0.847
0.0740138 0.3106 0.847
0.0746242 0.3106 0.847
0.0752347 0.3106 0.847
0.0759347 0.310967 0.848
0.0766361 0.311333 0.849
0.077248 0.311333 0.849
0.0779516 0.3117 0.85
0.0786567 0.312067 0.851
0.07927 0.312067 0.851
0.0799772 0.312434 0.852
0.0806859 0.3128 0.853
0.0813007 0.3128 0.853
0.0819154 0.3128 0.853
0.082627 0.313167 0.854
0.08334 0.313534 0.855
0.0839562 0.313534 0.855
0.0845724 0.313534 0.855
0.0852883 0.3139 0.856
0.0859052 0.3139 0.856
0.0865222 0.3139 0.856
0.0871391 0.3139 0.856
0.087756 0.3139 0.856
0.088373 0.3139 0.856
0.0889899 0.3139 0.856
0.0896069 0.3139 0.856
0.0902238 0.3139 0.856
0.0908408 0.3139 0.856
0.0914577 0.3139 0.856
0.0920747 0.3139 0.856
0.0926916 0.3139 0.856
0.0933085 0.3139 0.856
0.0939255 0.3139 0.856
0.0945424 0.3139 0.856
0.0951594 0.3139 0.856
0.0957763 0.3139 0.856
0.0963933 0.3139 0.856
0.0970102 0.3139 0.856
0.0976272 0.3139 0.856
0.0984736 0.314634 0.858
0.0992075 0.315 0.859
0.0998266 0.315 0.859
0.100563 0.315367 0.86
0.101418 0.316101 0.862
0.102394 0.317201 0.865
0.103018 0.317201 0.865
0.104001 0.318301 0.868
0.104988 0.319401 0.871
0.105858 0.320134 0.873
0.106487 0.320134 0.873
0.107362 0.320868 0.875
0.108239 0.321601 0.877
0.108871 0.321601 0.877
0.109753 0.322335 0.879
0.110763 0.323435 0.882
0.111652 0.324168 0.884
0.112289 0.324168 0.884
0.113054 0.324535 0.885
0.11382 0.324902 0.886
0.114459 0.324902 0.886
0.115227 0.325268 0.887
-0.0796903 0.347954 0.947
-0.0790078 0.347954 0.947
-0.0783252 0.347954 0.947
-0.0777247 0.348321 0.948
-0.0770414 0.348321 0.948
-0.0763582 0.348321 0.948
-0.0756749 0.348321 0.948
-0.0749917 0.348321 0.948
-0.0743084 0.348321 0.948
-0.0736252 0.348321 0.948
-0.072865 0.347954 0.947
-0.0721824 0.347954 0.947
-0.0714999 0.347954 0.947
-0.0708174 0.347954 0.947
-0.0701348 0.347954 0.947
-0.0694523 0.347954 0.947
-0.0687698 0.347954 0.947
-0.0680873 0.347954 0.947
-0.0673335 0.347586 0.946
-0.0666517 0.347586 0.946
-0.0659699 0.347586 0.946
-0.0651501 0.346851 0.944
-0.0644697 0.346851 0.944
-0.0637894 0.346851 0.944
-0.0630421 0.346484 0.943
-0.0622302 0.345749 0.941
-0.061552 0.345749 0.941
-0.0608091 0.345382 0.94
-0.0600677 0.345014 0.939
-0.0593909 0.345014 0.939
-0.0586516 0.344647 0.938
-0.0579138 0.344279 0.937
-0.0571773 0.343912 0.936
-0.0565027 0.343912 0.936
-0.0557685 0.343544 0.935
-0.0550357 0.343177 0.934
-0.0543625 0.343177 0.934
-0.0536894 0.343177 0.934
-0.0437904 0.320029 0.871
-0.0431626 0.320029 0.871
-0.0425348 0.320029 0.871
-0.0419071 0.320029 0.871
-0.0412793 0.320029 0.871
-0.0406516 0.320029 0.871
-0.0400238 0.320029 0.871
-0.0393961 0.320029 0.871
-0.0387683 0.320029 0.871
-0.0381406 0.320029 0.871
-0.0374697 0.319662 0.87
-0.0368427 0.319662 0.87
-0.0362157 0.319662 0.87
-0.0355477 0.319294 0.869
-0.0349214 0.319294 0.869
-0.0342951 0.319294 0.869
-0.03363 0.318927 0.868
-0.0330044 0.318927 0.868
-0.0323415 0.318559 0.867
-0.0317167 0.318559 0.867
-0.0310918 0.318559 0.867
-0.0304318 0.318192 0.866
-0.0297732 0.317825 0.865
-0.0291498 0.317825 0.865
-0.0285264 0.317825 0.865
-0.0278707 0.317457 0.864
-0.027248 0.317457 0.864
-0.0265944 0.31709 0.863
-0.0259724 0.31709 0.863
-0.0253504 0.31709 0.863
-0.0246998 0.316722 0.862
-0.0240785 0.316722 0.862
-0.0234573 0.316722 0.862
-0.0228095 0.316355 0.861
-0.022189 0.316355 0.861
-0.0215684 0.316355 0.861
-0.0209479 0.316355 0.861
-0.0203273 0.316355 0.861
-0.0197068 0.316355 0.861
-0.0191084 0.316722 0.862
-0.0184871 0.316722 0.862
-0.0178658 0.316722 0.862
-0.0172646 0.31709 0.863
-0.0166426 0.31709 0.863
-0.0160206 0.31709 0.863
-0.0154165 0.317457 0.864
-0.0147937 0.317457 0.864
-0.0141874 0.317825 0.865
-0.013564 0.317825 0.865
-0.0129555 0.318192 0.866
-0.0123314 0.318192 0.866
-0.0117072 0.318192 0.866
-0.0110959 0.318559 0.867
-0.010471 0.318559 0.867
-0.00984613 0.318559 0.867
-0.00922126 0.318559 0.867
-0.00858647 0.318192 0.866
-0.00796232 0.318192 0.866
-0.00733817 0.318192 0.866
-0.00671401 0.318192 0.866
-0.00608283 0.317825 0.865
-0.0054594 0.317825 0.865
-0.00483597 0.317825 0.865
-0.00421254 0.317825 0.865
-0.00358496 0.317457 0.864
-0.00296225 0.317457 0.864
-0.00233953 0.317457 0.864
-0.00171682 0.317457 0.864
-0.00109411 0.317457 0.864
-0.000471404 0.317457 0.864
0.000151307 0.317457 0.864
0.000774017 0.317457 0.864
0.00139673 0.317457 0.864
0.00201944 0.317457 0.864
0.00264215 0.317457 0.864
0.00326486 0.317457 0.864
0.00389207 0.317825 0.865
0.0045155 0.317825 0.865
0.00513893 0.317825 0.865
0.00576236 0.317825 0.865
0.00638579 0.317825 0.865
0.00700923 0.317825 0.865
0.00763266 0.317825 0.865
0.00825609 0.317825 0.865
0.00888978 0.318192 0.866
0.00951394 0.318192 0.866
0.0101381 0.318192 0.866
0.0107622 0.318192 0.866
0.0113864 0.318192 0.866
0.0120105 0.318192 0.866
0.0126347 0.318192 0.866
0.0132435 0.317825 0.865
0.013867 0.317825 0.865
0.0144904 0.317825 0.865
0.0150964 0.317457 0.864
0.0157191 0.317457 0.864
0.0163418 0.317457 0.864
0.0169645 0.317457 0.864
0.0175668 0.31709 0.863
0.0181888 0.31709 0.863
0.0188108 0.31709 0.863
0.0194103 0.316722 0.862
0.0200316 0.316722 0.862
0.0206528 0.316722 0.862
0.0212494 0.316355 0.861
0.0218446 0.315987 0.86
0.0224644 0.315987 0.86
0.0230842 0.315987 0.86
0.0237041 0.315987 0.86
0.0243239 0.315987 0.86
0.0249437 0.315987 0.86
0.0255338 0.31562 0.859
0.0261529 0.31562 0.859
0.0267409 0.315253 0.858
0.0273592 0.315253 0.858
0.0279776 0.315253 0.858
0.0285627 0.314885 0.857
0.0291804 0.314885 0.857
0.0297632 0.314518 0.856
0.0303802 0.314518 0.856
0.0309971 0.314518 0.856
0.0315772 0.31415 0.855
0.0321934 0.31415 0.855
0.0328096 0.31415 0.855
0.0334258 0.31415 0.855
0.034042 0.31415 0.855
0.0346177 0.313783 0.854
0.0352332 0.313783 0.854
0.0358487 0.313783 0.854
0.0364642 0.313783 0.854
0.0370797 0.313783 0.854
0.0376952 0.313783 0.854
0.0383108 0.313783 0.854
0.0389263 0.313783 0.854
0.0395418 0.313783 0.854
0.0401573 0.313783 0.854
0.0407728 0.313783 0.854
0.0413883 0.313783 0.854
0.042053 0.31415 0.855
0.0426692 0.31415 0.855
0.0432854 0.31415 0.855
0.043953 0.314518 0.856
0.0445699 0.314518 0.856
0.0451869 0.314518 0.856
0.0458573 0.314885 0.857
0.046475 0.314885 0.857
0.0471476 0.315253 0.858
0.0478217 0.31562 0.859
0.0484408 0.31562 0.859
0.049117 0.315987 0.86
0.0497368 0.315987 0.86
0.0504152 0.316355 0.861
0.0510357 0.316355 0.861
0.0516563 0.316355 0.861
0.0523376 0.316722 0.862
0.0529588 0.316722 0.862
0.0535179 0.316355 0.861
0.0541385 0.316355 0.861
0.0546954 0.315987 0.86
0.0553153 0.315987 0.86
0.0559351 0.315987 0.86
0.0565549 0.315987 0.86
0.0571083 0.31562 0.859
0.0577274 0.31562 0.859
0.0583465 0.31562 0.859
0.0588969 0.315253 0.858
0.0595153 0.315253 0.858
0.0601337 0.315253 0.858
0.0606813 0.314885 0.857
0.0612274 0.314518 0.856
0.0618444 0.314518 0.856
0.0624613 0.314518 0.856
0.0630046 0.31415 0.855
0.0636208 0.31415 0.855
0.0641619 0.313783 0.854
0.0647015 0.313415 0.853
0.0653163 0.313415 0.853
0.0659311 0.313415 0.853
0.0663899 0.312681 0.851
0.0670032 0.312681 0.851
0.0675371 0.312313 0.85
0.0681497 0.312313 0.85
0.0687623 0.312313 0.85
0.0692933 0.311946 0.849
0.0698229 0.311578 0.848
0.0704341 0.311578 0.848
0.0709615 0.311211 0.847
0.0715719 0.311211 0.847
0.0721824 0.311211 0.847
0.0727928 0.311211 0.847
0.0734033 0.311211 0.847
0.0740138 0.311211 0.847
0.0746242 0.311211 0.847
0.0752347 0.311211 0.847
0.0759347 0.311578 0.848
0.0766361 0.311946 0.849
0.077248 0.311946 0.849
0.0779516 0.312313 0.85
0.0786567 0.312681 0.851
0.07927 0.312681 0.851
0.0799772 0.313048 0.852
0.0806859 0.313415 0.853
0.0813007 0.313415 0.853
0.0819154 0.313415 0.853
0.082627 0.313783 0.854
0.08334 0.31415 0.855
0.0839562 0.31415 0.855
0.0845724 0.31415 0.855
0.0852883 0.314518 0.856
0.0859052 0.314518 0.856
0.0865222 0.314518 0.856
0.0871391 0.314518 0.856
0.087756 0.314518 0.856
0.088373 0.314518 0.856
0.0889899 0.314518 0.856
0.0896069 0.314518 0.856
0.0902238 0.314518 0.856
0.0908408 0.314518 0.856
0.0914577 0.314518 0.856
0.0920747 0.314518 0.856
0.0926916 0.314518 0.856
0.0933085 0.314518 0.856
0.0939255 0.314518 0.856
0.0945424 0.314518 0.856
0.0951594 0.314518 0.856
0.0957763 0.314518 0.856
0.0963933 0.314518 0.856
0.0970102 0.314518 0.856
0.0976272 0.314518 0.856
0.0984736 0.315253 0.858
0.0992075 0.31562 0.859
0.0998266 0.31562 0.859
0.100563 0.315987 0.86
0.101418 0.316722 0.862
0.102394 0.317825 0.865
0.103018 0.317825 0.865
0.104001 0.318927 0.868
0.104867 0.319662 0.87
0.105737 0.320397 0.872
0.106365 0.320397 0.872
0.107239 0.321131 0.874
0.108239 0.322234 0.877
0.108871 0.322234 0.877
0.109628 0.322601 0.878
0.110512 0.323336 0.88
0.111146 0.323336 0.88
0.112035 0.324071 0.882
0.112926 0.324806 0.884
0.113692 0.325173 0.885
0.114329 0.325173 0.885
0.115227 0.325908 0.887
-0.0803728 0.348637 0.947
-0.0796903 0.348637 0.947
-0.0790078 0.348637 0.947
-0.0783252 0.348637 0.947
-0.0776427 0.348637 0.947
-0.0769602 0.348637 0.947
-0.0762776 0.348637 0.947
-0.0755951 0.348637 0.947
-0.0749126 0.348637 0.947
-0.07423 0.348637 0.947
-0.0735475 0.348637 0.947
-0.072788 0.348268 0.946
-0.0721062 0.348268 0.946
-0.0714244 0.348268 0.946
-0.0707426 0.348268 0.946
-0.0700608 0.348268 0.946
-0.069379 0.348268 0.946
-0.0686972 0.348268 0.946
-0.0680154 0.348268 0.946
-0.0673335 0.348268 0.946
-0.0666517 0.348268 0.946
-0.0659699 0.348268 0.946
-0.0652191 0.3479 0.945
-0.0644697 0.347532 0.944
-0.0637894 0.347532 0.944
-0.0630421 0.347164 0.943
-0.0622963 0.346796 0.942
-0.0616174 0.346796 0.942
-0.0608738 0.346428 0.941
-0.0601316 0.34606 0.94
-0.0594541 0.34606 0.94
-0.0586516 0.345323 0.938
-0.0579756 0.345323 0.938
-0.0572384 0.344955 0.937
-0.0565631 0.344955 0.937
-0.0558281 0.344587 0.936
-0.0550946 0.344219 0.935
-0.0544207 0.344219 0.935
-0.0537468 0.344219 0.935
-0.0437904 0.320657 0.871
-0.0431626 0.320657 0.871
-0.042486 0.320289 0.87
-0.041859 0.320289 0.87
-0.0412319 0.320289 0.87
-0.0405582 0.319921 0.869
-0.0399319 0.319921 0.869
-0.0393508 0.320289 0.87
-0.0387238 0.320289 0.87
-0.038053 0.319921 0.869
-0.0374267 0.319921 0.869
-0.0368003 0.319921 0.869
-0.0361324 0.319553 0.868
-0.0355068 0.319553 0.868
-0.0348812 0.319553 0.868
-0.0342556 0.319553 0.868
-0.0335913 0.319185 0.867
-0.0329664 0.319185 0.867
-0.0323042 0.318817 0.866
-0.0316801 0.318817 0.866
-0.0310559 0.318817 0.866
-0.0303966 0.318448 0.865
-0.0297388 0.31808 0.864
-0.0291161 0.31808 0.864
-0.0284934 0.31808 0.864
-0.0278384 0.317712 0.863
-0.0272164 0.317712 0.863
-0.0265944 0.317712 0.863
-0.0259423 0.317344 0.862
-0.0253211 0.317344 0.862
-0.0246712 0.316976 0.861
-0.0240506 0.316976 0.861
-0.0234301 0.316976 0.861
-0.0228095 0.316976 0.861
-0.022189 0.316976 0.861
-0.0215684 0.316976 0.861
-0.0209479 0.316976 0.861
-0.0203273 0.316976 0.861
-0.0197068 0.316976 0.861
-0.0191084 0.317344 0.862
-0.0184871 0.317344 0.862
-0.0178658 0.317344 0.862
-0.0172646 0.317712 0.863
-0.0166426 0.317712 0.863
-0.0160392 0.31808 0.864
-0.0154165 0.31808 0.864
-0.0147937 0.31808 0.864
-0.0141874 0.318448 0.865
-0.0135797 0.318817 0.866
-0.0129555 0.318817 0.866
-0.0123314 0.318817 0.866
-0.0117072 0.318817 0.866
-0.0110959 0.319185 0.867
-0.010471 0.319185 0.867
-0.00984613 0.319185 0.867
-0.00922126 0.319185 0.867
-0.00858647 0.318817 0.866
-0.00796232 0.318817 0.866
-0.00733817 0.318817 0.866
-0.00671401 0.318817 0.866
-0.00608283 0.318448 0.865
-0.0054594 0.318448 0.865
-0.00483597 0.318448 0.865
-0.00421254 0.318448 0.865
-0.00358496 0.31808 0.864
-0.00296225 0.31808 0.864
-0.00233953 0.31808 0.864
-0.00171682 0.31808 0.864
-0.00109411 0.31808 0.864
-0.000471404 0.31808 0.864
0.000151307 0.31808 0.864
0.000774017 0.31808 0.864
0.00139673 0.31808 0.864
0.00201944 0.31808 0.864
0.00264215 0.31808 0.864
0.00326486 0.31808 0.864
0.00389207 0.318448 0.865
0.0045155 0.318448 0.865
0.00513893 0.318448 0.865
0.00576236 0.318448 0.865
0.00638579 0.318448 0.865
0.00700923 0.318448 0.865
0.00763266 0.318448 0.865
0.00825609 0.318448 0.865
0.00888978 0.318817 0.866
0.00951394 0.318817 0.866
0.0101381 0.318817 0.866
0.0107622 0.318817 0.866
0.0113864 0.318817 0.866
0.0120105 0.318817 0.866
0.0126347 0.318817 0.866
0.0132435 0.318448 0.865
0.013867 0.318448 0.865
0.0144904 0.318448 0.865
0.0150964 0.31808 0.864
0.0157191 0.31808 0.864
0.0163418 0.31808 0.864
0.0169645 0.31808 0.864
0.0175668 0.317712 0.863
0.0181888 0.317712 0.863
0.0188108 0.317712 0.863
0.0194103 0.317344 0.862
0.0200316 0.317344 0.862
0.0206528 0.317344 0.862
0.0212494 0.316976 0.861
0.0218446 0.316608 0.86
0.0224644 0.316608 0.86
0.0230842 0.316608 0.86
0.0237041 0.316608 0.86
0.0243239 0.316608 0.86
0.0249437 0.316608 0.86
0.0255338 0.316239 0.859
0.0261529 0.316239 0.859
0.0267409 0.315871 0.858
0.0273592 0.315871 0.858
0.0279776 0.315871 0.858
0.0285627 0.315503 0.857
0.0291804 0.315503 0.857
0.0297632 0.315135 0.856
0.0303802 0.315135 0.856
0.0309971 0.315135 0.856
0.0315772 0.314767 0.855
0.0321934 0.314767 0.855
0.0328096 0.314767 0.855
0.0334258 0.314767 0.855
0.034042 0.314767 0.855
0.0346177 0.314399 0.854
0.0352332 0.314399 0.854
0.0358487 0.314399 0.854
0.0364642 0.314399 0.854
0.0370797 0.314399 0.854
0.0376952 0.314399 0.854
0.0383108 0.314399 0.854
0.0389263 0.314399 0.854
0.0395418 0.314399 0.854
0.0401573 0.314399 0.854
0.0407728 0.314399 0.854
0.0413883 0.314399 0.854
0.042053 0.314767 0.855
0.0426692 0.314767 0.855
0.0432854 0.314767 0.855
0.043953 0.315135 0.856
0.0445699 0.315135 0.856
0.0451869 0.315135 0.856
0.0458573 0.315503 0.857
0.046475 0.315503 0.857
0.0471476 0.315871 0.858
0.0478217 0.316239 0.859
0.0484408 0.316239 0.859
0.049117 0.316608 0.86
0.0497368 0.316608 0.86
0.0504152 0.316976 0.861
0.0510357 0.316976 0.861
0.0516563 0.316976 0.861
0.0522768 0.316976 0.861
0.0528974 0.316976 0.861
0.0535179 0.316976 0.861
0.0541385 0.316976 0.861
0.0546954 0.316608 0.86
0.0553153 0.316608 0.86
0.0559351 0.316608 0.86
0.0564891 0.316239 0.859
0.0571083 0.316239 0.859
0.0577274 0.316239 0.859
0.0582785 0.315871 0.858
0.0588969 0.315871 0.858
0.0595153 0.315871 0.858
0.0600636 0.315503 0.857
0.0606105 0.315135 0.856
0.0612274 0.315135 0.856
0.0618444 0.315135 0.856
0.0623883 0.314767 0.855
0.0629309 0.314399 0.854
0.0635464 0.314399 0.854
0.0640868 0.314031 0.853
0.0647015 0.314031 0.853
0.0653163 0.314031 0.853
0.0658538 0.313662 0.852
0.0663118 0.312926 0.85
0.0669245 0.312926 0.85
0.0674576 0.312558 0.849
0.0679893 0.31219 0.848
0.0686005 0.31219 0.848
0.0691301 0.311822 0.847
0.0697405 0.311822 0.847
0.070351 0.311822 0.847
0.0708777 0.311454 0.846
0.0714029 0.311085 0.845
0.0720119 0.311085 0.845
0.072621 0.311085 0.845
0.07323 0.311085 0.845
0.073839 0.311085 0.845
0.074448 0.311085 0.845
0.0751458 0.311454 0.846
0.0758451 0.311822 0.847
0.0765459 0.31219 0.848
0.077157 0.31219 0.848
0.0778599 0.312558 0.849
0.0785642 0.312926 0.85
0.0791769 0.312926 0.85
0.0798834 0.313294 0.851
0.0805913 0.313662 0.852
0.0812054 0.313662 0.852
0.0819154 0.314031 0.853
0.082627 0.314399 0.854
0.0832425 0.314399 0.854
0.083858 0.314399 0.854
0.0845724 0.314767 0.855
0.0851886 0.314767 0.855
0.0858048 0.314767 0.855
0.0865222 0.315135 0.856
0.0871391 0.315135 0.856
0.087756 0.315135 0.856
0.088373 0.315135 0.856
0.0889899 0.315135 0.856
0.0896069 0.315135 0.856
0.0902238 0.315135 0.856
0.0908408 0.315135 0.856
0.0914577 0.315135 0.856
0.0920747 0.315135 0.856
0.0926916 0.315135 0.856
0.0933085 0.315135 0.856
0.0939255 0.315135 0.856
0.0945424 0.315135 0.856
0.0951594 0.315135 0.856
0.0957763 0.315135 0.856
0.0963933 0.315135 0.856
0.0971235 0.315503 0.857
0.0977412 0.315503 0.857
0.0984736 0.315871 0.858
0.0992075 0.316239 0.859
0.0998266 0.316239 0.859
0.100563 0.316608 0.86
0.101418 0.317344 0.862
0.102394 0.318448 0.865
0.103018 0.318448 0.865
0.103881 0.319185 0.867
0.104747 0.319921 0.869
0.105373 0.319921 0.869
0.106243 0.320657 0.871
0.107116 0.321394 0.873
0.107869 0.321762 0.874
0.108499 0.321762 0.874
0.109503 0.322866 0.877
0.110261 0.323234 0.878
0.110894 0.323234 0.878
0.111781 0.323971 0.88
0.11267 0.324707 0.882
0.113563 0.325443 0.884
0.1142 0.325443 0.884
-0.0803728 0.34932 0.947
-0.0796903 0.34932 0.947
-0.0790078 0.34932 0.947
-0.0783252 0.34932 0.947
-0.0776427 0.34932 0.947
-0.0769602 0.34932 0.947
-0.0762776 0.34932 0.947
-0.0755951 0.34932 0.947
-0.0749126 0.34932 0.947
-0.07423 0.34932 0.947
-0.0735475 0.34932 0.947
-0.072788 0.348951 0.946
-0.0721062 0.348951 0.946
-0.0714244 0.348951 0.946
-0.0707426 0.348951 0.946
-0.0700608 0.348951 0.946
-0.069379 0.348951 0.946
-0.0686972 0.348951 0.946
-0.0680154 0.348951 0.946
-0.0673335 0.348951 0.946
-0.0666517 0.348951 0.946
-0.0659699 0.348951 0.946
-0.0652191 0.348582 0.945
-0.064538 0.348582 0.945
-0.0638569 0.348582 0.945
-0.063109 0.348213 0.944
-0.0624286 0.348213 0.944
-0.0616828 0.347844 0.943
-0.0610032 0.347844 0.943
-0.0601956 0.347106 0.941
-0.0594541 0.346737 0.94
-0.0587767 0.346737 0.94
-0.0580374 0.346369 0.939
-0.0572995 0.346 0.938
-0.0566235 0.346 0.938
-0.0558878 0.345631 0.937
-0.0551535 0.345262 0.936
-0.0544789 0.345262 0.936
-0.0538043 0.345262 0.936
-0.042486 0.320917 0.87
-0.041859 0.320917 0.87
-0.0412319 0.320917 0.87
-0.0405582 0.320548 0.869
-0.0399319 0.320548 0.869
-0.0393508 0.320917 0.87
-0.0387238 0.320917 0.87
-0.038053 0.320548 0.869
-0.0374267 0.320548 0.869
-0.0368003 0.320548 0.869
-0.0361324 0.320179 0.868
-0.0355068 0.320179 0.868
-0.0348812 0.320179 0.868
-0.0342556 0.320179 0.868
-0.0335913 0.31981 0.867
-0.0329664 0.31981 0.867
-0.0323042 0.319441 0.866
-0.0316801 0.319441 0.866
-0.0310559 0.319441 0.866
-0.0303966 0.319072 0.865
-0.0297388 0.318703 0.864
-0.0291161 0.318703 0.864
-0.0284934 0.318703 0.864
-0.0278384 0.318334 0.863
-0.0272164 0.318334 0.863
-0.0265944 0.318334 0.863
-0.0259423 0.317966 0.862
-0.0253211 0.317966 0.862
-0.0246712 0.317597 0.861
-0.0240506 0.317597 0.861
-0.0234301 0.317597 0.861
-0.0228095 0.317597 0.861
-0.022189 0.317597 0.861
-0.0215684 0.317597 0.861
-0.0209479 0.317597 0.861
-0.0203273 0.317597 0.861
-0.0197068 0.317597 0.861
-0.0191084 0.317966 0.862
-0.0184871 0.317966 0.862
-0.0178658 0.317966 0.862
-0.0172646 0.318334 0.863
-0.0166426 0.318334 0.863
-0.0160392 0.318703 0.864
-0.0154165 0.318703 0.864
-0.0147937 0.318703 0.864
-0.0141874 0.319072 0.865
-0.013564 0.319072 0.865
-0.0129555 0.319441 0.866
-0.0123314 0.319441 0.866
-0.0117072 0.319441 0.866
-0.0110831 0.319441 0.866
-0.0104589 0.319441 0.866
-0.00982342 0.319072 0.865
-0.00919999 0.319072 0.865
-0.00857656 0.319072 0.865
-0.00795312 0.319072 0.865
-0.00732969 0.319072 0.865
-0.00669851 0.318703 0.864
-0.00606877 0.318334 0.863
-0.00544678 0.318334 0.863
-0.00482479 0.318334 0.863
-0.0042028 0.318334 0.863
-0.00357666 0.317966 0.862
-0.00295539 0.317966 0.862
-0.00233412 0.317966 0.862
-0.00171285 0.317966 0.862
-0.00109158 0.317966 0.862
-0.000470312 0.317966 0.862
0.000150957 0.317966 0.862
0.000772226 0.317966 0.862
0.00139349 0.317966 0.862
0.0020171 0.318334 0.863
0.00263909 0.318334 0.863
0.00326108 0.318334 0.863
0.00388307 0.318334 0.863
0.00451028 0.318703 0.864
0.00513299 0.318703 0.864
0.0057557 0.318703 0.864
0.00637841 0.318703 0.864
0.00700112 0.318703 0.864
0.00762383 0.318703 0.864
0.00824654 0.318703 0.864
0.00887952 0.319072 0.865
0.00950295 0.319072 0.865
0.0101264 0.319072 0.865
0.0107498 0.319072 0.865
0.0113732 0.319072 0.865
0.0119967 0.319072 0.865
0.0126201 0.319072 0.865
0.0132282 0.318703 0.864
0.0138509 0.318703 0.864
0.0144736 0.318703 0.864
0.0150964 0.318703 0.864
0.0157191 0.318703 0.864
0.0163229 0.318334 0.863
0.0169449 0.318334 0.863
0.0175465 0.317966 0.862
0.0181467 0.317597 0.861
0.0187672 0.317597 0.861
0.0193878 0.317597 0.861
0.0200083 0.317597 0.861
0.0206289 0.317597 0.861
0.0212247 0.317228 0.86
0.0218446 0.317228 0.86
0.0224644 0.317228 0.86
0.0230842 0.317228 0.86
0.0236765 0.316859 0.859
0.0242956 0.316859 0.859
0.0249147 0.316859 0.859
0.0255041 0.31649 0.858
0.0261225 0.31649 0.858
0.0267409 0.31649 0.858
0.0273592 0.31649 0.858
0.0279776 0.31649 0.858
0.0285627 0.316121 0.857
0.0291804 0.316121 0.857
0.0297632 0.315752 0.856
0.0303802 0.315752 0.856
0.0309971 0.315752 0.856
0.0315772 0.315384 0.855
0.0321934 0.315384 0.855
0.0328096 0.315384 0.855
0.0334258 0.315384 0.855
0.034042 0.315384 0.855
0.0346177 0.315015 0.854
0.0352332 0.315015 0.854
0.0358487 0.315015 0.854
0.0364642 0.315015 0.854
0.0370363 0.314646 0.853
0.0376511 0.314646 0.853
0.0382659 0.314646 0.853
0.0389263 0.315015 0.854
0.0395418 0.315015 0.854
0.0401573 0.315015 0.854
0.0407728 0.315015 0.854
0.0413883 0.315015 0.854
0.0420038 0.315015 0.854
0.0426193 0.315015 0.854
0.0432854 0.315384 0.855
0.043953 0.315752 0.856
0.0445699 0.315752 0.856
0.0452396 0.316121 0.857
0.0458573 0.316121 0.857
0.046475 0.316121 0.857
0.0471476 0.31649 0.858
0.0478217 0.316859 0.859
0.0484408 0.316859 0.859
0.049117 0.317228 0.86
0.0497368 0.317228 0.86
0.0503566 0.317228 0.86
0.0509765 0.317228 0.86
0.0516563 0.317597 0.861
0.0522768 0.317597 0.861
0.0528974 0.317597 0.861
0.0534558 0.317228 0.86
0.0540756 0.317228 0.86
0.0546954 0.317228 0.86
0.0553153 0.317228 0.86
0.0559351 0.317228 0.86
0.0564891 0.316859 0.859
0.0570418 0.31649 0.858
0.0576602 0.31649 0.858
0.0582785 0.31649 0.858
0.0588283 0.316121 0.857
0.059446 0.316121 0.857
0.0599935 0.315752 0.856
0.0606105 0.315752 0.856
0.0612274 0.315752 0.856
0.0618444 0.315752 0.856
0.0623154 0.315015 0.854
0.0628572 0.314646 0.853
0.063472 0.314646 0.853
0.0640116 0.314277 0.852
0.0645498 0.313908 0.851
0.0651632 0.313908 0.851
0.0656992 0.313539 0.85
0.0662338 0.31317 0.849
0.0668457 0.31317 0.849
0.0672987 0.312433 0.847
0.067829 0.312064 0.846
0.0684387 0.312064 0.846
0.0690485 0.312064 0.846
0.0695759 0.311695 0.845
0.0701849 0.311695 0.845
0.0707101 0.311326 0.844
0.0713184 0.311326 0.844
0.0719267 0.311326 0.844
0.072535 0.311326 0.844
0.0731433 0.311326 0.844
0.0737516 0.311326 0.844
0.0743599 0.311326 0.844
0.0749682 0.311326 0.844
0.0757556 0.312064 0.846
0.0764556 0.312433 0.847
0.077066 0.312433 0.847
0.0777682 0.312801 0.848
0.0785642 0.313539 0.85
0.0791769 0.313539 0.85
0.0798834 0.313908 0.851
0.0805913 0.314277 0.852
0.0812054 0.314277 0.852
0.0819154 0.314646 0.853
0.082627 0.315015 0.854
0.0832425 0.315015 0.854
0.083858 0.315015 0.854
0.0845724 0.315384 0.855
0.0851886 0.315384 0.855
0.0858048 0.315384 0.855
0.0864211 0.315384 0.855
0.0871391 0.315752 0.856
0.087756 0.315752 0.856
0.088373 0.315752 0.856
0.0889899 0.315752 0.856
0.0896069 0.315752 0.856
0.0902238 0.315752 0.856
0.0908408 0.315752 0.856
0.0914577 0.315752 0.856
0.0920747 0.315752 0.856
0.0926916 0.315752 0.856
0.0933085 0.315752 0.856
0.0939255 0.315752 0.856
0.0945424 0.315752 0.856
0.0951594 0.315752 0.856
0.0957763 0.315752 0.856
0.0963933 0.315752 0.856
0.0971235 0.316121 0.857
0.0977412 0.316121 0.857
0.0985884 0.316859 0.859
0.099323 0.317228 0.86
0.100059 0.317597 0.861
0.10068 0.317597 0.861
0.101418 0.317966 0.862
0.102394 0.319072 0.865
0.103018 0.319072 0.865
0.103881 0.31981 0.867
0.104626 0.320179 0.868
0.105252 0.320179 0.868
0.106121 0.320917 0.87
0.106994 0.321654 0.872
0.107622 0.321654 0.872
0.108251 0.321654 0.872
0.109254 0.322761 0.875
0.11001 0.32313 0.876
0.110641 0.32313 0.876
0.111781 0.324605 0.88
0.11267 0.325343 0.882
0.113563 0.326081 0.884
0.1142 0.326081 0.884
-0.0802031 0.349263 0.945
-0.0794378 0.348894 0.944
-0.0787575 0.348894 0.944
-0.0780771 0.348894 0.944
-0.0774787 0.349263 0.945
-0.0767976 0.349263 0.945
-0.076036 0.348894 0.944
-0.0753556 0.348894 0.944
-0.0747544 0.349263 0.945
-0.0739949 0.348894 0.944
-0.0733145 0.348894 0.944
-0.0726342 0.348894 0.944
-0.0719538 0.348894 0.944
-0.0712734 0.348894 0.944
-0.0706678 0.349263 0.945
-0.0699867 0.349263 0.945
-0.0693056 0.349263 0.945
-0.0686246 0.349263 0.945
-0.0679435 0.349263 0.945
-0.0672624 0.349263 0.945
-0.0665813 0.349263 0.945
-0.0659699 0.349633 0.946
-0.0652191 0.349263 0.945
-0.064538 0.349263 0.945
-0.0638569 0.349263 0.945
-0.063109 0.348894 0.944
-0.0624286 0.348894 0.944
-0.0616828 0.348524 0.943
-0.0610032 0.348524 0.943
-0.0601956 0.347785 0.941
-0.0594541 0.347415 0.94
-0.0587767 0.347415 0.94
-0.0580374 0.347046 0.939
-0.0572995 0.346676 0.938
-0.0566235 0.346676 0.938
-0.0558878 0.346307 0.937
-0.0551535 0.345937 0.936
-0.0544789 0.345937 0.936
-0.0538043 0.345937 0.936
-0.0423883 0.320805 0.868
-0.0417627 0.320805 0.868
-0.0411372 0.320805 0.868
-0.0405116 0.320805 0.868
-0.039886 0.320805 0.868
-0.0392604 0.320805 0.868
-0.0386348 0.320805 0.868
-0.0380092 0.320805 0.868
-0.0373836 0.320805 0.868
-0.036758 0.320805 0.868
-0.0361324 0.320805 0.868
-0.0354659 0.320435 0.867
-0.034841 0.320435 0.867
-0.0341767 0.320066 0.866
-0.0335138 0.319696 0.865
-0.0328904 0.319696 0.865
-0.0322669 0.319696 0.865
-0.0316069 0.319326 0.864
-0.0309842 0.319326 0.864
-0.0303615 0.319326 0.864
-0.0297388 0.319326 0.864
-0.0291161 0.319326 0.864
-0.0284604 0.318957 0.863
-0.0278061 0.318587 0.862
-0.0271849 0.318587 0.862
-0.0265328 0.318218 0.861
-0.0259122 0.318218 0.861
-0.0252917 0.318218 0.861
-0.0246712 0.318218 0.861
-0.0240227 0.317848 0.86
-0.0234028 0.317848 0.86
-0.022783 0.317848 0.86
-0.0221632 0.317848 0.86
-0.0215434 0.317848 0.86
-0.0209235 0.317848 0.86
-0.0203037 0.317848 0.86
-0.0197068 0.318218 0.861
-0.0190862 0.318218 0.861
-0.0184657 0.318218 0.861
-0.0178658 0.318587 0.862
-0.0172446 0.318587 0.862
-0.0166233 0.318587 0.862
-0.0160206 0.318957 0.863
-0.0154165 0.319326 0.864
-0.0147937 0.319326 0.864
-0.014171 0.319326 0.864
-0.013564 0.319696 0.865
-0.0129406 0.319696 0.865
-0.0123171 0.319696 0.865
-0.0116937 0.319696 0.865
-0.0110703 0.319696 0.865
-0.0104348 0.319326 0.864
-0.00981206 0.319326 0.864
-0.00918935 0.319326 0.864
-0.00856664 0.319326 0.864
-0.00793474 0.318957 0.863
-0.00731274 0.318957 0.863
-0.006683 0.318587 0.862
-0.0060547 0.318218 0.861
-0.00543415 0.318218 0.861
-0.0048136 0.318218 0.861
-0.00419306 0.318218 0.861
-0.00357251 0.318218 0.861
-0.00294853 0.317848 0.86
-0.0023287 0.317848 0.86
-0.00170888 0.317848 0.86
-0.00108905 0.317848 0.86
-0.000469221 0.317848 0.86
