0.0636288 0.24493 0.872
0.064331 0.245211 0.873
0.0650346 0.245492 0.874
0.0656645 0.245492 0.874
0.0663703 0.245773 0.875
0.0670775 0.246054 0.876
0.0677088 0.246054 0.876
0.0684182 0.246334 0.877
0.069129 0.246615 0.878
0.0697618 0.246615 0.878
0.0703946 0.246615 0.878
0.0711083 0.246896 0.879
0.0717419 0.246896 0.879
0.0723754 0.246896 0.879
0.0730089 0.246896 0.879
0.0736424 0.246896 0.879
0.0742759 0.246896 0.879
0.0749095 0.246896 0.879
0.075543 0.246896 0.879
0.0761765 0.246896 0.879
0.07681 0.246896 0.879
0.0774435 0.246896 0.879
0.0780771 0.246896 0.879
0.0787106 0.246896 0.879
0.0793441 0.246896 0.879
0.0799776 0.246896 0.879
0.0806112 0.246896 0.879
0.0812447 0.246896 0.879
0.0818782 0.246896 0.879
0.0825117 0.246896 0.879
0.0831452 0.246896 0.879
0.0837788 0.246896 0.879
0.0844123 0.246896 0.879
0.084949 0.246615 0.878
0.0855818 0.246615 0.878
0.0862147 0.246615 0.878
0.0868474 0.246615 0.878
0.0875799 0.246896 0.879
0.0882134 0.246896 0.879
0.0888469 0.246896 0.879
0.0894805 0.246896 0.879
0.090114 0.246896 0.879
0.0907475 0.246896 0.879
0.091381 0.246896 0.879
0.0920145 0.246896 0.879
0.0926481 0.246896 0.879
0.0932816 0.246896 0.879
0.0940219 0.247177 0.88
0.0945486 0.246896 0.879
0.0951821 0.246896 0.879
0.0959247 0.247177 0.88
0.0965589 0.247177 0.88
0.0971932 0.247177 0.88
0.0978274 0.247177 0.88
0.0985735 0.247458 0.881
0.0992085 0.247458 0.881
0.0998434 0.247458 0.881
0.100592 0.247739 0.882
0.101228 0.247739 0.882
0.101864 0.247739 0.882
0.1025 0.247739 0.882
0.103135 0.247739 0.882
0.103889 0.24802 0.883
0.104643 0.248301 0.884
0.10528 0.248301 0.884
0.105918 0.248301 0.884
0.106675 0.248582 0.885
0.107434 0.248862 0.886
0.108073 0.248862 0.886
0.108711 0.248862 0.886
0.109473 0.249143 0.887
0.110113 0.249143 0.887
0.110877 0.249424 0.888
0.111517 0.249424 0.888
0.112157 0.249424 0.888
0.112924 0.249705 0.889
0.113565 0.249705 0.889
0.114205 0.249705 0.889
0.114846 0.249705 0.889
-0.0283073 0.236548 0.84
-0.0277019 0.236548 0.84
-0.0270965 0.236548 0.84
-0.0264595 0.236266 0.839
-0.0258548 0.236266 0.839
-0.0252501 0.236266 0.839
-0.0246748 0.236548 0.84
-0.0240694 0.236548 0.84
-0.023464 0.236548 0.84
-0.0228586 0.236548 0.84
-0.0222532 0.236548 0.84
-0.0216478 0.236548 0.84
-0.0210423 0.236548 0.84
-0.0204369 0.236548 0.84
-0.0198315 0.236548 0.84
-0.0192261 0.236548 0.84
-0.0186207 0.236548 0.84
-0.0180367 0.236829 0.841
-0.0174306 0.236829 0.841
-0.0168245 0.236829 0.841
-0.0162183 0.236829 0.841
-0.0156122 0.236829 0.841
-0.0150061 0.236829 0.841
-0.0144171 0.237111 0.842
-0.0138102 0.237111 0.842
-0.0132033 0.237111 0.842
-0.0126114 0.237392 0.843
-0.0120181 0.237674 0.844
-0.0114098 0.237674 0.844
-0.0108015 0.237674 0.844
-0.0101932 0.237674 0.844
-0.00958493 0.237674 0.844
-0.00898727 0.237956 0.845
-0.00838817 0.238237 0.846
-0.00777843 0.238237 0.846
-0.00716869 0.238237 0.846
-0.00656671 0.238519 0.847
-0.00595625 0.238519 0.847
-0.00534579 0.238519 0.847
-0.00474652 0.239082 0.849
-0.00413949 0.239364 0.85
-0.00352687 0.239364 0.85
-0.00291425 0.239364 0.85
-0.00230433 0.239645 0.851
-0.00169099 0.239645 0.851
-0.00107765 0.239645 0.851
-0.000464856 0.239927 0.852
0.000149205 0.239927 0.852
0.000763267 0.239927 0.852
0.00137733 0.239927 0.852
0.00199139 0.239927 0.852
0.00260545 0.239927 0.852
0.00321951 0.239927 0.852
0.00383358 0.239927 0.852
0.00444764 0.239927 0.852
0.0050617 0.239927 0.852
0.00567576 0.239927 0.852
0.00628982 0.239927 0.852
0.00691199 0.240208 0.853
0.00752677 0.240208 0.853
0.00814155 0.240208 0.853
0.00874607 0.239927 0.852
0.00936013 0.239927 0.852
0.00997419 0.239927 0.852
0.0105883 0.239927 0.852
0.0112023 0.239927 0.852
0.0118302 0.240208 0.853
0.012445 0.240208 0.853
0.0130598 0.240208 0.853
0.0136746 0.240208 0.853
0.0142894 0.240208 0.853
0.0149042 0.240208 0.853
0.0155189 0.240208 0.853
0.0161337 0.240208 0.853
0.0167485 0.240208 0.853
0.0173633 0.240208 0.853
0.0179781 0.240208 0.853
0.0185929 0.240208 0.853
0.0192076 0.240208 0.853
0.0198457 0.24049 0.854
0.0204612 0.24049 0.854
0.0210767 0.24049 0.854
0.0216922 0.24049 0.854
0.0223077 0.24049 0.854
0.02295 0.240772 0.855
0.0235662 0.240772 0.855
0.0241825 0.240772 0.855
0.0248277 0.241053 0.856
0.0254744 0.241335 0.857
0.026092 0.241335 0.857
0.0267097 0.241335 0.857
0.0273911 0.241898 0.859
0.0280102 0.241898 0.859
0.0286293 0.241898 0.859
0.0292825 0.24218 0.86
0.0299371 0.242461 0.861
0.0305576 0.242461 0.861
0.0311782 0.242461 0.861
0.0318357 0.242743 0.862
0.0324569 0.242743 0.862
0.0330782 0.242743 0.862
0.0336995 0.242743 0.862
0.0343208 0.242743 0.862
0.0349826 0.243024 0.863
0.0356045 0.243024 0.863
0.0362685 0.243306 0.864
0.0368912 0.243306 0.864
0.0375139 0.243306 0.864
0.0381366 0.243306 0.864
0.0387594 0.243306 0.864
0.0393821 0.243306 0.864
0.0400511 0.243588 0.865
0.0406745 0.243588 0.865
0.0412979 0.243588 0.865
0.0419214 0.243588 0.865
0.0425448 0.243588 0.865
0.0431183 0.243306 0.864
0.043741 0.243306 0.864
0.0443637 0.243306 0.864
0.0449344 0.243024 0.863
0.0455564 0.243024 0.863
0.0461784 0.243024 0.863
0.0468004 0.243024 0.863
0.0474223 0.243024 0.863
0.0480443 0.243024 0.863
0.0486663 0.243024 0.863
0.0492883 0.243024 0.863
0.0499103 0.243024 0.863
0.0505323 0.243024 0.863
0.0511543 0.243024 0.863
0.0518363 0.243306 0.864
0.052459 0.243306 0.864
0.0530817 0.243306 0.864
0.0537044 0.243306 0.864
0.05439 0.243588 0.865
0.0550134 0.243588 0.865
0.0557012 0.243869 0.866
0.0563253 0.243869 0.866
0.0569495 0.243869 0.866
0.0576401 0.244151 0.867
0.058265 0.244151 0.867
0.0588899 0.244151 0.867
0.0595834 0.244433 0.868
0.060209 0.244433 0.868
0.0608346 0.244433 0.868
0.061531 0.244714 0.869
0.0622288 0.244996 0.87
0.0630003 0.245559 0.872
0.0636288 0.245559 0.872
0.0642573 0.245559 0.872
0.0649602 0.245841 0.873
0.0655894 0.245841 0.873
0.0663703 0.246404 0.875
0.0670775 0.246685 0.876
0.0677088 0.246685 0.876
0.0684182 0.246967 0.877
0.069129 0.247249 0.878
0.0697618 0.247249 0.878
0.0703946 0.247249 0.878
0.0711083 0.24753 0.879
0.0717419 0.24753 0.879
0.0723754 0.24753 0.879
0.0730089 0.24753 0.879
0.0736424 0.24753 0.879
0.0742759 0.24753 0.879
0.0749095 0.24753 0.879
0.075543 0.24753 0.879
0.0761765 0.24753 0.879
0.07681 0.24753 0.879
0.0774435 0.24753 0.879
0.0780771 0.24753 0.879
0.0787106 0.24753 0.879
0.0793441 0.24753 0.879
0.0799776 0.24753 0.879
0.0806112 0.24753 0.879
0.0812447 0.24753 0.879
0.0819713 0.247812 0.88
0.0825117 0.24753 0.879
0.0831452 0.24753 0.879
0.0838741 0.247812 0.88
0.0844123 0.24753 0.879
0.0850458 0.24753 0.879
0.0856793 0.24753 0.879
0.0863129 0.24753 0.879
0.0869464 0.24753 0.879
0.0875799 0.24753 0.879
0.0883138 0.247812 0.88
0.0888469 0.24753 0.879
0.0894805 0.24753 0.879
0.0902165 0.247812 0.88
0.0908507 0.247812 0.88
0.091485 0.247812 0.88
0.0921192 0.247812 0.88
0.0927535 0.247812 0.88
0.0933877 0.247812 0.88
0.0940219 0.247812 0.88
0.0946562 0.247812 0.88
0.0952904 0.247812 0.88
0.0959247 0.247812 0.88
0.0965589 0.247812 0.88
0.0971932 0.247812 0.88
0.0979386 0.248093 0.881
0.0985735 0.248093 0.881
0.0992085 0.248093 0.881
0.0998434 0.248093 0.881
0.100592 0.248375 0.882
0.101228 0.248375 0.882
0.101864 0.248375 0.882
0.102616 0.248657 0.883
0.103252 0.248657 0.883
0.103889 0.248657 0.883
0.104643 0.248938 0.884
0.10528 0.248938 0.884
0.105918 0.248938 0.884
0.106675 0.24922 0.885
0.107434 0.249501 0.886
0.108073 0.249501 0.886
0.108711 0.249501 0.886
0.109473 0.249783 0.887
0.110113 0.249783 0.887
0.110877 0.250065 0.888
0.111517 0.250065 0.888
0.112157 0.250065 0.888
0.112924 0.250346 0.889
0.113565 0.250346 0.889
0.114205 0.250346 0.889
0.114846 0.250346 0.889
-0.0283073 0.237153 0.84
-0.0277019 0.237153 0.84
-0.0270965 0.237153 0.84
-0.0264595 0.236871 0.839
-0.0258548 0.236871 0.839
-0.0252501 0.236871 0.839
-0.0246748 0.237153 0.84
-0.0240694 0.237153 0.84
-0.023464 0.237153 0.84
-0.0228586 0.237153 0.84
-0.0222532 0.237153 0.84
-0.0216478 0.237153 0.84
-0.0210423 0.237153 0.84
-0.0204369 0.237153 0.84
-0.0198315 0.237153 0.84
-0.0192261 0.237153 0.84
-0.0186207 0.237153 0.84
-0.0180153 0.237153 0.84
-0.0174099 0.237153 0.84
-0.0168245 0.237436 0.841
-0.0162183 0.237436 0.841
-0.0156122 0.237436 0.841
-0.0150061 0.237436 0.841
-0.0143999 0.237436 0.841
-0.0137938 0.237436 0.841
-0.0131877 0.237436 0.841
-0.0125965 0.237718 0.842
-0.0119896 0.237718 0.842
-0.0113828 0.237718 0.842
-0.0107887 0.238 0.843
-0.0101932 0.238283 0.844
-0.00958493 0.238283 0.844
-0.00897663 0.238283 0.844
-0.00836834 0.238283 0.844
-0.00776004 0.238283 0.844
-0.00716022 0.238565 0.845
-0.00655896 0.238847 0.846
-0.00595625 0.23913 0.847
-0.00534579 0.23913 0.847
-0.00474093 0.239412 0.848
-0.00413462 0.239694 0.849
-0.00352272 0.239694 0.849
-0.00291425 0.239977 0.85
-0.00230163 0.239977 0.85
-0.00168901 0.239977 0.85
-0.00107765 0.240259 0.851
-0.000464311 0.240259 0.851
0.00014903 0.240259 0.851
0.000763267 0.240541 0.852
0.00137733 0.240541 0.852
0.00199139 0.240541 0.852
0.00260545 0.240541 0.852
0.00321951 0.240541 0.852
0.00383358 0.240541 0.852
0.00444764 0.240541 0.852
0.0050617 0.240541 0.852
0.00567576 0.240541 0.852
0.00628982 0.240541 0.852
0.00691199 0.240824 0.853
0.00752677 0.240824 0.853
0.00814155 0.240824 0.853
0.00874607 0.240541 0.852
0.00936013 0.240541 0.852
0.00997419 0.240541 0.852
0.0105883 0.240541 0.852
0.0112023 0.240541 0.852
0.0118302 0.240824 0.853
0.012445 0.240824 0.853
0.0130598 0.240824 0.853
0.0136746 0.240824 0.853
0.0142894 0.240824 0.853
0.0149042 0.240824 0.853
0.0155189 0.240824 0.853
0.0161337 0.240824 0.853
0.0167485 0.240824 0.853
0.0173633 0.240824 0.853
0.0179781 0.240824 0.853
0.0185929 0.240824 0.853
0.0192076 0.240824 0.853
0.0198457 0.241106 0.854
0.0204612 0.241106 0.854
0.0210767 0.241106 0.854
0.0216922 0.241106 0.854
0.0223077 0.241106 0.854
0.02295 0.241388 0.855
0.0235662 0.241388 0.855
0.0241825 0.241388 0.855
0.0248277 0.241671 0.856
0.0254744 0.241953 0.857
0.026092 0.241953 0.857
0.0267097 0.241953 0.857
0.0273911 0.242518 0.859
0.0280102 0.242518 0.859
0.0286293 0.242518 0.859
0.0292825 0.2428 0.86
0.0299371 0.243082 0.861
0.0305576 0.243082 0.861
0.0311782 0.243082 0.861
0.0318357 0.243365 0.862
0.0324569 0.243365 0.862
0.0330782 0.243365 0.862
0.0336995 0.243365 0.862
0.0343208 0.243365 0.862
0.0349826 0.243647 0.863
0.0356045 0.243647 0.863
0.0362685 0.243929 0.864
0.0368912 0.243929 0.864
0.0375139 0.243929 0.864
0.0381366 0.243929 0.864
0.0387594 0.243929 0.864
0.0393821 0.243929 0.864
0.0400511 0.244212 0.865
0.0406745 0.244212 0.865
0.0412979 0.244212 0.865
0.0419214 0.244212 0.865
0.0425448 0.244212 0.865
0.0431183 0.243929 0.864
0.043741 0.243929 0.864
0.0443637 0.243929 0.864
0.0449865 0.243929 0.864
0.0456092 0.243929 0.864
0.0462319 0.243929 0.864
0.0468546 0.243929 0.864
0.0474773 0.243929 0.864
0.0481 0.243929 0.864
0.0487227 0.243929 0.864
0.0493454 0.243929 0.864
0.0499681 0.243929 0.864
0.0505909 0.243929 0.864
0.0512136 0.243929 0.864
0.0518363 0.243929 0.864
0.052459 0.243929 0.864
0.0530817 0.243929 0.864
0.0537044 0.243929 0.864
0.05439 0.244212 0.865
0.0550134 0.244212 0.865
0.0557012 0.244494 0.866
0.0563253 0.244494 0.866
0.0569495 0.244494 0.866
0.0576401 0.244776 0.867
0.058265 0.244776 0.867
0.0588899 0.244776 0.867
0.0595834 0.245058 0.868
0.060209 0.245058 0.868
0.0608346 0.245058 0.868
0.061531 0.245341 0.869
0.0622288 0.245623 0.87
0.0630003 0.246188 0.872
0.0636288 0.246188 0.872
0.0642573 0.246188 0.872
0.0649602 0.24647 0.873
0.0655894 0.24647 0.873
0.0663703 0.247035 0.875
0.0670775 0.247317 0.876
0.0677088 0.247317 0.876
0.0684182 0.247599 0.877
0.069129 0.247882 0.878
0.0697618 0.247882 0.878
0.0703946 0.247882 0.878
0.0711083 0.248164 0.879
0.0717419 0.248164 0.879
0.0723754 0.248164 0.879
0.0730089 0.248164 0.879
0.0736424 0.248164 0.879
0.0742759 0.248164 0.879
0.0749095 0.248164 0.879
0.075543 0.248164 0.879
0.0761765 0.248164 0.879
0.07681 0.248164 0.879
0.0774435 0.248164 0.879
0.0780771 0.248164 0.879
0.0787106 0.248164 0.879
0.0793441 0.248164 0.879
0.0799776 0.248164 0.879
0.0806112 0.248164 0.879
0.0812447 0.248164 0.879
0.0819713 0.248446 0.88
0.0825117 0.248164 0.879
0.0831452 0.248164 0.879
0.0838741 0.248446 0.88
0.0844123 0.248164 0.879
0.0850458 0.248164 0.879
0.0856793 0.248164 0.879
0.0863129 0.248164 0.879
0.0869464 0.248164 0.879
0.0875799 0.248164 0.879
0.0883138 0.248446 0.88
0.0888469 0.248164 0.879
0.0894805 0.248164 0.879
0.0902165 0.248446 0.88
0.0908507 0.248446 0.88
0.091485 0.248446 0.88
0.0921192 0.248446 0.88
0.0927535 0.248446 0.88
0.0933877 0.248446 0.88
0.0940219 0.248446 0.88
0.0946562 0.248446 0.88
0.0952904 0.248446 0.88
0.0959247 0.248446 0.88
0.0965589 0.248446 0.88
0.0971932 0.248446 0.88
0.0979386 0.248729 0.881
0.0985735 0.248729 0.881
0.0992085 0.248729 0.881
0.0998434 0.248729 0.881
0.100592 0.249011 0.882
0.101228 0.249011 0.882
0.101864 0.249011 0.882
0.1025 0.249011 0.882
0.103135 0.249011 0.882
0.103889 0.249293 0.883
0.104643 0.249576 0.884
0.10528 0.249576 0.884
0.105918 0.249576 0.884
0.106675 0.249858 0.885
0.107313 0.249858 0.885
0.107951 0.249858 0.885
0.108711 0.25014 0.886
0.109473 0.250423 0.887
0.110113 0.250423 0.887
0.110877 0.250705 0.888
0.111517 0.250705 0.888
0.112157 0.250705 0.888
0.112797 0.250705 0.888
0.113437 0.250705 0.888
0.114077 0.250705 0.888
0.114846 0.250987 0.889
-0.0283073 0.237759 0.84
-0.0277019 0.237759 0.84
-0.0270965 0.237759 0.84
-0.0264595 0.237476 0.839
-0.0258548 0.237476 0.839
-0.0252501 0.237476 0.839
-0.0246748 0.237759 0.84
-0.0240694 0.237759 0.84
-0.023464 0.237759 0.84
-0.0228586 0.237759 0.84
-0.0222532 0.237759 0.84
-0.0216478 0.237759 0.84
-0.0210423 0.237759 0.84
-0.0204369 0.237759 0.84
-0.0198315 0.237759 0.84
-0.0192261 0.237759 0.84
-0.0186207 0.237759 0.84
-0.0180153 0.237759 0.84
-0.0174099 0.237759 0.84
-0.0168245 0.238042 0.841
-0.0162183 0.238042 0.841
-0.0156122 0.238042 0.841
-0.0150061 0.238042 0.841
-0.0143999 0.238042 0.841
-0.0137938 0.238042 0.841
-0.0131877 0.238042 0.841
-0.0125965 0.238325 0.842
-0.0119896 0.238325 0.842
-0.0113828 0.238325 0.842
-0.0107887 0.238608 0.843
-0.0101932 0.238891 0.844
-0.00958493 0.238891 0.844
-0.00897663 0.238891 0.844
-0.00836834 0.238891 0.844
-0.00776004 0.238891 0.844
-0.00716022 0.239174 0.845
-0.00655896 0.239457 0.846
-0.00595625 0.239741 0.847
-0.00534579 0.239741 0.847
-0.00474093 0.240024 0.848
-0.00413462 0.240307 0.849
-0.00352272 0.240307 0.849
-0.00291425 0.24059 0.85
-0.00230163 0.24059 0.85
-0.00168901 0.24059 0.85
-0.00107765 0.240873 0.851
-0.000464311 0.240873 0.851
0.00014903 0.240873 0.851
0.000763267 0.241156 0.852
0.00137733 0.241156 0.852
0.00199139 0.241156 0.852
0.00260545 0.241156 0.852
0.00321951 0.241156 0.852
0.00383358 0.241156 0.852
0.00444764 0.241156 0.852
0.0050617 0.241156 0.852
0.00567576 0.241156 0.852
0.00628982 0.241156 0.852
0.00690388 0.241156 0.852
0.00751795 0.241156 0.852
0.00813201 0.241156 0.852
0.00874607 0.241156 0.852
0.00936013 0.241156 0.852
0.00997419 0.241156 0.852
0.0105883 0.241156 0.852
0.0112023 0.241156 0.852
0.0118164 0.241156 0.852
0.0124304 0.241156 0.852
0.0130445 0.241156 0.852
0.0136586 0.241156 0.852
0.0142726 0.241156 0.852
0.0148867 0.241156 0.852
0.0155007 0.241156 0.852
0.0161148 0.241156 0.852
0.0167485 0.241439 0.853
0.0173633 0.241439 0.853
0.0179781 0.241439 0.853
0.0185929 0.241439 0.853
0.0192076 0.241439 0.853
0.0198224 0.241439 0.853
0.0204372 0.241439 0.853
0.0210767 0.241722 0.854
0.0216922 0.241722 0.854
0.0223077 0.241722 0.854
0.02295 0.242005 0.855
0.0235662 0.242005 0.855
0.0241825 0.242005 0.855
0.0248277 0.242288 0.856
0.0254446 0.242288 0.856
0.0260616 0.242288 0.856
0.0267097 0.242571 0.857
0.0273592 0.242854 0.858
0.0280102 0.243137 0.859
0.0286293 0.243137 0.859
0.0292825 0.24342 0.86
0.0299023 0.24342 0.86
0.0305222 0.24342 0.86
0.031142 0.24342 0.86
0.0317987 0.243703 0.861
0.0324193 0.243703 0.861
0.0330782 0.243986 0.862
0.0336995 0.243986 0.862
0.0343208 0.243986 0.862
0.0349826 0.244269 0.863
0.0356045 0.244269 0.863
0.0362265 0.244269 0.863
0.0368485 0.244269 0.863
0.0375139 0.244552 0.864
0.0381366 0.244552 0.864
0.0387594 0.244552 0.864
0.0393821 0.244552 0.864
0.0400048 0.244552 0.864
0.0406275 0.244552 0.864
0.0412502 0.244552 0.864
0.0419214 0.244835 0.865
0.0425448 0.244835 0.865
0.0431183 0.244552 0.864
0.043741 0.244552 0.864
0.0443637 0.244552 0.864
0.0449865 0.244552 0.864
0.0456092 0.244552 0.864
0.0462319 0.244552 0.864
0.0468546 0.244552 0.864
0.0474773 0.244552 0.864
0.0481 0.244552 0.864
0.0487227 0.244552 0.864
0.0493454 0.244552 0.864
0.0499681 0.244552 0.864
0.0505909 0.244552 0.864
0.0512136 0.244552 0.864
0.0518363 0.244552 0.864
0.052459 0.244552 0.864
0.0530817 0.244552 0.864
0.0537044 0.244552 0.864
0.05439 0.244835 0.865
0.0550134 0.244835 0.865
0.0557012 0.245118 0.866
0.0563253 0.245118 0.866
0.0569495 0.245118 0.866
0.0576401 0.245401 0.867
0.058265 0.245401 0.867
0.0588899 0.245401 0.867
0.0595834 0.245685 0.868
0.060209 0.245685 0.868
0.0608346 0.245685 0.868
0.061531 0.245968 0.869
0.0622288 0.246251 0.87
0.0629281 0.246534 0.871
0.0635558 0.246534 0.871
0.0642573 0.246817 0.872
0.0649602 0.2471 0.873
0.0655894 0.2471 0.873
0.0662944 0.247383 0.874
0.0670009 0.247666 0.875
0.0676316 0.247666 0.875
0.0683402 0.247949 0.876
0.0690503 0.248232 0.877
0.0697618 0.248515 0.878
0.0703946 0.248515 0.878
0.0710274 0.248515 0.878
0.0717419 0.248798 0.879
0.0723754 0.248798 0.879
0.0730089 0.248798 0.879
0.0736424 0.248798 0.879
0.0742759 0.248798 0.879
0.0749095 0.248798 0.879
0.075543 0.248798 0.879
0.0761765 0.248798 0.879
0.07681 0.248798 0.879
0.0774435 0.248798 0.879
0.0780771 0.248798 0.879
0.0787106 0.248798 0.879
0.0794344 0.249081 0.88
0.0800686 0.249081 0.88
0.0807029 0.249081 0.88
0.0813371 0.249081 0.88
0.0819713 0.249081 0.88
0.0826056 0.249081 0.88
0.0832398 0.249081 0.88
0.0838741 0.249081 0.88
0.0845083 0.249081 0.88
0.0851426 0.249081 0.88
0.0857768 0.249081 0.88
0.086411 0.249081 0.88
0.0870453 0.249081 0.88
0.0876795 0.249081 0.88
0.0883138 0.249081 0.88
0.088948 0.249081 0.88
0.0895822 0.249081 0.88
0.0902165 0.249081 0.88
0.0908507 0.249081 0.88
0.091485 0.249081 0.88
0.0921192 0.249081 0.88
0.0927535 0.249081 0.88
0.0933877 0.249081 0.88
0.0940219 0.249081 0.88
0.0946562 0.249081 0.88
0.0952904 0.249081 0.88
0.0960337 0.249364 0.881
0.0966686 0.249364 0.881
0.0973036 0.249364 0.881
0.0979386 0.249364 0.881
0.0985735 0.249364 0.881
0.0992085 0.249364 0.881
0.0998434 0.249364 0.881
0.100592 0.249647 0.882
0.101228 0.249647 0.882
0.101864 0.249647 0.882
0.1025 0.249647 0.882
0.103135 0.249647 0.882
0.103889 0.24993 0.883
0.104525 0.24993 0.883
0.105161 0.24993 0.883
0.105918 0.250213 0.884
0.106555 0.250213 0.884
0.107313 0.250496 0.885
0.107951 0.250496 0.885
0.108589 0.250496 0.885
0.10935 0.250779 0.886
0.109989 0.250779 0.886
0.110752 0.251062 0.887
0.111391 0.251062 0.887
0.112031 0.251062 0.887
0.112797 0.251345 0.888
0.113437 0.251345 0.888
0.114077 0.251345 0.888
0.114846 0.251628 0.889
-0.0283073 0.238365 0.84
-0.0277019 0.238365 0.84
-0.0270642 0.238081 0.839
-0.0264595 0.238081 0.839
-0.0258548 0.238081 0.839
-0.0252501 0.238081 0.839
-0.0246748 0.238365 0.84
-0.0240694 0.238365 0.84
-0.0234361 0.238081 0.839
-0.0228314 0.238081 0.839
-0.0222532 0.238365 0.84
-0.0216478 0.238365 0.84
-0.0210423 0.238365 0.84
-0.0204369 0.238365 0.84
-0.0198315 0.238365 0.84
-0.0192261 0.238365 0.84
-0.0186207 0.238365 0.84
-0.0180153 0.238365 0.84
-0.0174099 0.238365 0.84
-0.0168045 0.238365 0.84
-0.0162183 0.238649 0.841
-0.0156122 0.238649 0.841
-0.0150061 0.238649 0.841
-0.0143999 0.238649 0.841
-0.0137938 0.238649 0.841
-0.0131877 0.238649 0.841
-0.0125815 0.238649 0.841
-0.0119896 0.238933 0.842
-0.0113828 0.238933 0.842
-0.0107759 0.238933 0.842
-0.0101691 0.238933 0.842
-0.00956222 0.238933 0.842
-0.008966 0.239216 0.843
-0.00836834 0.2395 0.844
-0.00776004 0.2395 0.844
-0.00715175 0.2395 0.844
-0.0065512 0.239784 0.845
-0.00594922 0.240068 0.846
-0.00533948 0.240068 0.846
-0.00473533 0.240351 0.847
-0.00412975 0.240635 0.848
-0.00351857 0.240635 0.848
-0.00291082 0.240919 0.849
-0.00230163 0.241203 0.85
-0.00168901 0.241203 0.85
-0.00107765 0.241486 0.851
-0.000464311 0.241486 0.851
0.00014903 0.241486 0.851
0.000762371 0.241486 0.851
0.00137571 0.241486 0.851
0.00199139 0.24177 0.852
0.00260545 0.24177 0.852
0.00321951 0.24177 0.852
0.00383358 0.24177 0.852
0.00444764 0.24177 0.852
0.0050617 0.24177 0.852
0.00567576 0.24177 0.852
0.00628982 0.24177 0.852
0.00690388 0.24177 0.852
0.00751795 0.24177 0.852
0.00813201 0.24177 0.852
0.0087358 0.241486 0.851
0.00934914 0.241486 0.851
0.00996249 0.241486 0.851
0.0105883 0.24177 0.852
0.0111892 0.241486 0.851
0.0118025 0.241486 0.851
0.0124158 0.241486 0.851
0.0130445 0.24177 0.852
0.0136586 0.24177 0.852
0.0142559 0.241486 0.851
0.0148692 0.241486 0.851
0.0155007 0.24177 0.852
0.0161148 0.24177 0.852
0.0167289 0.24177 0.852
0.0173429 0.24177 0.852
0.017957 0.24177 0.852
0.0185711 0.24177 0.852
0.0192076 0.242054 0.853
0.0198224 0.242054 0.853
0.0204372 0.242054 0.853
0.021052 0.242054 0.853
0.0216922 0.242338 0.854
0.0223077 0.242338 0.854
0.0229232 0.242338 0.854
0.0235662 0.242622 0.855
0.0241825 0.242622 0.855
0.0247987 0.242622 0.855
0.0254446 0.242905 0.856
0.0260616 0.242905 0.856
0.0267097 0.243189 0.857
0.0273274 0.243189 0.857
0.0279776 0.243473 0.858
0.028596 0.243473 0.858
0.0292484 0.243757 0.859
0.0299023 0.24404 0.86
0.0305222 0.24404 0.86
0.031142 0.24404 0.86
0.0317987 0.244324 0.861
0.0324193 0.244324 0.861
0.0330398 0.244324 0.861
0.0336995 0.244608 0.862
0.0343208 0.244608 0.862
0.034942 0.244608 0.862
0.0355633 0.244608 0.862
0.0362265 0.244892 0.863
0.0368485 0.244892 0.863
0.0374705 0.244892 0.863
0.0380925 0.244892 0.863
0.0387145 0.244892 0.863
0.0393821 0.245175 0.864
0.0400048 0.245175 0.864
0.0406275 0.245175 0.864
0.0412502 0.245175 0.864
0.0418729 0.245175 0.864
0.0424956 0.245175 0.864
0.0431183 0.245175 0.864
0.043741 0.245175 0.864
0.0443637 0.245175 0.864
0.0449865 0.245175 0.864
0.0456092 0.245175 0.864
0.0462319 0.245175 0.864
0.0468546 0.245175 0.864
0.0474773 0.245175 0.864
0.0481 0.245175 0.864
0.0487227 0.245175 0.864
0.0493454 0.245175 0.864
0.0499681 0.245175 0.864
0.0505909 0.245175 0.864
0.0512136 0.245175 0.864
0.0518963 0.245459 0.865
0.0525197 0.245459 0.865
0.0531431 0.245459 0.865
0.0537666 0.245459 0.865
0.0544529 0.245743 0.866
0.055077 0.245743 0.866
0.0557012 0.245743 0.866
0.0563253 0.245743 0.866
0.0569495 0.245743 0.866
0.0576401 0.246027 0.867
0.058265 0.246027 0.867
0.0588899 0.246027 0.867
0.0595834 0.246311 0.868
0.060209 0.246311 0.868
0.0608346 0.246311 0.868
0.061531 0.246594 0.869
0.0621573 0.246594 0.869
0.0628558 0.246878 0.87
0.0634829 0.246878 0.87
0.0641836 0.247162 0.871
0.0648858 0.247446 0.872
0.0655142 0.247446 0.872
0.0662186 0.247729 0.873
0.0669243 0.248013 0.874
0.0675543 0.248013 0.874
0.0682622 0.248297 0.875
0.0689716 0.248581 0.876
0.0696824 0.248864 0.877
0.0703145 0.248864 0.877
0.0710274 0.249148 0.878
0.0716602 0.249148 0.878
0.072293 0.249148 0.878
0.0729258 0.249148 0.878
0.0735586 0.249148 0.878
0.0741914 0.249148 0.878
0.0748242 0.249148 0.878
0.075457 0.249148 0.878
0.0760898 0.249148 0.878
0.0767226 0.249148 0.878
0.0774435 0.249432 0.879
0.0780771 0.249432 0.879
0.0787106 0.249432 0.879
0.0793441 0.249432 0.879
0.0799776 0.249432 0.879
0.0806112 0.249432 0.879
0.0813371 0.249716 0.88
0.0819713 0.249716 0.88
0.0826056 0.249716 0.88
0.0832398 0.249716 0.88
0.0838741 0.249716 0.88
0.0845083 0.249716 0.88
0.0852393 0.249999 0.881
0.0858743 0.249999 0.881
0.0865092 0.249999 0.881
0.0871442 0.249999 0.881
0.0877792 0.249999 0.881
0.0884141 0.249999 0.881
0.088948 0.249716 0.88
0.0895822 0.249716 0.88
0.090319 0.249999 0.881
0.090954 0.249999 0.881
0.091485 0.249716 0.88
0.0921192 0.249716 0.88
0.0927535 0.249716 0.88
0.0934938 0.249999 0.881
0.0941288 0.249999 0.881
0.0947638 0.249999 0.881
0.0953987 0.249999 0.881
0.0960337 0.249999 0.881
0.0966686 0.249999 0.881
0.0973036 0.249999 0.881
0.0979386 0.249999 0.881
0.0985735 0.249999 0.881
0.0992085 0.249999 0.881
0.0998434 0.249999 0.881
0.100592 0.250283 0.882
0.101228 0.250283 0.882
0.101864 0.250283 0.882
0.1025 0.250283 0.882
0.103135 0.250283 0.882
0.103889 0.250567 0.883
0.104525 0.250567 0.883
0.105161 0.250567 0.883
0.105918 0.250851 0.884
0.106555 0.250851 0.884
0.107313 0.251135 0.885
0.107951 0.251135 0.885
0.108589 0.251135 0.885
0.10935 0.251418 0.886
0.109989 0.251418 0.886
0.110752 0.251702 0.887
0.111391 0.251702 0.887
0.112031 0.251702 0.887
0.112797 0.251986 0.888
0.113437 0.251986 0.888
0.114077 0.251986 0.888
0.114846 0.25227 0.889
-0.0270642 0.238686 0.839
-0.0264595 0.238686 0.839
-0.0258548 0.238686 0.839
-0.0252501 0.238686 0.839
-0.0246748 0.238971 0.84
-0.0240694 0.238971 0.84
-0.0234361 0.238686 0.839
-0.0228314 0.238686 0.839
-0.0222532 0.238971 0.84
-0.0216478 0.238971 0.84
-0.0210423 0.238971 0.84
-0.0204369 0.238971 0.84
-0.0198315 0.238971 0.84
-0.0192261 0.238971 0.84
-0.0186207 0.238971 0.84
-0.0180153 0.238971 0.84
-0.0174099 0.238971 0.84
-0.0168045 0.238971 0.84
-0.016199 0.238971 0.84
-0.0155936 0.238971 0.84
-0.0150061 0.239255 0.841
-0.0143999 0.239255 0.841
-0.0137938 0.239255 0.841
-0.0131877 0.239255 0.841
-0.0125815 0.239255 0.841
-0.0119896 0.23954 0.842
-0.0113828 0.23954 0.842
-0.0107759 0.23954 0.842
-0.0101691 0.23954 0.842
-0.00956222 0.23954 0.842
-0.008966 0.239824 0.843
-0.00836834 0.240109 0.844
-0.00776004 0.240109 0.844
-0.00715175 0.240109 0.844
-0.0065512 0.240393 0.845
-0.00594922 0.240678 0.846
-0.00533948 0.240678 0.846
-0.00473533 0.240962 0.847
-0.00412975 0.241247 0.848
-0.00351857 0.241247 0.848
-0.00291082 0.241531 0.849
-0.00230163 0.241816 0.85
-0.00168901 0.241816 0.85
-0.00107639 0.241816 0.85
-0.000464311 0.2421 0.851
0.00014903 0.2421 0.851
0.000762371 0.2421 0.851
0.00137571 0.2421 0.851
0.00198905 0.2421 0.851
0.00260239 0.2421 0.851
0.00321574 0.2421 0.851
0.00382908 0.2421 0.851
0.00444242 0.2421 0.851
0.00505576 0.2421 0.851
0.0056691 0.2421 0.851
0.00628244 0.2421 0.851
0.00689578 0.2421 0.851
0.00750912 0.2421 0.851
0.00812246 0.2421 0.851
0.0087358 0.2421 0.851
0.00934914 0.2421 0.851
0.00996249 0.2421 0.851
0.0105758 0.2421 0.851
0.0111892 0.2421 0.851
0.0118025 0.2421 0.851
0.0124158 0.2421 0.851
0.0130292 0.2421 0.851
0.0136425 0.2421 0.851
0.0142559 0.2421 0.851
0.0148692 0.2421 0.851
0.0154826 0.2421 0.851
0.0160959 0.2421 0.851
0.0167092 0.2421 0.851
0.0173429 0.242385 0.852
0.017957 0.242385 0.852
0.0185711 0.242385 0.852
0.0192076 0.242669 0.853
0.0198224 0.242669 0.853
0.0204372 0.242669 0.853
0.021052 0.242669 0.853
0.0216922 0.242954 0.854
0.0223077 0.242954 0.854
0.0229232 0.242954 0.854
0.0235662 0.243238 0.855
0.0241825 0.243238 0.855
0.0247987 0.243238 0.855
0.0254446 0.243523 0.856
0.0260616 0.243523 0.856
0.0267097 0.243807 0.857
0.0273274 0.243807 0.857
0.0279776 0.244092 0.858
0.028596 0.244092 0.858
0.0292484 0.244376 0.859
0.0299023 0.244661 0.86
0.0305222 0.244661 0.86
0.031142 0.244661 0.86
0.0317987 0.244945 0.861
0.0324193 0.244945 0.861
0.0330398 0.244945 0.861
0.0336995 0.24523 0.862
0.0343208 0.24523 0.862
0.034942 0.24523 0.862
0.0355633 0.24523 0.862
0.0362265 0.245514 0.863
0.0368485 0.245514 0.863
0.0374705 0.245514 0.863
0.0380925 0.245514 0.863
0.0387145 0.245514 0.863
0.0393821 0.245799 0.864
0.0400048 0.245799 0.864
0.0406275 0.245799 0.864
0.0412502 0.245799 0.864
0.0418729 0.245799 0.864
0.0424956 0.245799 0.864
0.0431183 0.245799 0.864
0.0437917 0.246083 0.865
0.0444151 0.246083 0.865
0.0449865 0.245799 0.864
0.0456092 0.245799 0.864
0.0462319 0.245799 0.864
0.0468546 0.245799 0.864
0.0474773 0.245799 0.864
0.0481557 0.246083 0.865
0.0487791 0.246083 0.865
0.0494025 0.246083 0.865
0.050026 0.246083 0.865
0.0506494 0.246083 0.865
0.0512728 0.246083 0.865
0.0518963 0.246083 0.865
0.0525197 0.246083 0.865
0.0531431 0.246083 0.865
0.0538287 0.246368 0.866
0.0544529 0.246368 0.866
0.055077 0.246368 0.866
0.0557012 0.246368 0.866
0.0563253 0.246368 0.866
0.0569495 0.246368 0.866
0.0576401 0.246652 0.867
0.058265 0.246652 0.867
0.0588899 0.246652 0.867
0.0595834 0.246937 0.868
0.060209 0.246937 0.868
0.0608346 0.246937 0.868
0.061531 0.247221 0.869
0.0621573 0.247221 0.869
0.0628558 0.247506 0.87
0.0634829 0.247506 0.87
0.0641836 0.24779 0.871
0.0648858 0.248074 0.872
0.0655142 0.248074 0.872
0.0662186 0.248359 0.873
0.0669243 0.248643 0.874
0.0675543 0.248643 0.874
0.0682622 0.248928 0.875
0.0689716 0.249212 0.876
0.0696824 0.249497 0.877
0.0703145 0.249497 0.877
0.0710274 0.249781 0.878
0.0716602 0.249781 0.878
0.072293 0.249781 0.878
0.0729258 0.249781 0.878
0.0735586 0.249781 0.878
0.0741914 0.249781 0.878
0.0748242 0.249781 0.878
0.075457 0.249781 0.878
0.0760898 0.249781 0.878
0.0767226 0.249781 0.878
0.0774435 0.250066 0.879
0.0780771 0.250066 0.879
0.0787106 0.250066 0.879
0.0793441 0.250066 0.879
0.0799776 0.250066 0.879
0.0806112 0.250066 0.879
0.0813371 0.25035 0.88
0.0819713 0.25035 0.88
0.0826056 0.25035 0.88
0.0832398 0.25035 0.88
0.0838741 0.25035 0.88
0.0845083 0.25035 0.88
0.0852393 0.250635 0.881
0.0858743 0.250635 0.881
0.0865092 0.250635 0.881
0.0871442 0.250635 0.881
0.0877792 0.250635 0.881
0.0884141 0.250635 0.881
0.088948 0.25035 0.88
0.0895822 0.25035 0.88
0.090319 0.250635 0.881
0.090954 0.250635 0.881
0.091485 0.25035 0.88
0.0921192 0.25035 0.88
0.0927535 0.25035 0.88
0.0934938 0.250635 0.881
0.0941288 0.250635 0.881
0.0947638 0.250635 0.881
0.0953987 0.250635 0.881
0.0960337 0.250635 0.881
0.0966686 0.250635 0.881
0.0973036 0.250635 0.881
0.0979386 0.250635 0.881
0.0985735 0.250635 0.881
0.0992085 0.250635 0.881
0.0998434 0.250635 0.881
0.100592 0.250919 0.882
0.101228 0.250919 0.882
0.101864 0.250919 0.882
0.1025 0.250919 0.882
0.103135 0.250919 0.882
0.103889 0.251204 0.883
0.104525 0.251204 0.883
0.105161 0.251204 0.883
0.105918 0.251488 0.884
0.106555 0.251488 0.884
0.107192 0.251488 0.884
0.107829 0.251488 0.884
0.108589 0.251773 0.885
0.10935 0.252057 0.886
0.109989 0.252057 0.886
0.110752 0.252342 0.887
0.111391 0.252342 0.887
0.112031 0.252342 0.887
0.112797 0.252626 0.888
0.113437 0.252626 0.888
0.114077 0.252626 0.888
0.114846 0.252911 0.889
-0.0264911 0.239577 0.84
-0.0258857 0.239577 0.84
-0.0252802 0.239577 0.84
-0.0246748 0.239577 0.84
-0.0240694 0.239577 0.84
-0.0234361 0.239291 0.839
-0.0228314 0.239291 0.839
-0.0222532 0.239577 0.84
-0.0216478 0.239577 0.84
-0.0210423 0.239577 0.84
-0.0204369 0.239577 0.84
-0.0198315 0.239577 0.84
-0.0192261 0.239577 0.84
-0.0186207 0.239577 0.84
-0.0180153 0.239577 0.84
-0.0174099 0.239577 0.84
-0.0168045 0.239577 0.84
-0.016199 0.239577 0.84
-0.0155936 0.239577 0.84
-0.0150061 0.239862 0.841
-0.0143999 0.239862 0.841
-0.0137938 0.239862 0.841
-0.0131877 0.239862 0.841
-0.0125815 0.239862 0.841
-0.0119896 0.240147 0.842
-0.0113828 0.240147 0.842
-0.0107759 0.240147 0.842
-0.0101691 0.240147 0.842
-0.00956222 0.240147 0.842
-0.008966 0.240432 0.843
-0.00836834 0.240717 0.844
-0.00776004 0.240717 0.844
-0.00715175 0.240717 0.844
-0.0065512 0.241003 0.845
-0.00594922 0.241288 0.846
-0.00533948 0.241288 0.846
-0.00473533 0.241573 0.847
-0.00412975 0.241858 0.848
-0.00351857 0.241858 0.848
-0.00291082 0.242144 0.849
-0.00230163 0.242429 0.85
-0.00168901 0.242429 0.85
-0.00107639 0.242429 0.85
-0.000464311 0.242714 0.851
0.00014903 0.242714 0.851
0.000762371 0.242714 0.851
0.00137571 0.242714 0.851
0.00198905 0.242714 0.851
0.00260239 0.242714 0.851
0.00321574 0.242714 0.851
0.00382908 0.242714 0.851
0.00444242 0.242714 0.851
0.00505576 0.242714 0.851
0.0056691 0.242714 0.851
0.00628244 0.242714 0.851
0.00689578 0.242714 0.851
0.00750912 0.242714 0.851
0.00812246 0.242714 0.851
0.0087358 0.242714 0.851
0.00934914 0.242714 0.851
0.00996249 0.242714 0.851
0.0105758 0.242714 0.851
0.0111892 0.242714 0.851
0.0118025 0.242714 0.851
0.0124158 0.242714 0.851
0.0130292 0.242714 0.851
0.0136425 0.242714 0.851
0.0142559 0.242714 0.851
0.0148692 0.242714 0.851
0.0154826 0.242714 0.851
0.0160959 0.242714 0.851
0.0167092 0.242714 0.851
0.0173429 0.242999 0.852
0.017957 0.242999 0.852
0.0185711 0.242999 0.852
0.0191851 0.242999 0.852
0.0198224 0.243284 0.853
0.0204372 0.243284 0.853
0.021052 0.243284 0.853
0.0216668 0.243284 0.853
0.0222815 0.243284 0.853
0.0229232 0.24357 0.854
0.0235662 0.243855 0.855
0.0241825 0.243855 0.855
0.0247987 0.243855 0.855
0.0254446 0.24414 0.856
0.0260616 0.24414 0.856
0.0266785 0.24414 0.856
0.0273274 0.244425 0.857
0.0279776 0.24471 0.858
0.028596 0.24471 0.858
0.0292484 0.244996 0.859
0.0299023 0.245281 0.86
0.0305222 0.245281 0.86
0.031142 0.245281 0.86
0.0317618 0.245281 0.86
0.0323816 0.245281 0.86
0.0330398 0.245566 0.861
0.0336604 0.245566 0.861
0.0342809 0.245566 0.861
0.0349015 0.245566 0.861
0.0355633 0.245851 0.862
0.0361846 0.245851 0.862
0.0368058 0.245851 0.862
0.0374271 0.245851 0.862
0.0380925 0.246136 0.863
0.0387145 0.246136 0.863
0.0393365 0.246136 0.863
0.0399585 0.246136 0.863
0.0405805 0.246136 0.863
0.0412502 0.246422 0.864
0.0418729 0.246422 0.864
0.0424956 0.246422 0.864
0.0431183 0.246422 0.864
0.043741 0.246422 0.864
0.0443637 0.246422 0.864
0.0449865 0.246422 0.864
0.0456092 0.246422 0.864
0.0462319 0.246422 0.864
0.0468546 0.246422 0.864
0.0474773 0.246422 0.864
0.0481557 0.246707 0.865
0.0487791 0.246707 0.865
0.0494025 0.246707 0.865
0.050026 0.246707 0.865
0.0506494 0.246707 0.865
0.0512728 0.246707 0.865
0.0518963 0.246707 0.865
0.0525197 0.246707 0.865
0.0531431 0.246707 0.865
0.0538287 0.246992 0.866
0.0544529 0.246992 0.866
0.055077 0.246992 0.866
0.0557012 0.246992 0.866
0.0563253 0.246992 0.866
0.0569495 0.246992 0.866
0.0576401 0.247277 0.867
0.058265 0.247277 0.867
0.0588899 0.247277 0.867
0.0595147 0.247277 0.867
0.060209 0.247563 0.868
0.0608346 0.247563 0.868
0.0614602 0.247563 0.868
0.0621573 0.247848 0.869
0.0627836 0.247848 0.869
0.0634099 0.247848 0.869
0.0641099 0.248133 0.87
0.0648114 0.248418 0.871
0.0654391 0.248418 0.871
0.0661427 0.248703 0.872
0.0668478 0.248989 0.873
0.067477 0.248989 0.873
0.0681842 0.249274 0.874
0.0688928 0.249559 0.875
0.0696029 0.249844 0.876
0.0702343 0.249844 0.876
0.0709465 0.250129 0.877
0.0716602 0.250415 0.878
0.072293 0.250415 0.878
0.0729258 0.250415 0.878
0.0735586 0.250415 0.878
0.0741914 0.250415 0.878
0.0748242 0.250415 0.878
0.075457 0.250415 0.878
0.0760898 0.250415 0.878
0.0767226 0.250415 0.878
0.0773554 0.250415 0.878
0.0780771 0.2507 0.879
0.0787106 0.2507 0.879
0.0793441 0.2507 0.879
0.0799776 0.2507 0.879
0.0806112 0.2507 0.879
0.0813371 0.250985 0.88
0.0819713 0.250985 0.88
0.0826056 0.250985 0.88
0.0832398 0.250985 0.88
0.0838741 0.250985 0.88
0.0845083 0.250985 0.88
0.0852393 0.25127 0.881
0.0858743 0.25127 0.881
0.0865092 0.25127 0.881
0.0871442 0.25127 0.881
0.0877792 0.25127 0.881
0.0884141 0.25127 0.881
0.0890491 0.25127 0.881
0.089684 0.25127 0.881
0.090319 0.25127 0.881
0.090954 0.25127 0.881
0.0915889 0.25127 0.881
0.0922239 0.25127 0.881
0.0928589 0.25127 0.881
0.0934938 0.25127 0.881
0.0941288 0.25127 0.881
0.0947638 0.25127 0.881
0.0953987 0.25127 0.881
0.0960337 0.25127 0.881
0.0966686 0.25127 0.881
0.0973036 0.25127 0.881
0.0979386 0.25127 0.881
0.0985735 0.25127 0.881
0.0992085 0.25127 0.881
0.0998434 0.25127 0.881
0.100592 0.251555 0.882
0.101228 0.251555 0.882
0.101864 0.251555 0.882
0.1025 0.251555 0.882
0.103135 0.251555 0.882
0.103889 0.251841 0.883
0.104525 0.251841 0.883
0.105161 0.251841 0.883
0.105918 0.252126 0.884
0.106555 0.252126 0.884
0.107192 0.252126 0.884
0.107829 0.252126 0.884
0.108589 0.252411 0.885
0.10935 0.252696 0.886
0.109989 0.252696 0.886
0.110752 0.252982 0.887
0.111391 0.252982 0.887
0.112031 0.252982 0.887
0.11267 0.252982 0.887
0.113437 0.253267 0.888
0.114077 0.253267 0.888
0.114846 0.253552 0.889
-0.0270965 0.240182 0.84
-0.0264911 0.240182 0.84
-0.0258857 0.240182 0.84
-0.0252802 0.240182 0.84
-0.0246455 0.239897 0.839
-0.0240408 0.239897 0.839
-0.0234361 0.239897 0.839
-0.0228314 0.239897 0.839
-0.0222267 0.239897 0.839
-0.0216478 0.240182 0.84
-0.0210423 0.240182 0.84
-0.0204369 0.240182 0.84
-0.0198315 0.240182 0.84
-0.0192261 0.240182 0.84
-0.0186207 0.240182 0.84
-0.0180153 0.240182 0.84
-0.0174099 0.240182 0.84
-0.0168045 0.240182 0.84
-0.016199 0.240182 0.84
-0.0155936 0.240182 0.84
-0.0150061 0.240468 0.841
-0.0143999 0.240468 0.841
-0.0137938 0.240468 0.841
-0.0131877 0.240468 0.841
-0.0125815 0.240468 0.841
-0.0119896 0.240754 0.842
-0.0113828 0.240754 0.842
-0.0107759 0.240754 0.842
-0.0101691 0.240754 0.842
-0.00956222 0.240754 0.842
-0.008966 0.24104 0.843
-0.00836834 0.241326 0.844
-0.00776004 0.241326 0.844
-0.00715175 0.241326 0.844
-0.0065512 0.241612 0.845
-0.00594922 0.241898 0.846
-0.00533948 0.241898 0.846
-0.00473533 0.242184 0.847
-0.00412975 0.24247 0.848
-0.00351857 0.24247 0.848
-0.00291082 0.242756 0.849
-0.00229892 0.242756 0.849
-0.00168702 0.242756 0.849
-0.00107639 0.243042 0.85
-0.000463765 0.243042 0.85
0.000148855 0.243042 0.85
0.000762371 0.243328 0.851
0.00137571 0.243328 0.851
0.00198905 0.243328 0.851
0.00260239 0.243328 0.851
0.00321574 0.243328 0.851
0.00382908 0.243328 0.851
0.00444242 0.243328 0.851
0.00505576 0.243328 0.851
0.0056691 0.243328 0.851
0.00628244 0.243328 0.851
0.00689578 0.243328 0.851
0.00750912 0.243328 0.851
0.00812246 0.243328 0.851
0.0087358 0.243328 0.851
0.00934914 0.243328 0.851
0.00996249 0.243328 0.851
0.0105758 0.243328 0.851
0.0111892 0.243328 0.851
0.0118025 0.243328 0.851
0.0124158 0.243328 0.851
0.0130292 0.243328 0.851
0.0136425 0.243328 0.851
0.0142559 0.243328 0.851
0.0148692 0.243328 0.851
0.0154826 0.243328 0.851
0.0160959 0.243328 0.851
0.0167092 0.243328 0.851
0.0173226 0.243328 0.851
0.0179359 0.243328 0.851
0.0185711 0.243614 0.852
0.0191851 0.243614 0.852
0.0197992 0.243614 0.852
0.0204132 0.243614 0.852
0.021052 0.2439 0.853
0.0216668 0.2439 0.853
0.0222815 0.2439 0.853
0.0229232 0.244185 0.854
0.0235662 0.244471 0.855
0.0241825 0.244471 0.855
0.0247987 0.244471 0.855
0.0254446 0.244757 0.856
0.0260616 0.244757 0.856
0.0266785 0.244757 0.856
0.0273274 0.245043 0.857
0.0279776 0.245329 0.858
0.028596 0.245329 0.858
0.0292484 0.245615 0.859
0.0298676 0.245615 0.859
0.0304867 0.245615 0.859
0.031142 0.245901 0.86
0.0317618 0.245901 0.86
0.0323816 0.245901 0.86
0.0330015 0.245901 0.86
0.0336213 0.245901 0.86
0.0342411 0.245901 0.86
0.0348609 0.245901 0.86
0.035522 0.246187 0.861
0.0361426 0.246187 0.861
0.0367631 0.246187 0.861
0.0374271 0.246473 0.862
0.0380484 0.246473 0.862
0.0386696 0.246473 0.862
0.0392909 0.246473 0.862
0.0399585 0.246759 0.863
0.0405805 0.246759 0.863
0.0412025 0.246759 0.863
0.0418729 0.247045 0.864
0.0424956 0.247045 0.864
0.0431183 0.247045 0.864
0.043741 0.247045 0.864
0.0443637 0.247045 0.864
0.0449865 0.247045 0.864
0.045662 0.247331 0.865
0.0462854 0.247331 0.865
0.0469088 0.247331 0.865
0.0475323 0.247331 0.865
0.0481557 0.247331 0.865
0.0487791 0.247331 0.865
0.0494025 0.247331 0.865
0.050026 0.247331 0.865
0.0506494 0.247331 0.865
0.0512728 0.247331 0.865
0.0518963 0.247331 0.865
0.0525197 0.247331 0.865
0.0532046 0.247617 0.866
0.0538287 0.247617 0.866
0.0544529 0.247617 0.866
0.055077 0.247617 0.866
0.0557012 0.247617 0.866
0.0563253 0.247617 0.866
0.0569495 0.247617 0.866
0.0575736 0.247617 0.866
0.058265 0.247903 0.867
0.0588899 0.247903 0.867
0.0595147 0.247903 0.867
0.060209 0.248189 0.868
0.0608346 0.248189 0.868
0.0614602 0.248189 0.868
0.0620858 0.248189 0.868
0.0627836 0.248474 0.869
0.0634099 0.248474 0.869
0.0641099 0.24876 0.87
0.0647369 0.24876 0.87
0.065364 0.24876 0.87
0.0660669 0.249046 0.871
0.0667712 0.249332 0.872
0.0673997 0.249332 0.872
0.0681062 0.249618 0.873
0.0688141 0.249904 0.874
0.0695235 0.25019 0.875
0.0701541 0.25019 0.875
0.0708656 0.250476 0.876
0.071497 0.250476 0.876
0.0721284 0.250476 0.876
0.0728428 0.250762 0.877
0.0734749 0.250762 0.877
0.0741069 0.250762 0.877
0.074739 0.250762 0.877
0.0753711 0.250762 0.877
0.0760032 0.250762 0.877
0.0767226 0.251048 0.878
0.0773554 0.251048 0.878
0.0779882 0.251048 0.878
0.078621 0.251048 0.878
0.0793441 0.251334 0.879
0.0799776 0.251334 0.879
0.0806112 0.251334 0.879
0.0812447 0.251334 0.879
0.0819713 0.25162 0.88
0.0826056 0.25162 0.88
0.0832398 0.25162 0.88
0.0838741 0.25162 0.88
0.0845083 0.25162 0.88
0.0852393 0.251906 0.881
0.0858743 0.251906 0.881
0.0865092 0.251906 0.881
0.0871442 0.251906 0.881
0.0877792 0.251906 0.881
0.0884141 0.251906 0.881
0.0890491 0.251906 0.881
0.089684 0.251906 0.881
0.090319 0.251906 0.881
0.090954 0.251906 0.881
0.0915889 0.251906 0.881
0.0922239 0.251906 0.881
0.0928589 0.251906 0.881
0.0934938 0.251906 0.881
0.0941288 0.251906 0.881
0.0947638 0.251906 0.881
0.0953987 0.251906 0.881
0.0960337 0.251906 0.881
0.0966686 0.251906 0.881
0.0973036 0.251906 0.881
0.0979386 0.251906 0.881
0.0985735 0.251906 0.881
0.0992085 0.251906 0.881
0.0998434 0.251906 0.881
0.100592 0.252192 0.882
0.101228 0.252192 0.882
0.101864 0.252192 0.882
0.1025 0.252192 0.882
0.103135 0.252192 0.882
0.103889 0.252477 0.883
0.104525 0.252477 0.883
0.105161 0.252477 0.883
0.105918 0.252763 0.884
0.106555 0.252763 0.884
0.107192 0.252763 0.884
0.107829 0.252763 0.884
0.108589 0.253049 0.885
0.10935 0.253335 0.886
0.109989 0.253335 0.886
0.110752 0.253621 0.887
0.111391 0.253621 0.887
0.112031 0.253621 0.887
0.11267 0.253621 0.887
0.113437 0.253907 0.888
0.114077 0.253907 0.888
0.114846 0.254193 0.889
-0.0283073 0.240788 0.84
-0.0277019 0.240788 0.84
-0.0270965 0.240788 0.84
-0.0264595 0.240502 0.839
-0.0258548 0.240502 0.839
-0.0252501 0.240502 0.839
-0.0246455 0.240502 0.839
-0.0240408 0.240502 0.839
-0.0234361 0.240502 0.839
-0.0228314 0.240502 0.839
-0.0222267 0.240502 0.839
-0.021622 0.240502 0.839
-0.0210173 0.240502 0.839
-0.0204126 0.240502 0.839
-0.0198315 0.240788 0.84
-0.0192261 0.240788 0.84
-0.0186207 0.240788 0.84
-0.0180153 0.240788 0.84
-0.0174099 0.240788 0.84
-0.0168045 0.240788 0.84
-0.016199 0.240788 0.84
-0.0155936 0.240788 0.84
-0.0150061 0.241075 0.841
-0.0143999 0.241075 0.841
-0.0137938 0.241075 0.841
-0.0131877 0.241075 0.841
-0.0125815 0.241075 0.841
-0.0119896 0.241362 0.842
-0.0113828 0.241362 0.842
-0.0107759 0.241362 0.842
-0.0101811 0.241648 0.843
-0.00957357 0.241648 0.843
-0.008966 0.241648 0.843
-0.00836834 0.241935 0.844
-0.00776004 0.241935 0.844
-0.00715175 0.241935 0.844
-0.0065512 0.242222 0.845
-0.00594922 0.242508 0.846
-0.00533948 0.242508 0.846
-0.00473533 0.242795 0.847
-0.00412975 0.243081 0.848
-0.00351857 0.243081 0.848
-0.00291082 0.243368 0.849
-0.00229892 0.243368 0.849
-0.00168702 0.243368 0.849
-0.00107639 0.243655 0.85
-0.000463765 0.243655 0.85
0.000148855 0.243655 0.85
0.000762371 0.243941 0.851
0.00137571 0.243941 0.851
0.00198905 0.243941 0.851
0.00260239 0.243941 0.851
0.00321574 0.243941 0.851
0.00382908 0.243941 0.851
0.00444242 0.243941 0.851
0.00505576 0.243941 0.851
0.0056691 0.243941 0.851
0.00628244 0.243941 0.851
0.00689578 0.243941 0.851
0.00750912 0.243941 0.851
0.00812246 0.243941 0.851
0.0087358 0.243941 0.851
0.00934914 0.243941 0.851
0.00995078 0.243655 0.85
0.0105634 0.243655 0.85
0.0111892 0.243941 0.851
0.0118025 0.243941 0.851
0.0124158 0.243941 0.851
0.0130139 0.243655 0.85
0.0136265 0.243655 0.85
0.0142391 0.243655 0.85
0.0148517 0.243655 0.85
0.0154826 0.243941 0.851
0.0160959 0.243941 0.851
0.0167092 0.243941 0.851
0.0173226 0.243941 0.851
0.0179359 0.243941 0.851
0.0185493 0.243941 0.851
0.0191851 0.244228 0.852
0.0197992 0.244228 0.852
0.0204132 0.244228 0.852
0.021052 0.244515 0.853
0.0216668 0.244515 0.853
0.0222815 0.244515 0.853
0.0229232 0.244801 0.854
0.0235387 0.244801 0.854
0.0241542 0.244801 0.854
0.0247987 0.245088 0.855
0.0254446 0.245375 0.856
0.0260616 0.245375 0.856
0.0266785 0.245375 0.856
0.0273274 0.245661 0.857
0.0279776 0.245948 0.858
0.028596 0.245948 0.858
0.0292144 0.245948 0.858
0.0298676 0.246235 0.859
0.0304867 0.246235 0.859
0.0311058 0.246235 0.859
0.0317618 0.246521 0.86
0.0323816 0.246521 0.86
0.0330015 0.246521 0.86
0.0336213 0.246521 0.86
0.0342411 0.246521 0.86
0.0348609 0.246521 0.86
0.035522 0.246808 0.861
0.0361426 0.246808 0.861
0.0367631 0.246808 0.861
0.0374271 0.247095 0.862
0.0380484 0.247095 0.862
0.0386696 0.247095 0.862
0.0392909 0.247095 0.862
0.0399585 0.247381 0.863
0.0405805 0.247381 0.863
0.0412025 0.247381 0.863
0.0418729 0.247668 0.864
0.0424956 0.247668 0.864
0.0431183 0.247668 0.864
0.043741 0.247668 0.864
0.0443637 0.247668 0.864
0.0449865 0.247668 0.864
0.045662 0.247955 0.865
0.0462854 0.247955 0.865
0.0469088 0.247955 0.865
0.0475323 0.247955 0.865
0.0481557 0.247955 0.865
0.0487791 0.247955 0.865
0.0494597 0.248241 0.866
0.0500838 0.248241 0.866
0.050708 0.248241 0.866
0.0513321 0.248241 0.866
0.0519563 0.248241 0.866
0.0525804 0.248241 0.866
0.0532046 0.248241 0.866
0.0538287 0.248241 0.866
0.0544529 0.248241 0.866
0.055077 0.248241 0.866
0.0557012 0.248241 0.866
0.0563253 0.248241 0.866
0.0569495 0.248241 0.866
0.0575736 0.248241 0.866
0.058265 0.248528 0.867
0.0588899 0.248528 0.867
0.0595147 0.248528 0.867
0.060209 0.248815 0.868
0.0608346 0.248815 0.868
0.0614602 0.248815 0.868
0.0620858 0.248815 0.868
0.0627836 0.249101 0.869
0.0634099 0.249101 0.869
0.0641099 0.249388 0.87
0.0647369 0.249388 0.87
0.065364 0.249388 0.87
0.0660669 0.249674 0.871
0.0667712 0.249961 0.872
0.0673997 0.249961 0.872
0.0681062 0.250248 0.873
0.0688141 0.250534 0.874
0.0695235 0.250821 0.875
0.0701541 0.250821 0.875
0.0708656 0.251108 0.876
0.071497 0.251108 0.876
0.0721284 0.251108 0.876
0.0728428 0.251394 0.877
0.0734749 0.251394 0.877
0.0741069 0.251394 0.877
0.074739 0.251394 0.877
0.0753711 0.251394 0.877
0.0760032 0.251394 0.877
0.0767226 0.251681 0.878
0.0773554 0.251681 0.878
0.0779882 0.251681 0.878
0.078621 0.251681 0.878
0.0793441 0.251968 0.879
0.0799776 0.251968 0.879
0.0806112 0.251968 0.879
0.0812447 0.251968 0.879
0.0819713 0.252254 0.88
0.0826056 0.252254 0.88
0.0832398 0.252254 0.88
0.0838741 0.252254 0.88
0.0845083 0.252254 0.88
0.0852393 0.252541 0.881
0.0858743 0.252541 0.881
0.0865092 0.252541 0.881
0.0871442 0.252541 0.881
0.0877792 0.252541 0.881
0.0884141 0.252541 0.881
0.0890491 0.252541 0.881
0.089684 0.252541 0.881
0.090319 0.252541 0.881
0.090954 0.252541 0.881
0.0915889 0.252541 0.881
0.0922239 0.252541 0.881
0.0928589 0.252541 0.881
0.0934938 0.252541 0.881
0.0941288 0.252541 0.881
0.0947638 0.252541 0.881
0.0953987 0.252541 0.881
0.0960337 0.252541 0.881
0.0966686 0.252541 0.881
0.0973036 0.252541 0.881
0.0979386 0.252541 0.881
0.0985735 0.252541 0.881
0.0992085 0.252541 0.881
0.0998434 0.252541 0.881
0.100478 0.252541 0.881
0.101113 0.252541 0.881
0.101864 0.252828 0.882
0.1025 0.252828 0.882
0.103135 0.252828 0.882
0.103771 0.252828 0.882
0.104525 0.253114 0.883
0.105161 0.253114 0.883
0.105798 0.253114 0.883
0.106555 0.253401 0.884
0.107192 0.253401 0.884
0.107829 0.253401 0.884
0.108589 0.253688 0.885
0.10935 0.253974 0.886
0.109989 0.253974 0.886
0.110627 0.253974 0.886
0.111391 0.254261 0.887
0.112031 0.254261 0.887
0.11267 0.254261 0.887
0.113437 0.254548 0.888
0.114077 0.254548 0.888
0.114846 0.254834 0.889
-0.0283073 0.241394 0.84
-0.0277019 0.241394 0.84
-0.0270965 0.241394 0.84
-0.0264595 0.241107 0.839
-0.0258548 0.241107 0.839
-0.0252501 0.241107 0.839
-0.0246455 0.241107 0.839
-0.0240408 0.241107 0.839
-0.0234361 0.241107 0.839
-0.0228314 0.241107 0.839
-0.0222267 0.241107 0.839
-0.021622 0.241107 0.839
-0.0210173 0.241107 0.839
-0.0204126 0.241107 0.839
-0.0198315 0.241394 0.84
-0.0192261 0.241394 0.84
-0.0186207 0.241394 0.84
-0.0180153 0.241394 0.84
-0.0174099 0.241394 0.84
-0.0168045 0.241394 0.84
-0.016199 0.241394 0.84
-0.0155936 0.241394 0.84
-0.0150061 0.241681 0.841
-0.0143999 0.241681 0.841
-0.0137938 0.241681 0.841
-0.0131877 0.241681 0.841
-0.0125815 0.241681 0.841
-0.0119896 0.241969 0.842
-0.0113828 0.241969 0.842
-0.0107759 0.241969 0.842
-0.0101811 0.242256 0.843
-0.00957357 0.242256 0.843
-0.008966 0.242256 0.843
-0.00836834 0.242544 0.844
-0.00776004 0.242544 0.844
-0.00716022 0.242831 0.845
-0.0065512 0.242831 0.845
-0.00595625 0.243406 0.847
-0.00534579 0.243406 0.847
-0.00473533 0.243406 0.847
-0.00412975 0.243693 0.848
