0.0510593 0.192732 0.872
0.0516878 0.192732 0.872
0.0523162 0.192732 0.872
0.0529447 0.192732 0.872
0.0535732 0.192732 0.872
0.0542017 0.192732 0.872
0.0548301 0.192732 0.872
0.0554586 0.192732 0.872
0.0560871 0.192732 0.872
0.0567806 0.192953 0.873
0.0574098 0.192953 0.873
0.0581055 0.193174 0.874
0.0588026 0.193395 0.875
0.0594333 0.193395 0.875
0.0601325 0.193616 0.876
0.0608333 0.193837 0.877
0.0614653 0.193837 0.877
0.0621682 0.194059 0.878
0.062801 0.194059 0.878
0.0635061 0.19428 0.879
0.0641396 0.19428 0.879
0.0648468 0.194501 0.88
0.0654811 0.194501 0.88
0.0661153 0.194501 0.88
0.0668254 0.194722 0.881
0.0675369 0.194943 0.882
0.0681726 0.194943 0.882
0.0688083 0.194943 0.882
0.069444 0.194943 0.882
0.0700796 0.194943 0.882
0.0707153 0.194943 0.882
0.0714319 0.195164 0.883
0.0720683 0.195164 0.883
0.0727047 0.195164 0.883
0.0733411 0.195164 0.883
0.0739775 0.195164 0.883
0.0746139 0.195164 0.883
0.0753356 0.195385 0.884
0.0759727 0.195385 0.884
0.0766098 0.195385 0.884
0.0772469 0.195385 0.884
0.0778841 0.195385 0.884
0.0785212 0.195385 0.884
0.0793374 0.195827 0.886
0.0800662 0.196048 0.887
0.0807965 0.196269 0.888
0.0814365 0.196269 0.888
0.082169 0.19649 0.889
0.0829028 0.196711 0.89
0.0835443 0.196711 0.89
0.0842803 0.196932 0.891
0.0849225 0.196932 0.891
0.0855647 0.196932 0.891
0.0864003 0.197374 0.893
0.0871414 0.197595 0.894
0.0877858 0.197595 0.894
0.0884301 0.197595 0.894
0.0891741 0.197816 0.895
0.0899195 0.198037 0.896
0.0905652 0.198037 0.896
0.0913128 0.198258 0.897
0.0919593 0.198258 0.897
0.0926058 0.198258 0.897
0.0932523 0.198258 0.897
0.0940035 0.198479 0.898
0.0946507 0.198479 0.898
0.0952979 0.198479 0.898
0.0959451 0.198479 0.898
0.0965923 0.198479 0.898
0.0972396 0.198479 0.898
0.0979958 0.1987 0.899
0.0986437 0.1987 0.899
0.0992916 0.1987 0.899
0.0999396 0.1987 0.899
0.100588 0.1987 0.899
0.101235 0.1987 0.899
0.101997 0.198921 0.9
0.102645 0.198921 0.9
0.103294 0.198921 0.9
0.103943 0.198921 0.9
0.104591 0.198921 0.9
0.10524 0.198921 0.9
0.105889 0.198921 0.9
0.106537 0.198921 0.9
0.107186 0.198921 0.9
0.107715 0.1987 0.899
0.108363 0.1987 0.899
0.109011 0.1987 0.899
0.109537 0.198479 0.898
0.110184 0.198479 0.898
0.110831 0.198479 0.898
0.111478 0.198479 0.898
0.112126 0.198479 0.898
0.112773 0.198479 0.898
0.11342 0.198479 0.898
0.0492866 0.193805 0.874
0.0498023 0.193361 0.872
0.0504308 0.193361 0.872
0.0510593 0.193361 0.872
0.0516878 0.193361 0.872
0.0523162 0.193361 0.872
0.0529447 0.193361 0.872
0.0535118 0.19314 0.871
0.0541395 0.19314 0.871
0.0547673 0.19314 0.871
0.0554586 0.193361 0.872
0.0560871 0.193361 0.872
0.0567806 0.193583 0.873
0.0574098 0.193583 0.873
0.0581055 0.193805 0.874
0.0588026 0.194026 0.875
0.0594333 0.194026 0.875
0.0601325 0.194248 0.876
0.0608333 0.19447 0.877
0.0614653 0.19447 0.877
0.0621682 0.194692 0.878
0.062801 0.194692 0.878
0.0635061 0.194913 0.879
0.0641396 0.194913 0.879
0.0648468 0.195135 0.88
0.0654811 0.195135 0.88
0.0661153 0.195135 0.88
0.0668254 0.195357 0.881
0.0675369 0.195579 0.882
0.0681726 0.195579 0.882
0.0688083 0.195579 0.882
0.0695227 0.1958 0.883
0.0700796 0.195579 0.882
0.0707153 0.195579 0.882
0.0714319 0.1958 0.883
0.0720683 0.1958 0.883
0.0727047 0.1958 0.883
0.0733411 0.1958 0.883
0.0739775 0.1958 0.883
0.0746139 0.1958 0.883
0.0753356 0.196022 0.884
0.0759727 0.196022 0.884
0.0766098 0.196022 0.884
0.0772469 0.196022 0.884
0.0778841 0.196022 0.884
0.0785212 0.196022 0.884
0.0793374 0.196466 0.886
0.0800662 0.196687 0.887
0.0807965 0.196909 0.888
0.0814365 0.196909 0.888
0.082169 0.197131 0.889
0.0829028 0.197353 0.89
0.0835443 0.197353 0.89
0.0842803 0.197574 0.891
0.0849225 0.197574 0.891
0.0855647 0.197574 0.891
0.0864003 0.198018 0.893
0.0871414 0.19824 0.894
0.0877858 0.19824 0.894
0.0884301 0.19824 0.894
0.0891741 0.198461 0.895
0.0899195 0.198683 0.896
0.0905652 0.198683 0.896
0.0913128 0.198905 0.897
0.0919593 0.198905 0.897
0.0926058 0.198905 0.897
0.0932523 0.198905 0.897
0.0940035 0.199127 0.898
0.0946507 0.199127 0.898
0.0952979 0.199127 0.898
0.0959451 0.199127 0.898
0.0965923 0.199127 0.898
0.0972396 0.199127 0.898
0.0979958 0.199348 0.899
0.0986437 0.199348 0.899
0.0992916 0.199348 0.899
0.0999396 0.199348 0.899
0.100588 0.199348 0.899
0.101235 0.199348 0.899
0.101997 0.19957 0.9
0.102645 0.19957 0.9
0.103294 0.19957 0.9
0.103943 0.19957 0.9
0.104591 0.19957 0.9
0.10524 0.19957 0.9
0.105889 0.19957 0.9
0.106537 0.19957 0.9
0.107186 0.19957 0.9
0.107715 0.199348 0.899
0.108363 0.199348 0.899
0.109011 0.199348 0.899
0.109537 0.199127 0.898
0.110184 0.199127 0.898
0.110831 0.199127 0.898
0.111478 0.199127 0.898
0.112126 0.199127 0.898
0.112773 0.199127 0.898
0.11342 0.199127 0.898
0.0492866 0.194435 0.874
0.0498023 0.19399 0.872
0.0504308 0.19399 0.872
0.0510593 0.19399 0.872
0.0516878 0.19399 0.872
0.0523162 0.19399 0.872
0.0529447 0.19399 0.872
0.0535118 0.193768 0.871
0.0541395 0.193768 0.871
0.0547673 0.193768 0.871
0.0554586 0.19399 0.872
0.0560871 0.19399 0.872
0.0567156 0.19399 0.872
0.057344 0.19399 0.872
0.0581055 0.194435 0.874
0.0587354 0.194435 0.874
0.0593653 0.194435 0.874
0.0600639 0.194658 0.875
0.0607639 0.19488 0.876
0.0613953 0.19488 0.876
0.0620974 0.195102 0.877
0.062801 0.195325 0.878
0.0634338 0.195325 0.878
0.0640666 0.195325 0.878
0.0647731 0.195547 0.879
0.0654811 0.19577 0.88
0.0661153 0.19577 0.88
0.0668254 0.195992 0.881
0.0674604 0.195992 0.881
0.0680953 0.195992 0.881
0.0688083 0.196215 0.882
0.069444 0.196215 0.882
0.0700796 0.196215 0.882
0.0707153 0.196215 0.882
0.071351 0.196215 0.882
0.0719867 0.196215 0.882
0.0726224 0.196215 0.882
0.0733411 0.196437 0.883
0.0739775 0.196437 0.883
0.0746139 0.196437 0.883
0.0752503 0.196437 0.883
0.0758867 0.196437 0.883
0.0765231 0.196437 0.883
0.0772469 0.19666 0.884
0.0778841 0.19666 0.884
0.0785212 0.19666 0.884
0.0791583 0.19666 0.884
0.0798857 0.196882 0.885
0.0806145 0.197105 0.886
0.0812531 0.197105 0.886
0.0819841 0.197327 0.887
0.0827165 0.19755 0.888
0.0833565 0.19755 0.888
0.0840911 0.197772 0.889
0.0848272 0.197995 0.89
0.0854686 0.197995 0.89
0.0862068 0.198217 0.891
0.0869465 0.198439 0.892
0.0876876 0.198662 0.893
0.0883312 0.198662 0.893
0.0889748 0.198662 0.893
0.0898191 0.199107 0.895
0.0904642 0.199107 0.895
0.091211 0.199329 0.896
0.0919593 0.199552 0.897
0.0926058 0.199552 0.897
0.0932523 0.199552 0.897
0.0940035 0.199774 0.898
0.0946507 0.199774 0.898
0.0952979 0.199774 0.898
0.0959451 0.199774 0.898
0.0965923 0.199774 0.898
0.0972396 0.199774 0.898
0.0979958 0.199997 0.899
0.0986437 0.199997 0.899
0.0992916 0.199997 0.899
0.0999396 0.199997 0.899
0.100588 0.199997 0.899
0.101235 0.199997 0.899
0.101883 0.199997 0.899
0.102531 0.199997 0.899
0.103179 0.199997 0.899
0.103827 0.199997 0.899
0.104475 0.199997 0.899
0.105123 0.199997 0.899
0.105771 0.199997 0.899
0.106419 0.199997 0.899
0.107067 0.199997 0.899
0.107715 0.199997 0.899
0.108363 0.199997 0.899
0.109011 0.199997 0.899
0.109537 0.199774 0.898
0.110184 0.199774 0.898
0.110831 0.199774 0.898
0.111478 0.199774 0.898
0.112126 0.199774 0.898
0.112773 0.199774 0.898
0.11342 0.199774 0.898
0.114067 0.199774 0.898
0.0480818 0.195289 0.875
0.0487124 0.195289 0.875
0.0492866 0.195065 0.874
0.0498023 0.194619 0.872
0.0504308 0.194619 0.872
0.0510007 0.194396 0.871
0.0516285 0.194396 0.871
0.0522562 0.194396 0.871
0.052884 0.194396 0.871
0.0535118 0.194396 0.871
0.0541395 0.194396 0.871
0.0547673 0.194396 0.871
0.055395 0.194396 0.871
0.0560871 0.194619 0.872
0.0567156 0.194619 0.872
0.057344 0.194619 0.872
0.058039 0.194842 0.873
0.0587354 0.195065 0.874
0.0593653 0.195065 0.874
0.0599952 0.195065 0.874
0.0606945 0.195289 0.875
0.0613252 0.195289 0.875
0.0620266 0.195512 0.876
0.062658 0.195512 0.876
0.0632893 0.195512 0.876
0.0639937 0.195735 0.877
0.0646994 0.195958 0.878
0.0654066 0.196181 0.879
0.0660402 0.196181 0.879
0.0667495 0.196405 0.88
0.0674604 0.196628 0.881
0.0680953 0.196628 0.881
0.0687303 0.196628 0.881
0.0693652 0.196628 0.881
0.0700002 0.196628 0.881
0.0707153 0.196851 0.882
0.071351 0.196851 0.882
0.0719867 0.196851 0.882
0.0726224 0.196851 0.882
0.0732581 0.196851 0.882
0.0738938 0.196851 0.882
0.0745294 0.196851 0.882
0.0752503 0.197074 0.883
0.0758867 0.197074 0.883
0.0765231 0.197074 0.883
0.0771596 0.197074 0.883
0.077796 0.197074 0.883
0.0784324 0.197074 0.883
0.0791583 0.197297 0.884
0.0797954 0.197297 0.884
0.0805236 0.19752 0.885
0.0811614 0.19752 0.885
0.0817992 0.19752 0.885
0.0825302 0.197744 0.886
0.0831688 0.197744 0.886
0.083902 0.197967 0.887
0.0846366 0.19819 0.888
0.0852766 0.19819 0.888
0.0861101 0.198636 0.89
0.086849 0.19886 0.891
0.0874912 0.19886 0.891
0.0881333 0.19886 0.891
0.0888752 0.199083 0.892
0.0897188 0.199529 0.894
0.0903631 0.199529 0.894
0.0911092 0.199752 0.895
0.0918568 0.199976 0.896
0.0925026 0.199976 0.896
0.0932523 0.200199 0.897
0.0938988 0.200199 0.897
0.0945453 0.200199 0.897
0.0952979 0.200422 0.898
0.0959451 0.200422 0.898
0.0965923 0.200422 0.898
0.0972396 0.200422 0.898
0.0978868 0.200422 0.898
0.0986437 0.200645 0.899
0.0992916 0.200645 0.899
0.0999396 0.200645 0.899
0.100588 0.200645 0.899
0.101235 0.200645 0.899
0.101883 0.200645 0.899
0.102531 0.200645 0.899
0.103179 0.200645 0.899
0.103827 0.200645 0.899
0.104475 0.200645 0.899
0.105123 0.200645 0.899
0.105771 0.200645 0.899
0.106419 0.200645 0.899
0.107067 0.200645 0.899
0.107715 0.200645 0.899
0.108363 0.200645 0.899
0.109011 0.200645 0.899
0.109659 0.200645 0.899
0.110184 0.200422 0.898
0.110831 0.200422 0.898
0.111478 0.200422 0.898
0.112126 0.200422 0.898
0.112773 0.200422 0.898
0.11342 0.200422 0.898
0.114067 0.200422 0.898
0.0442979 0.19592 0.875
0.0449286 0.19592 0.875
0.0455592 0.19592 0.875
0.0461898 0.19592 0.875
0.0468205 0.19592 0.875
0.0474511 0.19592 0.875
0.0479169 0.195248 0.872
0.0485454 0.195248 0.872
0.0491739 0.195248 0.872
0.0498023 0.195248 0.872
0.0504308 0.195248 0.872
0.0510007 0.195024 0.871
0.0516285 0.195024 0.871
0.0522562 0.195024 0.871
0.052884 0.195024 0.871
0.0535118 0.195024 0.871
0.0541395 0.195024 0.871
0.0547673 0.195024 0.871
0.055395 0.195024 0.871
0.0560871 0.195248 0.872
0.0567156 0.195248 0.872
0.057344 0.195248 0.872
0.0579725 0.195248 0.872
0.0586682 0.195472 0.873
0.0592974 0.195472 0.873
0.0599266 0.195472 0.873
0.0606252 0.195696 0.874
0.0612551 0.195696 0.874
0.0619558 0.19592 0.875
0.0625864 0.19592 0.875
0.0632171 0.19592 0.875
0.0639207 0.196144 0.876
0.0646994 0.196591 0.878
0.0653322 0.196591 0.878
0.065965 0.196591 0.878
0.0666737 0.196815 0.879
0.0673838 0.197039 0.88
0.068018 0.197039 0.88
0.0687303 0.197263 0.881
0.0693652 0.197263 0.881
0.0700002 0.197263 0.881
0.0707153 0.197487 0.882
0.071351 0.197487 0.882
0.0719867 0.197487 0.882
0.0726224 0.197487 0.882
0.0732581 0.197487 0.882
0.0738938 0.197487 0.882
0.0745294 0.197487 0.882
0.0752503 0.197711 0.883
0.0758867 0.197711 0.883
0.0765231 0.197711 0.883
0.0771596 0.197711 0.883
0.077796 0.197711 0.883
0.0784324 0.197711 0.883
0.0791583 0.197935 0.884
0.0797954 0.197935 0.884
0.0805236 0.198159 0.885
0.0811614 0.198159 0.885
0.0817992 0.198159 0.885
0.0825302 0.198383 0.886
0.0831688 0.198383 0.886
0.083902 0.198607 0.887
0.0846366 0.19883 0.888
0.0852766 0.19883 0.888
0.0861101 0.199278 0.89
0.086849 0.199502 0.891
0.0874912 0.199502 0.891
0.0881333 0.199502 0.891
0.0888752 0.199726 0.892
0.0897188 0.200174 0.894
0.0903631 0.200174 0.894
0.0911092 0.200398 0.895
0.0918568 0.200622 0.896
0.0925026 0.200622 0.896
0.0932523 0.200846 0.897
0.0938988 0.200846 0.897
0.0945453 0.200846 0.897
0.0952979 0.20107 0.898
0.0959451 0.20107 0.898
0.0965923 0.20107 0.898
0.0972396 0.20107 0.898
0.0978868 0.20107 0.898
0.0986437 0.201293 0.899
0.0992916 0.201293 0.899
0.0999396 0.201293 0.899
0.100588 0.201293 0.899
0.101235 0.201293 0.899
0.101883 0.201293 0.899
0.102531 0.201293 0.899
0.103179 0.201293 0.899
0.103827 0.201293 0.899
0.104591 0.201517 0.9
0.10524 0.201517 0.9
0.105889 0.201517 0.9
0.106419 0.201293 0.899
0.107067 0.201293 0.899
0.107715 0.201293 0.899
0.108363 0.201293 0.899
0.109011 0.201293 0.899
0.109659 0.201293 0.899
0.110184 0.20107 0.898
0.110831 0.20107 0.898
0.111478 0.20107 0.898
0.112126 0.20107 0.898
0.112773 0.20107 0.898
0.11342 0.20107 0.898
0.114067 0.20107 0.898
0.0442979 0.196551 0.875
0.0449286 0.196551 0.875
0.0455592 0.196551 0.875
0.0461898 0.196551 0.875
0.0468205 0.196551 0.875
0.0474511 0.196551 0.875
0.0479169 0.195877 0.872
0.0485454 0.195877 0.872
0.0491739 0.195877 0.872
0.0498023 0.195877 0.872
0.0504308 0.195877 0.872
0.0510007 0.195652 0.871
0.0516285 0.195652 0.871
0.0522562 0.195652 0.871
0.052884 0.195652 0.871
0.0535118 0.195652 0.871
0.0541395 0.195652 0.871
0.0547673 0.195652 0.871
0.055395 0.195652 0.871
0.0560871 0.195877 0.872
0.0567156 0.195877 0.872
0.057344 0.195877 0.872
0.0579725 0.195877 0.872
0.0586682 0.196101 0.873
0.0592974 0.196101 0.873
0.0599266 0.196101 0.873
0.0606252 0.196326 0.874
0.0612551 0.196326 0.874
0.0619558 0.196551 0.875
0.0625864 0.196551 0.875
0.0632171 0.196551 0.875
0.0639207 0.196775 0.876
0.0646994 0.197225 0.878
0.0653322 0.197225 0.878
0.065965 0.197225 0.878
0.0666737 0.197449 0.879
0.0673838 0.197674 0.88
0.068018 0.197674 0.88
0.0687303 0.197898 0.881
0.0693652 0.197898 0.881
0.0700002 0.197898 0.881
0.0707153 0.198123 0.882
0.071351 0.198123 0.882
0.0719867 0.198123 0.882
0.0726224 0.198123 0.882
0.0732581 0.198123 0.882
0.0738938 0.198123 0.882
0.0745294 0.198123 0.882
0.0752503 0.198348 0.883
0.0758867 0.198348 0.883
0.0765231 0.198348 0.883
0.0771596 0.198348 0.883
0.077796 0.198348 0.883
0.0784324 0.198348 0.883
0.0791583 0.198572 0.884
0.0797954 0.198572 0.884
0.0804326 0.198572 0.884
0.0810697 0.198572 0.884
0.0817992 0.198797 0.885
0.0825302 0.199022 0.886
0.0831688 0.199022 0.886
0.0838074 0.199022 0.886
0.0845413 0.199246 0.887
0.0851805 0.199246 0.887
0.0860133 0.199696 0.889
0.0866541 0.199696 0.889
0.0872948 0.199696 0.889
0.0881333 0.200145 0.891
0.0887755 0.200145 0.891
0.0896184 0.200594 0.893
0.090262 0.200594 0.893
0.0910074 0.200819 0.894
0.0917543 0.201043 0.895
0.0923993 0.201043 0.895
0.0931483 0.201268 0.896
0.0938988 0.201493 0.897
0.0945453 0.201493 0.897
0.0952979 0.201717 0.898
0.0959451 0.201717 0.898
0.0965923 0.201717 0.898
0.0972396 0.201717 0.898
0.0978868 0.201717 0.898
0.0986437 0.201942 0.899
0.0992916 0.201942 0.899
0.0999396 0.201942 0.899
0.100588 0.201942 0.899
0.101235 0.201942 0.899
0.101883 0.201942 0.899
0.102531 0.201942 0.899
0.103179 0.201942 0.899
0.103827 0.201942 0.899
0.104591 0.202166 0.9
0.10524 0.202166 0.9
0.105889 0.202166 0.9
0.106419 0.201942 0.899
0.107067 0.201942 0.899
0.107715 0.201942 0.899
0.108363 0.201942 0.899
0.109011 0.201942 0.899
0.109659 0.201942 0.899
0.110184 0.201717 0.898
0.110831 0.201717 0.898
0.111478 0.201717 0.898
0.112126 0.201717 0.898
0.112773 0.201717 0.898
0.11342 0.201717 0.898
0.114067 0.201717 0.898
0.0381366 0.194703 0.864
0.0387594 0.194703 0.864
0.0407215 0.195154 0.866
0.0413457 0.195154 0.866
0.0419698 0.195154 0.866
0.042594 0.195154 0.866
0.043268 0.195379 0.867
0.0439435 0.195604 0.868
0.0445691 0.195604 0.868
0.0451947 0.195604 0.868
0.0459259 0.196055 0.87
0.0466064 0.19628 0.871
0.0472342 0.19628 0.871
0.047862 0.19628 0.871
0.0484897 0.19628 0.871
0.0491175 0.19628 0.871
0.0497452 0.19628 0.871
0.050373 0.19628 0.871
0.0510007 0.19628 0.871
0.0516285 0.19628 0.871
0.0522562 0.19628 0.871
0.052884 0.19628 0.871
0.0535118 0.19628 0.871
0.0541395 0.19628 0.871
0.0547673 0.19628 0.871
0.055395 0.19628 0.871
0.0560228 0.19628 0.871
0.0566505 0.19628 0.871
0.0572783 0.19628 0.871
0.0579725 0.196506 0.872
0.058601 0.196506 0.872
0.0592295 0.196506 0.872
0.059858 0.196506 0.872
0.0605558 0.196731 0.873
0.061185 0.196731 0.873
0.0618142 0.196731 0.873
0.0625149 0.196956 0.874
0.0631448 0.196956 0.874
0.0638477 0.197182 0.875
0.0646257 0.197632 0.877
0.0653322 0.197858 0.878
0.065965 0.197858 0.878
0.0666737 0.198083 0.879
0.0673838 0.198308 0.88
0.068018 0.198308 0.88
0.0687303 0.198534 0.881
0.0693652 0.198534 0.881
0.0700002 0.198534 0.881
0.0706352 0.198534 0.881
0.071351 0.198759 0.882
0.0719867 0.198759 0.882
0.0726224 0.198759 0.882
0.0732581 0.198759 0.882
0.0738938 0.198759 0.882
0.0745294 0.198759 0.882
0.0752503 0.198985 0.883
0.0758867 0.198985 0.883
0.0765231 0.198985 0.883
0.0771596 0.198985 0.883
0.077796 0.198985 0.883
0.0784324 0.198985 0.883
0.0791583 0.19921 0.884
0.0797954 0.19921 0.884
0.0804326 0.19921 0.884
0.0810697 0.19921 0.884
0.0817992 0.199435 0.885
0.0824371 0.199435 0.885
0.0830749 0.199435 0.885
0.0838074 0.199661 0.886
0.0844459 0.199661 0.886
0.0850845 0.199661 0.886
0.0859166 0.200111 0.888
0.0866541 0.200337 0.889
0.0872948 0.200337 0.889
0.0879355 0.200337 0.889
0.0886759 0.200562 0.89
0.0894177 0.200787 0.891
0.0900599 0.200787 0.891
0.0909056 0.201238 0.893
0.0917543 0.201689 0.895
0.0923993 0.201689 0.895
0.0931483 0.201914 0.896
0.0938988 0.202139 0.897
0.0945453 0.202139 0.897
0.0951918 0.202139 0.897
0.0959451 0.202365 0.898
0.0965923 0.202365 0.898
0.0972396 0.202365 0.898
0.0978868 0.202365 0.898
0.0986437 0.20259 0.899
0.0992916 0.20259 0.899
0.0999396 0.20259 0.899
0.100588 0.20259 0.899
0.101235 0.20259 0.899
0.101883 0.20259 0.899
0.102645 0.202816 0.9
0.103294 0.202816 0.9
0.103943 0.202816 0.9
0.104591 0.202816 0.9
0.10524 0.202816 0.9
0.105889 0.202816 0.9
0.106419 0.20259 0.899
0.107067 0.20259 0.899
0.107715 0.20259 0.899
0.108363 0.20259 0.899
0.109011 0.20259 0.899
0.109659 0.20259 0.899
0.110307 0.20259 0.899
0.110954 0.20259 0.899
0.111478 0.202365 0.898
0.112126 0.202365 0.898
0.112773 0.202365 0.898
0.11342 0.202365 0.898
0.114067 0.202365 0.898
0.114842 0.20259 0.899
0.11549 0.20259 0.899
0.0178305 0.191257 0.846
0.0184403 0.191257 0.846
0.0190725 0.191483 0.847
0.019683 0.191483 0.847
0.0203174 0.191709 0.848
0.0209533 0.191935 0.849
0.0215652 0.191935 0.849
0.0222032 0.192161 0.85
0.0228426 0.192387 0.851
0.023456 0.192387 0.851
0.0240976 0.192613 0.852
0.0247407 0.192839 0.853
0.0253852 0.193065 0.854
0.0260007 0.193065 0.854
0.0266785 0.193517 0.856
0.0272955 0.193517 0.856
0.0279124 0.193517 0.856
0.028596 0.19397 0.858
0.0292484 0.194196 0.859
0.0298676 0.194196 0.859
0.0305222 0.194422 0.86
0.031142 0.194422 0.86
0.0317987 0.194648 0.861
0.0324193 0.194648 0.861
0.0330782 0.194874 0.862
0.0337386 0.1951 0.863
0.0343606 0.1951 0.863
0.0349826 0.1951 0.863
0.0356045 0.1951 0.863
0.0362265 0.1951 0.863
0.0368912 0.195326 0.864
0.0375139 0.195326 0.864
0.0381366 0.195326 0.864
0.0387594 0.195326 0.864
0.0393821 0.195326 0.864
0.0400048 0.195326 0.864
0.0406275 0.195326 0.864
0.0412502 0.195326 0.864
0.0419214 0.195552 0.865
0.0425448 0.195552 0.865
0.0432181 0.195778 0.866
0.0438423 0.195778 0.866
0.0444664 0.195778 0.866
0.0451427 0.196004 0.867
0.0458203 0.19623 0.868
0.0464994 0.196456 0.869
0.0471257 0.196456 0.869
0.0477521 0.196456 0.869
0.0483784 0.196456 0.869
0.0490047 0.196456 0.869
0.0496881 0.196682 0.87
0.0503151 0.196682 0.87
0.0509422 0.196682 0.87
0.0515692 0.196682 0.87
0.0521962 0.196682 0.87
0.0528233 0.196682 0.87
0.0534503 0.196682 0.87
0.0540774 0.196682 0.87
0.0547044 0.196682 0.87
0.0553314 0.196682 0.87
0.0559585 0.196682 0.87
0.0566505 0.196909 0.871
0.0572783 0.196909 0.871
0.057906 0.196909 0.871
0.058601 0.197135 0.872
0.0592295 0.197135 0.872
0.059858 0.197135 0.872
0.0604864 0.197135 0.872
0.0611149 0.197135 0.872
0.0618142 0.197361 0.873
0.0624434 0.197361 0.873
0.0630726 0.197361 0.873
0.0637747 0.197587 0.874
0.064552 0.198039 0.876
0.0652578 0.198265 0.877
0.0658899 0.198265 0.877
0.0665978 0.198491 0.878
0.0673072 0.198717 0.879
0.0679407 0.198717 0.879
0.0686523 0.198943 0.88
0.0693652 0.199169 0.881
0.0700002 0.199169 0.881
0.0706352 0.199169 0.881
0.071351 0.199395 0.882
0.0719867 0.199395 0.882
0.0726224 0.199395 0.882
0.0732581 0.199395 0.882
0.0738938 0.199395 0.882
0.0745294 0.199395 0.882
0.0752503 0.199621 0.883
0.0758867 0.199621 0.883
0.0765231 0.199621 0.883
0.0771596 0.199621 0.883
0.077796 0.199621 0.883
0.0784324 0.199621 0.883
0.0791583 0.199847 0.884
0.0797954 0.199847 0.884
0.0804326 0.199847 0.884
0.0810697 0.199847 0.884
0.0817068 0.199847 0.884
0.0824371 0.200074 0.885
0.0830749 0.200074 0.885
0.0837128 0.200074 0.885
0.0844459 0.2003 0.886
0.0850845 0.2003 0.886
0.0858198 0.200526 0.887
0.0866541 0.200978 0.889
0.0872948 0.200978 0.889
0.0879355 0.200978 0.889
0.0886759 0.201204 0.89
0.0894177 0.20143 0.891
0.0900599 0.20143 0.891
0.0909056 0.201882 0.893
0.0917543 0.202334 0.895
0.0923993 0.202334 0.895
0.0931483 0.20256 0.896
0.0938988 0.202786 0.897
0.0945453 0.202786 0.897
0.0951918 0.202786 0.897
0.0959451 0.203012 0.898
0.0965923 0.203012 0.898
0.0972396 0.203012 0.898
0.0978868 0.203012 0.898
0.0986437 0.203239 0.899
0.0992916 0.203239 0.899
0.0999396 0.203239 0.899
0.100588 0.203239 0.899
0.101235 0.203239 0.899
0.101997 0.203465 0.9
0.102645 0.203465 0.9
0.103294 0.203465 0.9
0.103943 0.203465 0.9
0.104708 0.203691 0.901
0.105357 0.203691 0.901
0.105889 0.203465 0.9
0.106537 0.203465 0.9
0.107186 0.203465 0.9
0.107835 0.203465 0.9
0.108483 0.203465 0.9
0.109132 0.203465 0.9
0.109781 0.203465 0.9
0.110307 0.203239 0.899
0.110954 0.203239 0.899
0.111478 0.203012 0.898
0.112126 0.203012 0.898
0.112898 0.203239 0.899
0.11342 0.203012 0.898
0.114067 0.203012 0.898
0.114842 0.203239 0.899
0.11549 0.203239 0.899
-0.011833 0.188465 0.831
-0.0112341 0.188465 0.831
-0.0106351 0.188465 0.831
-0.0100241 0.188238 0.83
-0.00942594 0.188238 0.83
-0.00882773 0.188238 0.83
-0.00822953 0.188238 0.83
-0.00764051 0.188465 0.831
-0.00704159 0.188465 0.831
-0.00644266 0.188465 0.831
-0.00584374 0.188465 0.831
-0.00525112 0.188692 0.832
-0.00465147 0.188692 0.832
-0.0040567 0.188919 0.833
-0.00346048 0.189145 0.834
-0.00285939 0.189145 0.834
-0.0022583 0.189145 0.834
-0.0016592 0.189372 0.835
-0.00105866 0.189599 0.836
-0.000456127 0.189599 0.836
0.00687957 0.192547 0.849
0.00749147 0.192547 0.849
0.00810337 0.192547 0.849
0.00870501 0.19232 0.848
0.00931619 0.19232 0.848
0.00991566 0.192094 0.847
0.0105261 0.192094 0.847
0.0111366 0.192094 0.847
0.011747 0.192094 0.847
0.0123429 0.191867 0.846
0.0129526 0.191867 0.846
0.0135624 0.191867 0.846
0.0141721 0.191867 0.846
0.0147819 0.191867 0.846
0.0153916 0.191867 0.846
0.0178305 0.191867 0.846
0.0184403 0.191867 0.846
0.0190725 0.192094 0.847
0.019683 0.192094 0.847
0.0203174 0.19232 0.848
0.0209533 0.192547 0.849
0.0215652 0.192547 0.849
0.0222032 0.192774 0.85
0.0228426 0.193001 0.851
0.023456 0.193001 0.851
0.0240976 0.193228 0.852
0.0247407 0.193454 0.853
0.0253852 0.193681 0.854
0.0260007 0.193681 0.854
0.0266785 0.194135 0.856
0.0272955 0.194135 0.856
0.0279124 0.194135 0.856
0.028596 0.194588 0.858
0.0292484 0.194815 0.859
0.0298676 0.194815 0.859
0.0305222 0.195042 0.86
0.031142 0.195042 0.86
0.0317987 0.195269 0.861
0.0324193 0.195269 0.861
0.0330782 0.195496 0.862
0.0337386 0.195722 0.863
0.0343606 0.195722 0.863
0.0349826 0.195722 0.863
0.0356045 0.195722 0.863
0.0362265 0.195722 0.863
0.0368912 0.195949 0.864
0.0375139 0.195949 0.864
0.0381366 0.195949 0.864
0.0387594 0.195949 0.864
0.0393821 0.195949 0.864
0.0400048 0.195949 0.864
0.0406275 0.195949 0.864
0.0412502 0.195949 0.864
0.0419214 0.196176 0.865
0.0425448 0.196176 0.865
0.0432181 0.196403 0.866
0.0438423 0.196403 0.866
0.0444664 0.196403 0.866
0.0451427 0.19663 0.867
0.0458203 0.196856 0.868
0.0464994 0.197083 0.869
0.0471257 0.197083 0.869
0.0477521 0.197083 0.869
0.0483784 0.197083 0.869
0.0490047 0.197083 0.869
0.0496881 0.19731 0.87
0.0503151 0.19731 0.87
0.0509422 0.19731 0.87
0.0515692 0.19731 0.87
0.0521962 0.19731 0.87
0.0528233 0.19731 0.87
0.0534503 0.19731 0.87
0.0540774 0.19731 0.87
0.0547044 0.19731 0.87
0.0553314 0.19731 0.87
0.0559585 0.19731 0.87
0.0566505 0.197537 0.871
0.0572783 0.197537 0.871
0.057906 0.197537 0.871
0.058601 0.197763 0.872
0.0592295 0.197763 0.872
0.059858 0.197763 0.872
0.0604864 0.197763 0.872
0.0611149 0.197763 0.872
0.0618142 0.19799 0.873
0.0624434 0.19799 0.873
0.0630726 0.19799 0.873
0.0637747 0.198217 0.874
0.064552 0.198671 0.876
0.0652578 0.198897 0.877
0.0658899 0.198897 0.877
0.0665978 0.199124 0.878
0.0673072 0.199351 0.879
0.0679407 0.199351 0.879
0.0686523 0.199578 0.88
0.0693652 0.199805 0.881
0.0700002 0.199805 0.881
0.0706352 0.199805 0.881
0.071351 0.200031 0.882
0.0719867 0.200031 0.882
0.0726224 0.200031 0.882
0.0732581 0.200031 0.882
0.0739775 0.200258 0.883
0.0746139 0.200258 0.883
0.0752503 0.200258 0.883
0.0758867 0.200258 0.883
0.0765231 0.200258 0.883
0.0771596 0.200258 0.883
0.0778841 0.200485 0.884
0.0785212 0.200485 0.884
0.0791583 0.200485 0.884
0.0797954 0.200485 0.884
0.0804326 0.200485 0.884
0.0810697 0.200485 0.884
0.0817068 0.200485 0.884
0.0824371 0.200712 0.885
0.0830749 0.200712 0.885
0.0837128 0.200712 0.885
0.0844459 0.200939 0.886
0.0850845 0.200939 0.886
0.0858198 0.201165 0.887
0.0865566 0.201392 0.888
0.0871966 0.201392 0.888
0.0879355 0.201619 0.889
0.0886759 0.201846 0.89
0.0894177 0.202073 0.891
0.0900599 0.202073 0.891
0.0908038 0.202299 0.892
0.0916518 0.202753 0.894
0.0922961 0.202753 0.894
0.0930444 0.20298 0.895
0.0937941 0.203206 0.896
0.0944399 0.203206 0.896
0.0951918 0.203433 0.897
0.0958383 0.203433 0.897
0.0965923 0.20366 0.898
0.0972396 0.20366 0.898
0.0978868 0.20366 0.898
0.0986437 0.203887 0.899
0.0992916 0.203887 0.899
0.0999396 0.203887 0.899
0.100588 0.203887 0.899
0.101235 0.203887 0.899
0.101997 0.204114 0.9
0.102645 0.204114 0.9
0.103294 0.204114 0.9
0.103943 0.204114 0.9
0.104708 0.20434 0.901
0.105357 0.20434 0.901
0.105889 0.204114 0.9
0.106537 0.204114 0.9
0.107186 0.204114 0.9
0.107835 0.204114 0.9
0.108483 0.204114 0.9
0.109132 0.204114 0.9
0.109781 0.204114 0.9
0.110307 0.203887 0.899
0.110954 0.203887 0.899
0.111478 0.20366 0.898
0.112126 0.20366 0.898
0.112898 0.203887 0.899
0.11342 0.20366 0.898
0.114067 0.20366 0.898
0.114842 0.203887 0.899
0.11549 0.203887 0.899
-0.011833 0.189064 0.831
-0.0112341 0.189064 0.831
-0.0106351 0.189064 0.831
-0.0100241 0.188837 0.83
-0.00942594 0.188837 0.83
-0.00882773 0.188837 0.83
-0.00822953 0.188837 0.83
-0.00764051 0.189064 0.831
-0.00704159 0.189064 0.831
-0.00644266 0.189064 0.831
-0.00584374 0.189064 0.831
-0.00525112 0.189292 0.832
-0.00465147 0.189292 0.832
-0.0040567 0.189519 0.833
-0.00346048 0.189747 0.834
-0.00285939 0.189747 0.834
-0.0022583 0.189747 0.834
-0.0016592 0.189974 0.835
-0.00105866 0.190202 0.836
-0.000456127 0.190202 0.836
0.00687957 0.19316 0.849
0.00749147 0.19316 0.849
0.00810337 0.19316 0.849
0.00870501 0.192932 0.848
0.00931619 0.192932 0.848
0.00991566 0.192705 0.847
0.0105261 0.192705 0.847
0.0111366 0.192705 0.847
0.011747 0.192705 0.847
0.0123429 0.192477 0.846
0.0129526 0.192477 0.846
0.0135624 0.192477 0.846
0.0141721 0.192477 0.846
0.0147819 0.192477 0.846
0.0153916 0.192477 0.846
0.0160013 0.192477 0.846
0.0166111 0.192477 0.846
0.0172208 0.192477 0.846
0.0178305 0.192477 0.846
0.0184403 0.192477 0.846
0.0190725 0.192705 0.847
0.019683 0.192705 0.847
0.0203174 0.192932 0.848
0.0209286 0.192932 0.848
0.0215398 0.192932 0.848
0.0221771 0.19316 0.849
0.0228158 0.193387 0.85
0.0234284 0.193387 0.85
0.0240693 0.193615 0.851
0.0247407 0.19407 0.853
0.0253852 0.194297 0.854
0.0260007 0.194297 0.854
0.0266474 0.194525 0.855
0.0272955 0.194752 0.856
0.0279124 0.194752 0.856
0.0285627 0.19498 0.857
0.0292144 0.195207 0.858
0.0298328 0.195207 0.858
0.0304512 0.195207 0.858
0.0311058 0.195435 0.859
0.0317618 0.195662 0.86
0.0323816 0.195662 0.86
0.0330398 0.19589 0.861
0.0336995 0.196117 0.862
0.0343208 0.196117 0.862
0.034942 0.196117 0.862
0.0356045 0.196345 0.863
0.0362265 0.196345 0.863
0.0368485 0.196345 0.863
0.0375139 0.196572 0.864
0.0381366 0.196572 0.864
0.0387594 0.196572 0.864
0.0393821 0.196572 0.864
0.0400048 0.196572 0.864
0.0406275 0.196572 0.864
0.0412502 0.196572 0.864
0.0418729 0.196572 0.864
0.0424956 0.196572 0.864
0.0431682 0.1968 0.865
0.0438423 0.197027 0.866
0.0444664 0.197027 0.866
0.0450906 0.197027 0.866
0.0457675 0.197255 0.867
0.0463924 0.197255 0.867
0.0470715 0.197482 0.868
0.0476971 0.197482 0.868
0.0483784 0.19771 0.869
0.0489483 0.197482 0.868
0.0495739 0.197482 0.868
0.0502573 0.19771 0.869
0.0508836 0.19771 0.869
0.0515099 0.19771 0.869
0.0521362 0.19771 0.869
0.0527626 0.19771 0.869
0.0533889 0.19771 0.869
0.0540774 0.197937 0.87
0.0547044 0.197937 0.87
0.0553314 0.197937 0.87
0.0559585 0.197937 0.87
0.0565855 0.197937 0.87
0.0572125 0.197937 0.87
0.057906 0.198165 0.871
0.0585338 0.198165 0.871
0.0591616 0.198165 0.871
0.059858 0.198392 0.872
0.0604864 0.198392 0.872
0.0611149 0.198392 0.872
0.0617434 0.198392 0.872
0.0624434 0.19862 0.873
0.0630726 0.19862 0.873
0.0637747 0.198847 0.874
0.0644784 0.199075 0.875
0.0652578 0.19953 0.877
0.0658899 0.19953 0.877
0.0665978 0.199757 0.878
0.0673072 0.199985 0.879
0.0679407 0.199985 0.879
0.0686523 0.200212 0.88
0.0693652 0.20044 0.881
0.0700002 0.20044 0.881
0.0706352 0.20044 0.881
0.0712701 0.20044 0.881
0.0719867 0.200668 0.882
0.0726224 0.200668 0.882
0.0732581 0.200668 0.882
0.0738938 0.200668 0.882
0.0745294 0.200668 0.882
0.0752503 0.200895 0.883
0.0758867 0.200895 0.883
0.0765231 0.200895 0.883
0.0771596 0.200895 0.883
0.0778841 0.201123 0.884
0.0785212 0.201123 0.884
0.0791583 0.201123 0.884
0.0797954 0.201123 0.884
0.0804326 0.201123 0.884
0.0810697 0.201123 0.884
0.0817068 0.201123 0.884
0.0824371 0.20135 0.885
0.0830749 0.20135 0.885
0.0837128 0.20135 0.885
0.0844459 0.201578 0.886
0.0850845 0.201578 0.886
0.0858198 0.201805 0.887
0.0865566 0.202033 0.888
0.0871966 0.202033 0.888
0.0879355 0.20226 0.889
0.0886759 0.202488 0.89
0.0894177 0.202715 0.891
0.0900599 0.202715 0.891
0.0908038 0.202943 0.892
0.0915492 0.20317 0.893
0.0921928 0.20317 0.893
0.0930444 0.203625 0.895
0.0937941 0.203853 0.896
0.0944399 0.203853 0.896
0.0951918 0.20408 0.897
0.0958383 0.20408 0.897
0.0965923 0.204308 0.898
0.0972396 0.204308 0.898
0.0978868 0.204308 0.898
0.0986437 0.204535 0.899
0.0992916 0.204535 0.899
0.0999396 0.204535 0.899
0.100588 0.204535 0.899
0.101235 0.204535 0.899
0.101997 0.204763 0.9
0.102645 0.204763 0.9
0.103294 0.204763 0.9
0.103943 0.204763 0.9
0.104708 0.20499 0.901
0.105357 0.20499 0.901
0.106006 0.20499 0.901
0.106656 0.20499 0.901
0.107305 0.20499 0.901
0.107835 0.204763 0.9
0.108483 0.204763 0.9
0.109132 0.204763 0.9
0.109781 0.204763 0.9
0.110307 0.204535 0.899
0.110954 0.204535 0.899
0.111602 0.204535 0.899
0.11225 0.204535 0.899
0.112898 0.204535 0.899
0.113546 0.204535 0.899
0.114194 0.204535 0.899
0.114842 0.204535 0.899
0.11549 0.204535 0.899
-0.0142801 0.190348 0.834
-0.0136626 0.19012 0.833
-0.0130622 0.19012 0.833
-0.0124618 0.19012 0.833
-0.011833 0.189664 0.831
-0.0112341 0.189664 0.831
-0.0106351 0.189664 0.831
-0.0100241 0.189435 0.83
-0.00942594 0.189435 0.83
-0.00882773 0.189435 0.83
-0.00822953 0.189435 0.83
-0.00764051 0.189664 0.831
-0.00704159 0.189664 0.831
-0.00644266 0.189664 0.831
-0.00584374 0.189664 0.831
-0.00525112 0.189892 0.832
-0.00465147 0.189892 0.832
-0.0040567 0.19012 0.833
-0.00346048 0.190348 0.834
-0.00285939 0.190348 0.834
-0.0022583 0.190348 0.834
-0.0016592 0.190577 0.835
-0.00105866 0.190805 0.836
-0.000456127 0.190805 0.836
0.000146578 0.191033 0.837
0.000751621 0.191489 0.839
0.00135631 0.191489 0.839
0.00196334 0.191718 0.84
0.00257181 0.191946 0.841
0.00318928 0.192631 0.844
0.00379758 0.192631 0.844
0.00442154 0.193315 0.847
0.00503199 0.193315 0.847
0.00564245 0.193315 0.847
0.00626029 0.193544 0.848
0.00687147 0.193544 0.848
0.00749147 0.193772 0.849
0.00809383 0.193544 0.848
0.00870501 0.193544 0.848
0.00931619 0.193544 0.848
0.00991566 0.193315 0.847
0.0105261 0.193315 0.847
0.0111366 0.193315 0.847
0.0117332 0.193087 0.846
0.0123429 0.193087 0.846
0.0129526 0.193087 0.846
0.0135624 0.193087 0.846
0.0141721 0.193087 0.846
0.0147819 0.193087 0.846
0.0153916 0.193087 0.846
0.0160013 0.193087 0.846
0.0166111 0.193087 0.846
0.0172208 0.193087 0.846
0.0178305 0.193087 0.846
0.0184621 0.193315 0.847
0.0190725 0.193315 0.847
0.019683 0.193315 0.847
0.0203174 0.193544 0.848
0.0209286 0.193544 0.848
0.0215398 0.193544 0.848
0.0221771 0.193772 0.849
0.0228158 0.194 0.85
0.0234284 0.194 0.85
0.0240693 0.194228 0.851
0.0247117 0.194457 0.852
0.0253555 0.194685 0.853
0.0259702 0.194685 0.853
0.0266474 0.195141 0.855
0.0272955 0.195369 0.856
0.0279124 0.195369 0.856
0.0285294 0.195369 0.856
0.0292144 0.195826 0.858
0.0298328 0.195826 0.858
0.0304512 0.195826 0.858
0.0311058 0.196054 0.859
0.0317618 0.196282 0.86
0.0323816 0.196282 0.86
0.0330398 0.196511 0.861
0.0336995 0.196739 0.862
0.0343208 0.196739 0.862
0.034942 0.196739 0.862
0.0356045 0.196967 0.863
0.0362265 0.196967 0.863
0.0368485 0.196967 0.863
0.0374705 0.196967 0.863
0.0380925 0.196967 0.863
0.0387145 0.196967 0.863
0.0393365 0.196967 0.863
0.0399585 0.196967 0.863
0.0405805 0.196967 0.863
0.0412502 0.197195 0.864
0.0418729 0.197195 0.864
0.0424956 0.197195 0.864
0.0431183 0.197195 0.864
0.0437917 0.197424 0.865
0.0444151 0.197424 0.865
0.0450906 0.197652 0.866
0.0457147 0.197652 0.866
0.0463389 0.197652 0.866
0.0470173 0.19788 0.867
0.0476422 0.19788 0.867
0.048267 0.19788 0.867
0.0488919 0.19788 0.867
0.0495168 0.19788 0.867
0.0501995 0.198108 0.868
0.0508251 0.198108 0.868
0.0514507 0.198108 0.868
0.0520763 0.198108 0.868
0.0527019 0.198108 0.868
0.0533274 0.198108 0.868
0.053953 0.198108 0.868
0.0545786 0.198108 0.868
0.0552678 0.198337 0.869
0.0558941 0.198337 0.869
0.0565855 0.198565 0.87
0.0572125 0.198565 0.87
0.0578396 0.198565 0.87
0.0585338 0.198793 0.871
0.0591616 0.198793 0.871
0.0597893 0.198793 0.871
0.0604864 0.199021 0.872
0.0611149 0.199021 0.872
0.0617434 0.199021 0.872
0.0624434 0.199249 0.873
0.0630726 0.199249 0.873
0.0637747 0.199478 0.874
0.0644784 0.199706 0.875
0.0652578 0.200162 0.877
0.0658899 0.200162 0.877
0.0665978 0.200391 0.878
0.0673072 0.200619 0.879
0.0679407 0.200619 0.879
0.0686523 0.200847 0.88
0.0692865 0.200847 0.88
0.0699207 0.200847 0.88
0.0706352 0.201075 0.881
0.0712701 0.201075 0.881
0.0719867 0.201304 0.882
0.0726224 0.201304 0.882
0.0732581 0.201304 0.882
0.0738938 0.201304 0.882
0.0745294 0.201304 0.882
0.0752503 0.201532 0.883
0.0758867 0.201532 0.883
0.0765231 0.201532 0.883
0.0772469 0.20176 0.884
0.0778841 0.20176 0.884
0.0785212 0.20176 0.884
0.0791583 0.20176 0.884
0.0797954 0.20176 0.884
0.0805236 0.201988 0.885
0.0811614 0.201988 0.885
0.0817992 0.201988 0.885
0.0824371 0.201988 0.885
0.0830749 0.201988 0.885
0.0838074 0.202217 0.886
0.0844459 0.202217 0.886
0.0850845 0.202217 0.886
0.0858198 0.202445 0.887
0.0865566 0.202673 0.888
0.0871966 0.202673 0.888
0.0879355 0.202901 0.889
0.0886759 0.203129 0.89
0.0894177 0.203358 0.891
0.0900599 0.203358 0.891
0.0908038 0.203586 0.892
0.0915492 0.203814 0.893
0.0921928 0.203814 0.893
0.0930444 0.204271 0.895
0.0937941 0.204499 0.896
0.0944399 0.204499 0.896
0.0951918 0.204727 0.897
0.0958383 0.204727 0.897
0.0965923 0.204955 0.898
0.0972396 0.204955 0.898
0.0978868 0.204955 0.898
0.0986437 0.205184 0.899
0.0992916 0.205184 0.899
0.0999396 0.205184 0.899
0.100699 0.205412 0.9
0.101348 0.205412 0.9
0.101997 0.205412 0.9
0.102759 0.20564 0.901
0.103409 0.20564 0.901
0.104058 0.20564 0.901
0.104708 0.20564 0.901
0.105357 0.20564 0.901
0.106006 0.20564 0.901
0.106656 0.20564 0.901
0.107305 0.20564 0.901
0.107954 0.20564 0.901
0.108604 0.20564 0.901
0.109253 0.20564 0.901
0.109781 0.205412 0.9
0.110429 0.205412 0.9
0.111078 0.205412 0.9
0.111727 0.205412 0.9
0.11225 0.205184 0.899
0.112898 0.205184 0.899
0.113546 0.205184 0.899
0.114194 0.205184 0.899
0.114842 0.205184 0.899
0.11549 0.205184 0.899
-0.0198551 0.192552 0.841
-0.0192261 0.192324 0.84
-0.0186207 0.192324 0.84
-0.0179938 0.192095 0.839
-0.0173684 0.191866 0.838
-0.0167644 0.191866 0.838
-0.0161412 0.191637 0.837
-0.0155379 0.191637 0.837
-0.014899 0.191179 0.835
-0.0142801 0.19095 0.834
-0.0136626 0.190721 0.833
-0.0130622 0.190721 0.833
-0.0124618 0.190721 0.833
-0.0118472 0.190492 0.832
-0.0112476 0.190492 0.832
-0.0106479 0.190492 0.832
-0.0100362 0.190263 0.831
-0.00943729 0.190263 0.831
-0.00883837 0.190263 0.831
-0.00823944 0.190263 0.831
-0.00764971 0.190492 0.832
-0.00705006 0.190492 0.832
-0.00645042 0.190492 0.832
-0.0058578 0.190721 0.833
-0.00525743 0.190721 0.833
-0.00465706 0.190721 0.833
-0.00406157 0.19095 0.834
-0.00346463 0.191179 0.835
-0.00286282 0.191179 0.835
-0.00226101 0.191179 0.835
-0.00166119 0.191408 0.836
-0.00105866 0.191408 0.836
-0.000456127 0.191408 0.836
0.000146578 0.191637 0.837
0.000751621 0.192095 0.839
0.00135631 0.192095 0.839
0.00196334 0.192324 0.84
0.00257181 0.192552 0.841
0.00318928 0.193239 0.844
0.00379758 0.193239 0.844
0.0044111 0.193468 0.845
0.00503199 0.193926 0.847
0.00564245 0.193926 0.847
0.00626029 0.194155 0.848
0.00687147 0.194155 0.848
0.00748265 0.194155 0.848
0.00809383 0.194155 0.848
0.00870501 0.194155 0.848
0.00931619 0.194155 0.848
0.00991566 0.193926 0.847
0.0105261 0.193926 0.847
0.0111366 0.193926 0.847
0.0117332 0.193697 0.846
0.0123429 0.193697 0.846
0.0129526 0.193697 0.846
0.0135624 0.193697 0.846
0.0141721 0.193697 0.846
0.0147819 0.193697 0.846
0.0153916 0.193697 0.846
0.0160013 0.193697 0.846
0.0166111 0.193697 0.846
0.0172208 0.193697 0.846
0.0178305 0.193697 0.846
0.0184621 0.193926 0.847
0.0190725 0.193926 0.847
0.019683 0.193926 0.847
0.0203174 0.194155 0.848
0.0209286 0.194155 0.848
0.0215398 0.194155 0.848
0.0222032 0.194613 0.85
0.0228158 0.194613 0.85
0.0234284 0.194613 0.85
0.0240693 0.194842 0.851
0.0247117 0.195071 0.852
0.0253555 0.1953 0.853
0.0259702 0.1953 0.853
0.0266162 0.195529 0.854
0.0272636 0.195758 0.855
0.0278798 0.195758 0.855
0.0285294 0.195987 0.856
0.0292144 0.196445 0.858
0.0298328 0.196445 0.858
0.0304867 0.196674 0.859
0.031142 0.196903 0.86
0.0317618 0.196903 0.86
0.0323816 0.196903 0.86
0.0330398 0.197132 0.861
0.0336995 0.197361 0.862
0.0343208 0.197361 0.862
0.034942 0.197361 0.862
0.0356045 0.19759 0.863
0.0362265 0.19759 0.863
0.0368485 0.19759 0.863
0.0374705 0.19759 0.863
0.0380925 0.19759 0.863
0.0387145 0.19759 0.863
0.0393365 0.19759 0.863
0.0399585 0.19759 0.863
0.0405805 0.19759 0.863
0.0412502 0.197818 0.864
0.0418729 0.197818 0.864
0.0424956 0.197818 0.864
0.0431183 0.197818 0.864
0.0437917 0.198047 0.865
0.0444151 0.198047 0.865
0.0450906 0.198276 0.866
0.0457147 0.198276 0.866
0.0463389 0.198276 0.866
0.0470173 0.198505 0.867
0.0476422 0.198505 0.867
0.048267 0.198505 0.867
0.0488919 0.198505 0.867
0.0495168 0.198505 0.867
0.0501995 0.198734 0.868
0.0508251 0.198734 0.868
0.0514507 0.198734 0.868
0.0520763 0.198734 0.868
0.0527019 0.198734 0.868
0.0533274 0.198734 0.868
0.053953 0.198734 0.868
0.0545786 0.198734 0.868
0.0552678 0.198963 0.869
0.0558941 0.198963 0.869
0.0565855 0.199192 0.87
0.0572125 0.199192 0.87
0.0578396 0.199192 0.87
0.0585338 0.199421 0.871
0.0591616 0.199421 0.871
0.0597893 0.199421 0.871
0.0604864 0.19965 0.872
0.0611149 0.19965 0.872
0.0617434 0.19965 0.872
0.0624434 0.199879 0.873
0.0630726 0.199879 0.873
0.0637747 0.200108 0.874
0.0644784 0.200337 0.875
0.0652578 0.200795 0.877
0.0658899 0.200795 0.877
0.0665978 0.201024 0.878
0.0673072 0.201253 0.879
0.0679407 0.201253 0.879
0.0686523 0.201482 0.88
0.0692865 0.201482 0.88
0.0699207 0.201482 0.88
0.0706352 0.201711 0.881
0.0712701 0.201711 0.881
0.0719867 0.20194 0.882
0.0726224 0.20194 0.882
0.0732581 0.20194 0.882
0.0739775 0.202169 0.883
0.0746139 0.202169 0.883
0.0752503 0.202169 0.883
0.0758867 0.202169 0.883
0.0765231 0.202169 0.883
0.0772469 0.202398 0.884
0.0778841 0.202398 0.884
0.0785212 0.202398 0.884
0.0791583 0.202398 0.884
0.0798857 0.202627 0.885
0.0805236 0.202627 0.885
0.0811614 0.202627 0.885
0.0817992 0.202627 0.885
0.0825302 0.202856 0.886
0.0831688 0.202856 0.886
0.0838074 0.202856 0.886
0.0845413 0.203084 0.887
0.0851805 0.203084 0.887
0.0859166 0.203313 0.888
0.0865566 0.203313 0.888
0.0871966 0.203313 0.888
0.0879355 0.203542 0.889
0.0886759 0.203771 0.89
0.0894177 0.204 0.891
0.0900599 0.204 0.891
0.0908038 0.204229 0.892
0.0915492 0.204458 0.893
0.0921928 0.204458 0.893
0.0930444 0.204916 0.895
0.0937941 0.205145 0.896
0.0944399 0.205145 0.896
0.0951918 0.205374 0.897
0.0959451 0.205603 0.898
0.0965923 0.205603 0.898
0.0972396 0.205603 0.898
0.0979958 0.205832 0.899
0.0986437 0.205832 0.899
0.0992916 0.205832 0.899
0.100051 0.206061 0.9
0.100699 0.206061 0.9
0.101348 0.206061 0.9
0.101997 0.206061 0.9
0.102759 0.20629 0.901
0.103409 0.20629 0.901
0.104058 0.20629 0.901
0.104708 0.20629 0.901
0.105357 0.20629 0.901
0.106006 0.20629 0.901
0.106656 0.20629 0.901
0.107305 0.20629 0.901
0.107954 0.20629 0.901
0.108604 0.20629 0.901
0.109253 0.20629 0.901
0.109781 0.206061 0.9
0.110429 0.206061 0.9
0.111078 0.206061 0.9
0.111727 0.206061 0.9
0.11225 0.205832 0.899
0.112898 0.205832 0.899
0.113546 0.205832 0.899
0.114194 0.205832 0.899
0.114842 0.205832 0.899
0.11549 0.205832 0.899
-0.0198551 0.193159 0.841
-0.0192261 0.192929 0.84
-0.0186207 0.192929 0.84
-0.0179938 0.1927 0.839
-0.0173684 0.19247 0.838
-0.0167644 0.19247 0.838
-0.0161412 0.19224 0.837
-0.0155379 0.19224 0.837
-0.014899 0.191781 0.835
-0.0142972 0.191781 0.835
-0.013679 0.191551 0.834
-0.0130779 0.191551 0.834
-0.0124768 0.191551 0.834
-0.0118615 0.191322 0.833
-0.0112611 0.191322 0.833
-0.0106607 0.191322 0.833
-0.0100604 0.191322 0.833
-0.00946001 0.191322 0.833
-0.00885964 0.191322 0.833
-0.00825927 0.191322 0.833
-0.0076681 0.191551 0.834
-0.00706701 0.191551 0.834
-0.00646592 0.191551 0.834
-0.00586483 0.191551 0.834
-0.00526374 0.191551 0.834
-0.00466266 0.191551 0.834
-0.00406644 0.191781 0.835
-0.00346878 0.192011 0.836
-0.00286625 0.192011 0.836
-0.00226372 0.192011 0.836
-0.00166119 0.192011 0.836
-0.00105992 0.19224 0.837
-0.000456672 0.19224 0.837
0.000146754 0.19247 0.838
0.000751621 0.1927 0.839
0.00135631 0.1927 0.839
0.00196568 0.193159 0.841
0.00257487 0.193389 0.842
0.00318928 0.193848 0.844
0.00379758 0.193848 0.844
0.0044111 0.194078 0.845
0.00503199 0.194537 0.847
0.00564245 0.194537 0.847
0.00626029 0.194767 0.848
0.00687147 0.194767 0.848
0.00748265 0.194767 0.848
0.00809383 0.194767 0.848
0.00870501 0.194767 0.848
0.00931619 0.194767 0.848
0.00991566 0.194537 0.847
0.0105261 0.194537 0.847
0.0111366 0.194537 0.847
0.011747 0.194537 0.847
0.0123575 0.194537 0.847
0.0129679 0.194537 0.847
0.0135624 0.194307 0.846
0.0141721 0.194307 0.846
0.0147819 0.194307 0.846
0.0153916 0.194307 0.846
0.0160013 0.194307 0.846
0.0166111 0.194307 0.846
0.0172208 0.194307 0.846
0.0178516 0.194537 0.847
0.0184621 0.194537 0.847
0.0190725 0.194537 0.847
0.019683 0.194537 0.847
0.0203174 0.194767 0.848
0.0209286 0.194767 0.848
0.0215398 0.194767 0.848
0.0222032 0.195226 0.85
0.0228158 0.195226 0.85
0.0234284 0.195226 0.85
0.0240693 0.195456 0.851
0.0247117 0.195685 0.852
0.0253555 0.195915 0.853
0.0259702 0.195915 0.853
0.0266162 0.196145 0.854
0.0272636 0.196374 0.855
0.0278798 0.196374 0.855
0.0285294 0.196604 0.856
0.0291804 0.196834 0.857
0.029798 0.196834 0.857
0.0304512 0.197064 0.858
0.031142 0.197523 0.86
0.0317618 0.197523 0.86
0.0323816 0.197523 0.86
0.0330398 0.197753 0.861
0.0336995 0.197982 0.862
0.0343208 0.197982 0.862
0.034942 0.197982 0.862
0.0356045 0.198212 0.863
0.0362265 0.198212 0.863
0.0368485 0.198212 0.863
0.0374705 0.198212 0.863
0.0380925 0.198212 0.863
0.0387145 0.198212 0.863
0.0393365 0.198212 0.863
0.0399585 0.198212 0.863
0.0405805 0.198212 0.863
0.0412502 0.198442 0.864
0.0418729 0.198442 0.864
0.0424956 0.198442 0.864
0.0431183 0.198442 0.864
0.043741 0.198442 0.864
0.0443637 0.198442 0.864
0.0449865 0.198442 0.864
0.045662 0.198671 0.865
0.0462854 0.198671 0.865
0.0469088 0.198671 0.865
0.0475872 0.198901 0.866
0.0482114 0.198901 0.866
0.0488355 0.198901 0.866
0.0494597 0.198901 0.866
0.0501416 0.199131 0.867
0.0507665 0.199131 0.867
0.0513914 0.199131 0.867
0.0520763 0.19936 0.868
0.0527019 0.19936 0.868
0.0533274 0.19936 0.868
0.053953 0.19936 0.868
0.0545786 0.19936 0.868
0.0552042 0.19936 0.868
0.0558941 0.19959 0.869
0.0565204 0.19959 0.869
0.0571468 0.19959 0.869
0.0578396 0.19982 0.87
0.0584666 0.19982 0.87
0.0590936 0.19982 0.87
0.0597893 0.200049 0.871
0.0604864 0.200279 0.872
0.0611149 0.200279 0.872
0.0617434 0.200279 0.872
0.0624434 0.200509 0.873
0.0630726 0.200509 0.873
0.0637747 0.200738 0.874
0.0644784 0.200968 0.875
0.0652578 0.201427 0.877
0.0658899 0.201427 0.877
0.0665978 0.201657 0.878
0.0673072 0.201887 0.879
0.0679407 0.201887 0.879
0.0685742 0.201887 0.879
0.0692865 0.202116 0.88
0.0699207 0.202116 0.88
0.0706352 0.202346 0.881
0.0712701 0.202346 0.881
0.0719867 0.202576 0.882
0.0726224 0.202576 0.882
0.0732581 0.202576 0.882
0.0739775 0.202805 0.883
0.0746139 0.202805 0.883
0.0752503 0.202805 0.883
0.0758867 0.202805 0.883
0.0765231 0.202805 0.883
0.0772469 0.203035 0.884
0.0778841 0.203035 0.884
0.0785212 0.203035 0.884
0.0791583 0.203035 0.884
0.0798857 0.203265 0.885
0.0805236 0.203265 0.885
0.0811614 0.203265 0.885
0.0817992 0.203265 0.885
0.0825302 0.203495 0.886
0.0831688 0.203495 0.886
0.0838074 0.203495 0.886
0.0845413 0.203724 0.887
0.0851805 0.203724 0.887
0.0859166 0.203954 0.888
0.0865566 0.203954 0.888
0.0871966 0.203954 0.888
0.0879355 0.204184 0.889
0.0886759 0.204413 0.89
0.0894177 0.204643 0.891
0.0900599 0.204643 0.891
0.0908038 0.204873 0.892
0.0915492 0.205102 0.893
0.0921928 0.205102 0.893
0.0930444 0.205562 0.895
0.0937941 0.205791 0.896
0.0944399 0.205791 0.896
0.0951918 0.206021 0.897
0.0959451 0.206251 0.898
0.0965923 0.206251 0.898
0.0972396 0.206251 0.898
0.0979958 0.20648 0.899
0.0986437 0.20648 0.899
0.0992916 0.20648 0.899
0.100051 0.20671 0.9
0.100699 0.20671 0.9
0.101348 0.20671 0.9
0.10211 0.20694 0.901
0.102759 0.20694 0.901
0.103409 0.20694 0.901
0.104058 0.20694 0.901
0.104824 0.207169 0.902
0.105474 0.207169 0.902
0.106124 0.207169 0.902
0.106774 0.207169 0.902
0.107424 0.207169 0.902
0.107954 0.20694 0.901
0.108604 0.20694 0.901
0.109253 0.20694 0.901
0.109903 0.20694 0.901
0.110429 0.20671 0.9
0.111078 0.20671 0.9
0.111727 0.20671 0.9
0.112375 0.20671 0.9
0.113024 0.20671 0.9
0.113546 0.20648 0.899
0.114194 0.20648 0.899
0.11497 0.20671 0.9
-0.0229402 0.194226 0.843
-0.0223326 0.194226 0.843
-0.0216993 0.193996 0.842
-0.0210925 0.193996 0.842
-0.0204856 0.193996 0.842
-0.0198551 0.193766 0.841
-0.0192261 0.193535 0.84
-0.0186207 0.193535 0.84
-0.0179938 0.193305 0.839
-0.0173684 0.193074 0.838
-0.0167644 0.193074 0.838
-0.0161412 0.192844 0.837
-0.0155379 0.192844 0.837
-0.014899 0.192383 0.835
-0.0142972 0.192383 0.835
-0.013679 0.192153 0.834
-0.0130779 0.192153 0.834
-0.0124768 0.192153 0.834
-0.0118615 0.191922 0.833
-0.0112611 0.191922 0.833
-0.0106607 0.191922 0.833
-0.0100604 0.191922 0.833
-0.00946001 0.191922 0.833
-0.00885964 0.191922 0.833
-0.00825927 0.191922 0.833
-0.0076681 0.192153 0.834
-0.00706701 0.192153 0.834
-0.00646592 0.192153 0.834
-0.00586483 0.192153 0.834
-0.00526374 0.192153 0.834
-0.00466266 0.192153 0.834
-0.00406644 0.192383 0.835
-0.00346878 0.192614 0.836
-0.00286625 0.192614 0.836
-0.00226372 0.192614 0.836
-0.00166119 0.192614 0.836
-0.00105992 0.192844 0.837
-0.000456672 0.192844 0.837
0.000146754 0.193074 0.838
0.000751621 0.193305 0.839
0.00135631 0.193305 0.839
0.00196568 0.193766 0.841
0.00257487 0.193996 0.842
0.00318928 0.194457 0.844
0.00379758 0.194457 0.844
0.0044111 0.194687 0.845
0.00502605 0.194918 0.846
0.00563579 0.194918 0.846
0.00625291 0.195148 0.847
0.00687147 0.195378 0.848
0.00748265 0.195378 0.848
0.00809383 0.195378 0.848
0.00870501 0.195378 0.848
0.00931619 0.195378 0.848
0.00991566 0.195148 0.847
0.0105261 0.195148 0.847
0.0111366 0.195148 0.847
0.011747 0.195148 0.847
0.0123575 0.195148 0.847
0.0129679 0.195148 0.847
0.0135624 0.194918 0.846
0.0141721 0.194918 0.846
0.0147819 0.194918 0.846
0.0153916 0.194918 0.846
0.0160013 0.194918 0.846
0.0166111 0.194918 0.846
0.0172208 0.194918 0.846
0.0178516 0.195148 0.847
0.0184621 0.195148 0.847
0.0190725 0.195148 0.847
0.019683 0.195148 0.847
0.0202934 0.195148 0.847
0.0209286 0.195378 0.848
0.0215398 0.195378 0.848
0.0221771 0.195609 0.849
0.0228158 0.195839 0.85
