# 3D Systems, Inc.
# New Model
0.1604512 0.2582360 0.9097487
0.1606460 0.2669754 0.9106182
0.1606566 0.2652413 0.9104595
0.1606552 0.2658326 0.9105069
0.1606548 0.2663917 0.9105595
0.1608227 0.2647923 0.9104390
0.1608297 0.2641528 0.9103920
0.1608356 0.2635112 0.9103474
0.1608391 0.2628651 0.9102987
0.1608459 0.2608907 0.9101197
0.1608464 0.2615694 0.9101922
0.1608440 0.2622228 0.9102520
0.1608828 0.2570857 0.9095878
0.1610662 0.2604648 0.9101043
0.1610847 0.2598635 0.9100314
0.1610942 0.2592939 0.9099652
0.1611093 0.2587598 0.9098886
0.1611245 0.2582196 0.9098115
0.1612794 0.2663864 0.9106229
0.1612833 0.2658391 0.9105712
0.1612905 0.2652530 0.9105248
0.1614503 0.2673386 0.9107413
0.1614695 0.2647952 0.9105007
0.1614762 0.2641571 0.9104538
0.1614823 0.2635183 0.9104109
0.1614862 0.2628751 0.9103647
0.1614954 0.2615838 0.9102644
0.1614925 0.2622351 0.9103210
0.1615415 0.2570599 0.9096546
0.1617204 0.2610643 0.9102488
0.1617351 0.2604594 0.9101782
0.1617547 0.2598550 0.9101088
0.1617732 0.2592825 0.9100416
0.1617919 0.2587415 0.9099649
0.1618080 0.2581966 0.9098847
0.1618700 0.2669501 0.9107410
0.1618803 0.2663820 0.9106851
0.1618880 0.2658382 0.9106312
0.1618999 0.2652568 0.9105872
0.1619068 0.2646683 0.9105424
0.1621171 0.2641646 0.9105222
0.1621231 0.2635282 0.9104790
0.1621267 0.2628871 0.9104339
0.1621342 0.2615970 0.9103392
0.1621323 0.2622462 0.9103919
0.1621963 0.2570308 0.9097257
0.1623935 0.2610673 0.9103321
0.1624105 0.2604579 0.9102609
0.1624281 0.2598500 0.9101952
0.1624490 0.2592703 0.9101266
0.1624722 0.2587184 0.9100476
0.1624919 0.2581675 0.9099661
0.1624688 0.2669432 0.9108097
0.1624748 0.2663778 0.9107529
0.1624827 0.2658342 0.9106975
0.1625056 0.2634476 0.9105277
0.1625000 0.2652572 0.9106551
0.1625104 0.2640695 0.9105698
0.1625096 0.2646755 0.9106119
0.1627621 0.2629019 0.9105128
0.1627714 0.2616103 0.9104232
0.1627696 0.2622610 0.9104725
0.1628455 0.2569923 0.9098182
0.1630572 0.2610723 0.9104261
0.1630751 0.2604564 0.9103563
0.1630918 0.2598445 0.9102905
0.1630674 0.2663644 0.9108255
0.1630796 0.2658272 0.9107718
0.1631126 0.2592542 0.9102213
0.1630986 0.2652578 0.9107293
0.1631160 0.2634670 0.9106069
0.1631362 0.2586877 0.9101463
0.1631125 0.2646827 0.9106880
0.1631175 0.2640835 0.9106480
0.1631598 0.2581288 0.9100631
0.1633187 0.2678980 0.9110309
0.1633369 0.2673012 0.9109591
0.1633920 0.2629163 0.9105991
0.1634057 0.2616238 0.9105154
0.1634024 0.2622752 0.9105605
0.1635068 0.2563637 0.9098216
0.1636490 0.2663509 0.9108970
0.1636629 0.2658245 0.9108452
0.1636805 0.2652554 0.9108036
0.1637140 0.2610797 0.9105233
0.1636978 0.2646850 0.9107640
0.1637059 0.2640897 0.9107265
0.1637099 0.2634798 0.9106883
0.1637317 0.2604577 0.9104565
0.1637474 0.2598385 0.9103937
0.1637907 0.2586590 0.9102503
0.1638154 0.2580878 0.9101694
0.1638419 0.2575305 0.9100823
0.1639531 0.2672825 0.9110380
0.1640134 0.2629345 0.9106913
0.1640297 0.2616402 0.9106117
0.1640247 0.2622932 0.9106541
0.1640991 0.2595490 0.9104207
0.1641434 0.2563105 0.9099281
0.1643680 0.2610917 0.9106302
0.1643843 0.2604620 0.9105659
0.1643983 0.2598356 0.9105069
0.1644428 0.2586290 0.9103644
0.1644679 0.2580467 0.9102826
0.1644939 0.2574799 0.9101929
0.1645878 0.2660660 0.9109938
0.1645987 0.2654591 0.9109423
0.1646068 0.2648401 0.9109035
0.1646204 0.2629596 0.9107899
0.1646131 0.2642177 0.9108660
0.1646174 0.2635896 0.9108279
0.1647769 0.2595261 0.9105368
0.1650031 0.2623894 0.9108252
0.1650090 0.2617493 0.9107868
0.1650145 0.2611112 0.9107409
0.1650872 0.2586006 0.9104890
0.1651140 0.2580028 0.9104083
0.1651400 0.2574232 0.9103232
0.1652273 0.2629872 0.9109012
0.1652240 0.2636146 0.9109374
0.1654106 0.2606268 0.9107732
0.1654261 0.2600537 0.9107297
0.1654461 0.2595083 0.9106756
0.1657716 0.2573699 0.9104572
0.1661252 0.2589442 0.9107609
0.1661612 0.2584068 0.9106978
0.1663947 0.2573152 0.9105955
0.1670110 0.2572600 0.9107429
0.1676500 0.2565850 0.9108113
0.0887426 0.2709563 0.8993670
0.0890077 0.2681296 0.9011204
0.0889520 0.2698136 0.9001288
0.0889847 0.2717534 0.8990087
0.0890683 0.2702358 0.8999220
0.0892672 0.2690509 0.9006869
0.0893190 0.2710951 0.8995253
0.0894525 0.2678732 0.9014342
0.0895658 0.2682764 0.9012394
0.0895336 0.2699621 0.9002688
0.0895645 0.2718657 0.8991872
0.0896381 0.2703800 0.9000703
0.0896468 0.2723062 0.8989870
0.0898429 0.2692012 0.9008158
0.0899055 0.2712237 0.8996781
0.0900313 0.2680194 0.9015517
0.0901362 0.2684210 0.9013574
0.0901271 0.2701050 0.9004067
0.0902197 0.2705204 0.9002150
0.0904331 0.2693407 0.9009391
0.0906255 0.2681539 0.9016615
0.0905826 0.2717832 0.8996392
0.0907164 0.2685547 0.9014629
0.0906724 0.2722451 0.8994324
0.0907354 0.2702441 0.9005448
0.0908180 0.2706492 0.9003500
0.0907747 0.2727315 0.8992161
0.0909045 0.2710860 0.9001482
0.0910345 0.2694793 0.9010702
0.0909659 0.2734313 0.8989539
0.0912306 0.2682870 0.9017735
0.0911842 0.2718999 0.8998045
0.0913052 0.2686865 0.9015730
0.0912566 0.2723577 0.8996084
0.0913516 0.2703809 0.9006914
0.0913416 0.2728359 0.8993964
0.0914223 0.2707827 0.9004995
0.0914994 0.2712111 0.9002955
0.0916478 0.2696058 0.9011945
0.0918468 0.2684051 0.9018754
0.0918035 0.2720121 0.8999862
0.0919078 0.2688103 0.9016788
0.0918606 0.2724625 0.8997900
0.0919264 0.2729340 0.8995803
0.0920037 0.2734396 0.8993721
0.0921108 0.2713312 0.9004463
0.0920985 0.2739886 0.8991630
0.0922037 0.2745782 0.8989586
0.0923274 0.2701479 0.9011213
0.0923916 0.2705839 0.9009286
0.0924770 0.2685099 0.9019710
0.0924245 0.2721014 0.9001696
0.0925258 0.2689228 0.9017794
0.0924778 0.2725498 0.8999680
0.0925839 0.2693484 0.9015965
0.0925292 0.2730274 0.8997693
0.0925899 0.2735194 0.8995560
0.0926660 0.2740527 0.8993518
0.0927289 0.2714416 0.9006005
0.0927504 0.2746273 0.8991561
0.0928404 0.2752248 0.8989690
0.0929513 0.2702534 0.9012371
0.0930025 0.2706948 0.9010507
0.0930538 0.2721785 0.9003461
0.0931169 0.2686010 0.9020657
0.0931522 0.2690237 0.9018785
0.0931025 0.2726283 0.9001475
0.0931960 0.2694577 0.9017015
0.0931521 0.2731118 0.8999519
0.0931916 0.2735970 0.8997484
0.0932517 0.2741111 0.8995466
0.0933165 0.2746673 0.8993494
0.0933599 0.2715406 0.9007485
0.0933936 0.2752617 0.8991632
0.0934758 0.2758688 0.8989779
0.0935852 0.2703485 0.9013526
0.0936262 0.2707903 0.9011643
0.0937708 0.2686751 0.9021523
0.0937898 0.2691064 0.9019657
0.0937551 0.2731845 0.9001278
0.0938229 0.2695481 0.9017863
0.0937876 0.2736577 0.8999295
0.0938406 0.2741591 0.8997410
0.0938960 0.2747027 0.8995482
0.0939762 0.2716215 0.9008860
0.0939641 0.2752905 0.8993631
0.0940181 0.2720789 0.9006853
0.0940354 0.2758945 0.8991777
0.0940620 0.2725545 0.9004884
0.0941055 0.2765094 0.8990108
0.0942134 0.2704411 0.9014737
0.0941719 0.2771272 0.8988569
0.0942483 0.2708849 0.9012836
0.0944477 0.2696403 0.9018844
0.0946099 0.2683552 0.9024503
0.0946518 0.2688009 0.9022647
0.0946313 0.2721574 0.9008402
0.0946713 0.2726308 0.9006424
0.0947119 0.2731315 0.9004584
0.0947753 0.2736655 0.9002573
0.0948418 0.2705186 0.9015924
0.0948729 0.2709704 0.9014003
0.0948439 0.2742458 0.9000530
0.0949100 0.2714448 0.9012188
0.0949179 0.2748600 0.8998518
0.0949875 0.2754770 0.8996687
0.0950738 0.2697278 0.9019838
0.0950608 0.2760987 0.8994780
0.0951237 0.2767041 0.8993159
0.0951898 0.2773141 0.8991564
0.0952375 0.2684225 0.9025121
0.0952273 0.2717505 0.9011820
0.0952757 0.2688829 0.9023412
0.0952481 0.2779223 0.8990096
0.0952605 0.2722201 0.9009854
0.0952935 0.2726975 0.9007969
0.0953024 0.2785207 0.8988764
0.0953259 0.2731954 0.9006147
0.0953784 0.2737101 0.9004235
0.0954377 0.2742824 0.9002209
0.0954871 0.2705768 0.9016953
0.0955095 0.2710407 0.9015088
0.0954993 0.2748867 0.9000304
0.0955617 0.2754990 0.8998448
0.0956262 0.2761201 0.8996609
0.0956844 0.2767308 0.8994917
0.0957161 0.2697931 0.9020614
0.0957421 0.2773462 0.8993328
0.0957937 0.2779579 0.8991804
0.0958415 0.2785596 0.8990407
0.0958598 0.2717958 0.9013053
0.0958802 0.2684736 0.9025595
0.0958842 0.2791605 0.8989135
0.0959105 0.2689490 0.9023997
0.0958852 0.2722726 0.9011129
0.0959108 0.2727512 0.9009327
0.0959392 0.2732525 0.9007634
0.0959829 0.2737491 0.9005809
0.0960381 0.2743158 0.9003835
0.0960940 0.2749124 0.9002006
0.0961342 0.2706305 0.9017989
0.0961475 0.2711062 0.9016194
0.0961522 0.2755226 0.9000189
0.0962114 0.2761422 0.8998392
0.0962642 0.2767581 0.8996760
0.0963164 0.2773747 0.8995160
0.0963588 0.2698491 0.9021389
0.0963626 0.2779887 0.8993632
0.0964044 0.2785962 0.8992235
0.0964455 0.2791997 0.8990895
0.0965157 0.2685267 0.9026174
0.0965034 0.2723191 0.9012563
0.0965377 0.2690120 0.9024572
0.0965266 0.2727975 0.9010772
0.0965551 0.2733055 0.9009142
0.0965874 0.2737894 0.9007533
0.0966403 0.2743486 0.9005582
0.0966936 0.2749331 0.9003721
0.0967478 0.2755425 0.9001947
0.0968024 0.2716528 0.9015482
0.0968032 0.2761590 0.9000130
0.0968522 0.2767793 0.8998498
0.0968988 0.2773963 0.8996871
0.0969405 0.2780122 0.8995310
0.0969784 0.2786232 0.8993856
0.0970048 0.2698956 0.9022041
0.0970203 0.2703792 0.9020337
0.0970152 0.2792307 0.8992469
0.0970448 0.2708802 0.9018717
0.0971596 0.2685677 0.9026579
0.0971776 0.2690658 0.9025074
0.0971998 0.2738209 0.9008873
0.0972502 0.2743795 0.9007065
0.0973002 0.2749576 0.9005263
0.0973529 0.2755636 0.9003504
0.0974054 0.2761785 0.9001717
0.0974347 0.2716988 0.9016441
0.0974512 0.2721990 0.9014762
0.0974544 0.2768028 0.9000098
0.0974849 0.2727231 0.9013137
0.0975251 0.2732721 0.9011459
0.0976053 0.2792645 0.8994019
0.0976491 0.2699330 0.9022705
0.0976583 0.2704314 0.9021124
0.0976789 0.2709412 0.9019538
0.0978002 0.2685990 0.9026917
0.0978428 0.2775606 0.8998976
0.0978700 0.2781544 0.8997466
0.0978950 0.2787426 0.8996049
0.0980623 0.2768284 0.9001632
0.0982094 0.2792989 0.8995555
0.0984405 0.2775799 0.9000521
0.0984656 0.2781761 0.8998996
0.0984874 0.2787661 0.8997544
0.0987593 0.2781009 0.8999940
0.0987920 0.2787199 0.8998436
0.0988193 0.2793337 0.8997004
0.0990125 0.2769884 0.9003545
0.0990415 0.2775974 0.9001926
0.0993847 0.2781342 0.9001303
0.0994150 0.2787546 0.8999793
0.0994403 0.2793680 0.8998322
0.0996196 0.2770049 0.9004846
0.0996466 0.2776160 0.9003237
0.1015684 0.2794651 0.9002067
0.1107165 0.2682757 0.9023812
0.1107203 0.2689183 0.9023838
0.1107229 0.2695656 0.9023784
0.1107374 0.2743302 0.9019947
0.1107385 0.2706024 0.9023364
0.1107401 0.2712361 0.9023069
0.1107422 0.2748936 0.9018993
0.1107410 0.2737356 0.9020769
0.1107444 0.2754570 0.9018000
0.1107419 0.2718702 0.9022649
0.1107419 0.2731210 0.9021505
0.1107472 0.2760160 0.9016908
0.1107432 0.2724995 0.9022135
0.1107488 0.2765644 0.9015723
0.1095091 0.2765586 0.9015723
0.1095302 0.2727460 0.9022236
0.1095475 0.2733203 0.9021474
0.1100761 0.2682695 0.9024066
0.1100791 0.2689127 0.9024091
0.1100909 0.2699548 0.9023826
0.1100928 0.2705918 0.9023637
0.1100951 0.2712255 0.9023341
0.1100974 0.2718592 0.9022916
0.1101013 0.2743270 0.9020068
0.1101010 0.2737285 0.9020934
0.1101080 0.2748925 0.9019074
0.1101121 0.2754560 0.9018047
0.1101161 0.2760142 0.9016925
0.1101211 0.2765633 0.9015733
0.1101490 0.2727703 0.9022108
0.1101578 0.2733449 0.9021425
0.1003097 0.2728070 0.9017901
0.1003835 0.2686397 0.9027647
0.1003912 0.2692230 0.9026660
0.1004058 0.2697913 0.9025421
0.1004518 0.2679533 0.9028389
0.1006594 0.2739851 0.9015156
0.1007064 0.2745874 0.9013573
0.1007553 0.2752027 0.9011961
0.1008639 0.2711099 0.9022803
0.1008644 0.2705341 0.9024098
0.1008727 0.2716742 0.9021439
0.1008978 0.2722492 0.9020057
0.1009343 0.2728374 0.9018664
0.1009824 0.2734468 0.9017132
0.1010384 0.2692337 0.9026838
0.1010509 0.2698170 0.9025641
0.1010890 0.2680001 0.9028302
0.1011312 0.2759162 0.9010695
0.1011523 0.2765116 0.9009098
0.1011359 0.2685580 0.9027610
0.1015167 0.2716883 0.9021985
0.1015350 0.2722708 0.9020666
0.1015649 0.2728614 0.9019346
0.1016043 0.2734673 0.9017883
0.1016419 0.2740831 0.9016373
0.1016818 0.2747052 0.9014808
0.1016966 0.2698358 0.9025808
0.1017153 0.2753149 0.9013247
0.1017150 0.2704333 0.9024805
0.1017461 0.2759222 0.9011675
0.1017229 0.2680452 0.9028019
0.1017469 0.2710301 0.9023641
0.1017655 0.2765142 0.9010101
0.1017659 0.2686130 0.9027446
0.1018128 0.2691865 0.9026724
0.1021649 0.2716932 0.9022499
0.1021780 0.2722844 0.9021221
0.1022015 0.2728791 0.9019954
0.1022323 0.2734848 0.9018557
0.1022661 0.2740999 0.9017088
0.1023020 0.2747195 0.9015583
0.1023329 0.2753277 0.9014077
0.1023426 0.2698518 0.9025909
0.1023614 0.2759308 0.9012541
0.1023587 0.2704580 0.9025006
0.1023799 0.2765212 0.9011018
0.1023648 0.2680874 0.9027656
0.1023840 0.2710631 0.9023903
0.1024045 0.2686611 0.9027129
0.1024500 0.2692421 0.9026577
0.1028239 0.2722903 0.9021715
0.1028417 0.2728897 0.9020491
0.1028657 0.2734973 0.9019123
0.1028968 0.2741137 0.9017711
0.1029298 0.2747329 0.9016263
0.1029594 0.2753421 0.9014821
0.1029869 0.2759434 0.9013329
0.1029877 0.2698653 0.9025944
0.1030088 0.2765324 0.9011826
0.1030006 0.2704801 0.9025193
0.1030023 0.2681295 0.9027397
0.1030208 0.2710921 0.9024172
0.1030479 0.2717081 0.9023047
0.1030393 0.2687104 0.9026931
0.1030802 0.2692974 0.9026431
0.1035049 0.2735082 0.9019670
0.1035312 0.2741271 0.9018302
0.1035593 0.2747469 0.9016911
0.1035872 0.2753565 0.9015466
0.1036130 0.2759566 0.9013996
0.1036358 0.2765446 0.9012520
0.1036366 0.2698718 0.9025884
0.1036452 0.2704934 0.9025196
0.1036391 0.2681743 0.9027241
0.1036594 0.2711136 0.9024348
0.1036785 0.2717340 0.9023222
0.1036723 0.2687607 0.9026770
0.1037107 0.2723568 0.9022095
0.1037089 0.2693526 0.9026243
0.1037475 0.2729742 0.9020842
0.1041461 0.2735179 0.9020165
0.1041684 0.2741397 0.9018843
0.1041930 0.2747602 0.9017462
0.1042193 0.2753720 0.9016038
0.1042435 0.2759729 0.9014594
0.1042649 0.2765610 0.9013138
0.1042687 0.2682172 0.9026923
0.1042831 0.2698780 0.9025826
0.1042895 0.2705050 0.9025231
0.1043006 0.2711299 0.9024455
0.1042996 0.2688032 0.9026702
0.1043153 0.2717557 0.9023491
0.1043405 0.2723815 0.9022442
0.1043324 0.2694003 0.9026140
0.1043728 0.2729992 0.9021265
0.1048542 0.2753865 0.9016530
0.1048772 0.2759888 0.9015111
0.1048976 0.2765773 0.9013675
0.1049037 0.2682563 0.9026581
0.1049299 0.2698838 0.9025685
0.1049350 0.2705153 0.9025167
0.1049438 0.2711444 0.9024497
0.1049352 0.2688489 0.9026418
0.1049562 0.2717731 0.9023657
0.1049768 0.2724002 0.9022721
0.1049668 0.2694509 0.9026091
0.1050030 0.2730189 0.9021597
0.1050340 0.2736357 0.9020393
0.1050678 0.2742365 0.9019181
0.1050911 0.2748213 0.9017915
0.1053744 0.2789973 0.9007830
0.1055450 0.2771756 0.9012693
0.1055528 0.2777512 0.9011189
0.1055572 0.2783229 0.9009709
0.1055458 0.2682978 0.9026228
0.1055763 0.2698903 0.9025530
0.1055748 0.2688981 0.9026127
0.1055809 0.2705250 0.9025086
0.1055876 0.2711570 0.9024494
0.1055967 0.2717877 0.9023734
0.1056126 0.2724155 0.9022866
0.1056025 0.2695047 0.9025887
0.1056315 0.2730369 0.9021858
0.1056566 0.2736534 0.9020714
0.1056875 0.2742525 0.9019519
0.1057105 0.2748310 0.9018268
0.1057280 0.2754044 0.9017003
0.1057446 0.2759769 0.9015695
0.1057584 0.2765397 0.9014360
0.1059856 0.2778488 0.9011277
0.1060043 0.2784366 0.9009771
0.1060180 0.2790149 0.9008256
0.1061504 0.2760172 0.9015906
0.1061669 0.2766071 0.9014508
0.1061812 0.2771880 0.9013080
0.1062060 0.2679800 0.9025706
0.1062121 0.2686174 0.9025739
0.1062171 0.2692566 0.9025615
0.1062211 0.2698966 0.9025346
0.1062256 0.2705331 0.9024965
0.1062318 0.2711663 0.9024439
0.1062394 0.2717980 0.9023750
0.1062507 0.2724267 0.9022946
0.1062647 0.2730496 0.9022025
0.1062843 0.2736665 0.9020954
0.1063107 0.2742660 0.9019764
0.1063318 0.2748426 0.9018598
0.1063511 0.2754116 0.9017339
0.1066299 0.2778661 0.9011612
0.1066490 0.2784520 0.9010108
0.1066637 0.2790288 0.9008603
0.1067916 0.2760288 0.9016195
0.1068069 0.2766190 0.9014824
0.1068212 0.2771996 0.9013414
0.1068481 0.2679882 0.9025404
0.1068546 0.2686251 0.9025447
0.1068598 0.2692636 0.9025363
0.1068642 0.2699037 0.9025141
0.1068690 0.2705412 0.9024813
0.1068743 0.2711761 0.9024344
0.1068814 0.2718091 0.9023707
0.1068899 0.2724385 0.9022961
0.1069014 0.2730618 0.9022094
0.1069173 0.2736795 0.9021097
0.1069426 0.2742784 0.9019996
0.1069636 0.2748525 0.9018828
0.1069822 0.2754190 0.9017606
0.1073088 0.2790436 0.9008896
0.1074588 0.2772113 0.9013676
0.1074680 0.2777826 0.9012231
0.1074723 0.2783491 0.9010786
0.1074916 0.2679972 0.9025096
0.1074982 0.2686339 0.9025167
0.1075036 0.2692721 0.9025105
0.1075084 0.2699119 0.9024910
0.1075132 0.2705493 0.9024618
0.1075182 0.2711846 0.9024198
0.1075237 0.2718192 0.9023625
0.1075298 0.2724497 0.9022929
0.1075387 0.2730738 0.9022110
0.1075518 0.2736924 0.9021181
0.1075721 0.2742926 0.9020111
0.1075891 0.2748654 0.9019006
0.1076042 0.2754315 0.9017818
0.1076176 0.2759948 0.9016552
0.1076361 0.2765514 0.9015285
0.1079551 0.2790566 0.9009132
0.1080968 0.2772207 0.9013873
0.1081042 0.2777918 0.9012444
0.1081068 0.2783573 0.9011009
0.1081350 0.2680052 0.9024817
0.1081416 0.2686430 0.9024878
0.1081470 0.2692813 0.9024827
0.1081517 0.2699210 0.9024656
0.1081566 0.2705583 0.9024406
0.1081613 0.2711936 0.9024027
0.1081663 0.2718286 0.9023498
0.1081712 0.2724597 0.9022846
0.1081774 0.2730842 0.9022071
0.1081869 0.2737024 0.9021185
0.1082025 0.2743034 0.9020179
0.1082159 0.2748738 0.9019094
0.1082287 0.2754390 0.9017974
0.1082403 0.2759999 0.9016749
0.1082556 0.2765547 0.9015503
0.1086033 0.2790661 0.9009309
0.1087395 0.2772270 0.9014004
0.1087459 0.2777973 0.9012599
0.1087483 0.2783622 0.9011187
0.1087814 0.2680120 0.9024498
0.1087875 0.2686528 0.9024566
0.1087920 0.2692917 0.9024529
0.1087963 0.2699315 0.9024385
0.1088009 0.2705685 0.9024174
0.1088053 0.2712034 0.9023827
0.1088100 0.2718382 0.9023337
0.1088136 0.2724695 0.9022722
0.1088185 0.2730935 0.9021986
0.1088259 0.2737112 0.9021139
0.1088376 0.2743125 0.9020184
0.1088508 0.2748818 0.9019126
0.1088620 0.2754461 0.9018039
0.1088729 0.2760056 0.9016857
0.1088885 0.2765580 0.9015646
0.1092514 0.2790739 0.9009466
0.1093792 0.2772323 0.9014101
0.1093826 0.2778016 0.9012716
0.1093836 0.2783654 0.9011320
0.1094375 0.2682669 0.9024334
0.1094420 0.2689114 0.9024386
0.1094424 0.2699442 0.9024129
0.1094460 0.2705802 0.9023924
0.1094492 0.2712140 0.9023605
0.1094532 0.2718484 0.9023146
0.1094631 0.2737197 0.9021056
0.1094685 0.2743207 0.9020137
0.1094791 0.2748879 0.9019122
0.1094875 0.2754512 0.9018066
0.1094959 0.2760090 0.9016918
0.1099033 0.2790786 0.9009571
0.1100205 0.2783656 0.9011408
0.1100219 0.2772334 0.9014160
0.1100224 0.2778022 0.9012792
0.1105536 0.2790782 0.9009664
0.1106606 0.2783632 0.9011482
0.1106630 0.2778004 0.9012846
0.1106645 0.2772314 0.9014192
0.1112025 0.2790758 0.9009759
0.0998140 0.2679086 0.9028591
0.1000074 0.2781667 0.9002481
0.1000083 0.2733941 0.9015787
0.1000406 0.2787881 0.9000974
0.1000427 0.2739668 0.9014204
0.1000673 0.2794010 0.8999493
0.1000896 0.2745680 0.9012569
0.1001361 0.2751821 0.9010909
0.1001761 0.2757979 0.9009265
0.1002125 0.2764138 0.9007629
0.1002219 0.2705325 0.9023604
0.1002276 0.2710953 0.9022237
0.1002408 0.2716482 0.9020855
0.1002441 0.2770236 0.9006017
0.1002707 0.2722178 0.9019363
0.1002711 0.2776349 0.9004433
0.1006934 0.2794371 0.9000636
0.1008673 0.2770452 0.9007153
0.1008960 0.2776549 0.9005569
0.1009195 0.2782591 0.9004034
0.1009362 0.2788533 0.9002531
0.1014926 0.2770684 0.9008167
0.1015205 0.2776757 0.9006602
0.1015437 0.2782775 0.9005056
0.1015587 0.2788715 0.9003557
0.1019709 0.2795079 0.9002619
0.1021214 0.2770951 0.9009113
0.1021477 0.2776991 0.9007549
0.1021690 0.2782983 0.9006004
0.1021823 0.2788912 0.9004490
0.1026090 0.2795449 0.9003431
0.1027810 0.2777233 0.9008355
0.1028034 0.2783199 0.9006817
0.1028187 0.2789101 0.9005298
0.1030283 0.2771193 0.9010312
0.1034552 0.2789315 0.9006052
0.1036556 0.2771292 0.9011026
0.1036640 0.2777170 0.9009496
0.1036710 0.2782942 0.9007990
0.1040546 0.2777760 0.9009805
0.1040769 0.2783685 0.9008246
0.1040935 0.2789540 0.9006729
0.1042845 0.2771455 0.9011658
0.1046955 0.2778012 0.9010367
0.1047174 0.2783936 0.9008867
0.1047336 0.2789758 0.9007319
0.1049155 0.2771605 0.9012213
0.1113573 0.2682823 0.9023579
0.1113611 0.2689248 0.9023594
0.1113640 0.2695711 0.9023532
0.1113644 0.2702142 0.9023394
0.1113713 0.2765656 0.9015685
0.1113707 0.2743361 0.9019826
0.1113729 0.2754611 0.9017939
0.1113739 0.2760199 0.9016873
0.1113730 0.2748980 0.9018907
0.1113788 0.2737453 0.9020624
0.1113832 0.2731323 0.9021338
0.1113872 0.2712497 0.9022856
0.1113868 0.2718854 0.9022461
0.1113871 0.2725128 0.9021955
0.1119905 0.2765709 0.9015666
0.1119991 0.2760246 0.9016830
0.1120008 0.2754647 0.9017867
0.1120033 0.2682884 0.9023373
0.1120042 0.2749015 0.9018808
0.1120077 0.2689315 0.9023366
0.1120045 0.2743404 0.9019691
0.1120110 0.2695781 0.9023303
0.1120124 0.2702214 0.9023156
0.1120156 0.2737523 0.9020459
0.1120230 0.2731397 0.9021149
0.1120295 0.2718939 0.9022236
0.1120295 0.2725208 0.9021744
0.1120319 0.2712575 0.9022622
0.1126224 0.2765744 0.9015624
0.1126359 0.2760273 0.9016789
0.1126385 0.2754662 0.9017801
0.1126428 0.2749027 0.9018712
0.1126437 0.2743423 0.9019552
0.1126490 0.2682940 0.9023187
0.1126535 0.2689377 0.9023157
0.1126569 0.2695847 0.9023077
0.1126590 0.2702285 0.9022933
0.1126589 0.2737573 0.9020284
0.1126621 0.2708756 0.9022702
0.1126653 0.2715211 0.9022382
0.1126680 0.2731456 0.9020950
0.1126761 0.2725280 0.9021529
0.1132660 0.2765769 0.9015593
0.1132811 0.2760318 0.9016735
0.1132839 0.2754697 0.9017720
0.1132890 0.2749062 0.9018607
0.1132903 0.2743461 0.9019412
0.1132943 0.2682992 0.9023043
0.1132986 0.2689434 0.9022973
0.1133019 0.2695906 0.9022876
0.1133044 0.2702350 0.9022721
0.1133074 0.2708822 0.9022499
0.1133080 0.2737648 0.9020128
0.1133105 0.2715278 0.9022156
0.1133170 0.2731532 0.9020789
0.1133251 0.2725359 0.9021352
0.1139191 0.2765843 0.9015594
0.1139350 0.2760417 0.9016721
0.1139376 0.2754785 0.9017673
0.1139398 0.2683039 0.9022929
0.1139417 0.2749137 0.9018534
0.1139439 0.2689486 0.9022824
0.1139424 0.2743522 0.9019313
0.1139469 0.2695963 0.9022709
0.1139494 0.2702413 0.9022543
0.1139526 0.2708887 0.9022318
0.1139557 0.2715342 0.9021919
0.1139603 0.2737733 0.9020008
0.1139687 0.2731612 0.9020646
0.1139763 0.2725437 0.9021195
0.1145611 0.2760507 0.9016773
0.1145865 0.2683081 0.9022857
0.1145905 0.2689532 0.9022715
0.1145934 0.2696013 0.9022585
0.1145962 0.2702471 0.9022412
0.1145978 0.2754897 0.9017686
0.1145995 0.2708951 0.9022187
0.1146010 0.2749232 0.9018523
0.1146007 0.2743592 0.9019264
0.1146024 0.2715415 0.9021799
0.1146154 0.2737802 0.9019940
0.1146218 0.2731656 0.9020552
0.1146276 0.2725465 0.9021087
0.1152123 0.2760525 0.9016855
0.1152232 0.2754353 0.9017834
0.1152335 0.2683117 0.9022797
0.1152365 0.2689580 0.9022648
0.1152390 0.2696065 0.9022489
0.1152405 0.2741582 0.9019501
0.1152418 0.2702531 0.9022307
0.1152447 0.2709017 0.9022079
0.1152466 0.2735078 0.9020192
0.1152476 0.2715491 0.9021713
0.1152488 0.2728550 0.9020769
0.1152509 0.2721950 0.9021269
0.1152697 0.2749379 0.9018517
0.1158648 0.2760573 0.9017003
0.1158734 0.2754386 0.9017956
0.1158805 0.2683147 0.9022785
0.1158827 0.2689617 0.9022619
0.1158848 0.2696104 0.9022437
0.1158867 0.2741616 0.9019560
0.1158873 0.2702579 0.9022252
0.1158899 0.2709071 0.9022028
0.1158911 0.2735125 0.9020213
0.1158923 0.2715557 0.9021683
0.1158930 0.2728606 0.9020766
0.1158955 0.2722028 0.9021250
0.1159452 0.2749572 0.9018675
0.1165179 0.2760640 0.9017243
0.1165242 0.2754432 0.9018148
0.1165296 0.2748096 0.9018951
0.1165288 0.2683173 0.9022808
0.1165309 0.2689643 0.9022628
0.1165345 0.2741653 0.9019681
0.1165329 0.2696132 0.9022428
0.1165352 0.2702612 0.9022243
0.1165376 0.2735170 0.9020301
0.1165375 0.2709111 0.9022026
0.1165394 0.2728653 0.9020827
0.1165395 0.2715606 0.9021710
0.1165422 0.2722089 0.9021292
0.1170298 0.2791131 0.9011882
0.1170356 0.2785191 0.9013090
0.1170449 0.2779105 0.9014278
0.1171729 0.2766733 0.9016632
0.1171760 0.2760721 0.9017556
0.1171784 0.2754491 0.9018430
0.1171747 0.2772644 0.9015498
0.1171765 0.2683191 0.9022872
0.1171805 0.2748135 0.9019207
0.1171780 0.2689655 0.9022681
0.1171795 0.2696140 0.9022470
0.1171828 0.2741674 0.9019894
0.1171813 0.2702618 0.9022289
0.1171837 0.2735183 0.9020478
0.1171830 0.2709116 0.9022085
0.1171845 0.2728659 0.9020972
0.1171845 0.2715613 0.9021802
0.1171871 0.2722098 0.9021408
0.1176700 0.2779250 0.9014820
0.1176687 0.2785377 0.9013653
0.1176704 0.2791353 0.9012485
0.1178234 0.2683200 0.9022981
0.1178246 0.2689658 0.9022783
0.1178256 0.2696139 0.9022574
0.1178291 0.2735189 0.9020737
0.1178299 0.2741690 0.9020199
0.1178306 0.2748179 0.9019559
0.1178270 0.2702613 0.9022391
0.1178293 0.2728659 0.9021190
0.1178282 0.2709110 0.9022204
0.1178326 0.2754567 0.9018828
0.1178293 0.2715608 0.9021957
0.1178315 0.2722099 0.9021593
0.1178357 0.2760845 0.9018010
0.1178400 0.2766915 0.9017099
0.1178456 0.2772886 0.9016158
0.1183035 0.2791600 0.9013213
0.1184745 0.2735185 0.9021072
0.1184760 0.2741701 0.9020584
0.1184743 0.2728651 0.9021478
0.1184707 0.2683208 0.9023134
0.1184716 0.2689659 0.9022930
0.1184722 0.2696135 0.9022727
0.1184781 0.2748223 0.9019994
0.1184733 0.2702606 0.9022545
0.1184739 0.2709103 0.9022379
0.1184743 0.2715602 0.9022174
0.1184760 0.2722100 0.9021843
0.1184824 0.2754649 0.9019312
0.1184888 0.2760982 0.9018542
0.1184981 0.2767122 0.9017681
0.1185078 0.2773142 0.9016786
0.1185199 0.2779022 0.9015679
0.1185313 0.2784863 0.9014678
0.1189306 0.2791909 0.9013968
0.1191154 0.2735138 0.9021382
0.1191170 0.2741671 0.9020949
0.1191160 0.2728611 0.9021752
0.1191205 0.2748238 0.9020421
0.1191182 0.2722071 0.9022080
0.1191179 0.2715576 0.9022392
0.1191188 0.2709084 0.9022567
0.1191269 0.2754715 0.9019798
0.1191194 0.2702595 0.9022726
0.1191190 0.2696133 0.9022917
0.1191182 0.2683215 0.9023333
0.1191186 0.2689658 0.9023127
0.1191369 0.2761110 0.9019094
0.1191517 0.2767336 0.9018300
0.1191681 0.2773407 0.9017407
0.1191853 0.2779349 0.9016468
0.1192044 0.2785216 0.9015455
0.1195372 0.2792288 0.9014830
0.1197473 0.2741607 0.9021454
0.1197474 0.2735054 0.9021845
0.1197502 0.2748222 0.9020994
0.1197507 0.2728536 0.9022193
0.1197575 0.2754763 0.9020441
0.1197556 0.2722011 0.9022468
0.1197584 0.2715530 0.9022703
0.1197698 0.2761243 0.9019803
0.1197613 0.2709046 0.9022841
0.1197634 0.2702568 0.9022979
0.1197645 0.2696116 0.9023150
0.1197651 0.2689654 0.9023365
0.1197654 0.2683224 0.9023565
0.1197917 0.2767580 0.9019052
0.1198166 0.2773757 0.9018231
0.1198433 0.2779788 0.9017398
0.1198710 0.2785732 0.9016475
0.1203719 0.2748177 0.9021653
0.1203710 0.2741513 0.9022049
0.1203780 0.2754774 0.9021163
0.1203741 0.2734944 0.9022405
0.1203813 0.2728435 0.9022709
0.1203896 0.2761340 0.9020603
0.1203901 0.2721933 0.9022945
0.1203969 0.2715471 0.9023102
0.1204019 0.2709001 0.9023201
0.1204165 0.2767789 0.9019874
0.1204059 0.2702531 0.9023336
0.1204088 0.2696093 0.9023469
0.1204109 0.2689647 0.9023651
0.1204117 0.2683235 0.9023862
0.1204461 0.2774078 0.9019128
0.1204772 0.2780218 0.9018337
0.1205102 0.2786234 0.9017462
0.1205412 0.2792180 0.9016598
0.1209922 0.2748088 0.9022423
0.1209944 0.2754754 0.9021988
0.1209955 0.2741376 0.9022823
0.1210020 0.2761417 0.9021481
0.1210032 0.2734780 0.9023082
0.1210146 0.2728287 0.9023305
0.1210304 0.2767968 0.9020738
0.1210275 0.2721809 0.9023492
0.1210376 0.2715376 0.9023585
0.1210445 0.2708926 0.9023634
0.1210615 0.2774359 0.9020027
0.1210502 0.2702475 0.9023715
0.1210545 0.2696055 0.9023832
0.1210572 0.2689632 0.9024011
0.1210576 0.2683229 0.9024233
0.1210942 0.2780604 0.9019293
0.1211296 0.2786712 0.9018485
0.1211652 0.2792717 0.9017662
0.1216600 0.2721624 0.9023988
0.1216760 0.2715236 0.9024025
0.1216966 0.2780993 0.9020342
0.1216858 0.2708820 0.9024061
0.1216939 0.2702400 0.9024139
0.1216999 0.2696007 0.9024258
0.1217033 0.2689609 0.9024413
0.1217032 0.2683219 0.9024645
0.1217347 0.2787208 0.9019614
0.1217738 0.2793283 0.9018832
0.1219640 0.2732440 0.9024117
0.1219770 0.2738823 0.9024022
0.1219986 0.2745093 0.9023861
0.1220192 0.2751317 0.9023617
0.1220454 0.2757445 0.9023339
0.1220696 0.2763493 0.9022992
0.1221028 0.2769449 0.9022406
0.1221368 0.2775380 0.9021845
0.1223294 0.2708691 0.9024588
0.1223393 0.2702319 0.9024638
0.1223459 0.2695958 0.9024731
0.1223484 0.2689576 0.9024889
0.1223482 0.2683207 0.9025109
0.1223711 0.2793839 0.9020001
0.1225777 0.2719511 0.9024855
0.1225918 0.2726038 0.9024842
0.1226033 0.2732460 0.9024804
0.1226118 0.2738820 0.9024743
0.1226270 0.2745128 0.9024629
0.1226423 0.2751404 0.9024467
0.1226646 0.2757611 0.9024235
0.1226855 0.2763747 0.9023915
0.1113003 0.2783612 0.9011545
0.1113034 0.2777988 0.9012887
0.1113069 0.2772298 0.9014208
0.1118538 0.2790754 0.9009844
0.1119325 0.2783640 0.9011590
0.1119391 0.2778003 0.9012913
0.1119469 0.2772305 0.9014210
0.1125029 0.2790744 0.9009939
0.1125696 0.2783664 0.9011647
0.1125782 0.2778010 0.9012950
0.1125886 0.2772304 0.9014222
0.1131499 0.2790718 0.9010059
0.1131695 0.2784938 0.9011416
0.1131941 0.2779034 0.9012767
0.1132323 0.2772278 0.9014255
0.1137978 0.2790710 0.9010196
0.1138174 0.2784911 0.9011523
0.1138425 0.2778992 0.9012850
0.1138820 0.2772282 0.9014307
0.1144454 0.2790739 0.9010386
0.1144633 0.2784916 0.9011695
0.1144870 0.2778972 0.9013012
0.1145347 0.2772312 0.9014420
0.1145473 0.2766484 0.9015719
0.1150932 0.2790785 0.9010630
0.1151094 0.2784939 0.9011942
0.1151305 0.2778954 0.9013225
0.1151894 0.2772350 0.9014536
0.1151994 0.2766506 0.9015824
0.1157390 0.2790867 0.9010990
0.1157532 0.2784985 0.9012248
0.1157708 0.2778960 0.9013524
0.1158479 0.2772430 0.9014755
0.1158545 0.2766560 0.9016018
0.1163836 0.2790973 0.9011408
0.1163952 0.2785060 0.9012657
0.1164107 0.2778996 0.9013888
0.1165066 0.2772532 0.9015076
0.1165097 0.2766637 0.9016293
0.1229612 0.2714883 0.9025193
0.1229757 0.2708551 0.9025155
0.1229868 0.2702229 0.9025191
0.1229932 0.2695908 0.9025253
0.1229940 0.2689547 0.9025430
0.1229931 0.2683206 0.9025646
0.1232307 0.2726021 0.9025557
0.1232429 0.2738753 0.9025575
0.1232385 0.2732418 0.9025585
0.1232518 0.2745083 0.9025497
0.1232620 0.2751401 0.9025404
0.1232777 0.2757707 0.9025238
0.1236063 0.2714668 0.9025865
0.1236221 0.2708393 0.9025779
0.1236333 0.2702128 0.9025801
0.1236390 0.2695853 0.9025844
0.1236379 0.2689516 0.9026039
0.1236353 0.2683210 0.9026236
0.1238738 0.2738627 0.9026421
0.1238677 0.2725967 0.9026300
0.1238727 0.2732324 0.9026393
0.1240548 0.2794930 0.9023795
0.1242825 0.2749438 0.9026969
0.1243091 0.2755167 0.9026968
0.1242697 0.2708217 0.9026472
0.1242800 0.2702017 0.9026478
0.1242749 0.2683215 0.9026898
0.1242834 0.2695791 0.9026510
0.1242798 0.2689484 0.9026698
0.1243402 0.2760775 0.9026955
0.1244967 0.2719458 0.9026956
0.1245045 0.2725870 0.9027087
0.1248233 0.2737653 0.9027749
0.1248576 0.2743749 0.9027791
0.1248945 0.2749594 0.9027882
0.1249188 0.2755368 0.9027924
0.1249433 0.2761043 0.9027961
0.1249186 0.2708019 0.9027240
0.1249260 0.2701894 0.9027239
0.1249119 0.2683229 0.9027630
0.1249194 0.2689453 0.9027426
0.1249268 0.2695726 0.9027255
0.1251338 0.2719369 0.9027751
0.1251403 0.2725718 0.9027926
0.1254422 0.2737657 0.9028647
0.1254665 0.2743741 0.9028756
0.1255008 0.2749628 0.9028842
0.1255225 0.2755431 0.9028909
0.1255408 0.2761171 0.9028989
0.1255660 0.2707795 0.9028088
0.1255460 0.2683235 0.9028438
0.1255557 0.2689433 0.9028235
0.1255696 0.2701744 0.9028086
0.1255653 0.2695647 0.9028077
0.1256531 0.2784464 0.9028316
0.1256860 0.2790251 0.9028007
0.1257791 0.2731689 0.9028987
0.1257718 0.2719240 0.9028616
0.1257788 0.2725516 0.9028801
0.1260098 0.2769076 0.9029711
0.1260482 0.2774159 0.9029551
0.1260894 0.2779319 0.9029477
0.1260747 0.2743662 0.9029715
0.1261025 0.2749582 0.9029849
0.1261187 0.2755441 0.9029950
0.1261337 0.2761252 0.9030010
0.1262288 0.2785023 0.9029459
0.1262582 0.2790938 0.9029157
0.1261731 0.2683285 0.9029337
0.1261899 0.2689417 0.9029084
0.1262035 0.2695564 0.9028925
0.1262170 0.2707543 0.9028940
0.1262142 0.2701580 0.9028934
0.1264232 0.2731364 0.9029932
0.1264109 0.2719066 0.9029529
0.1264207 0.2725257 0.9029733
0.1265670 0.2769502 0.9030714
0.1266020 0.2774674 0.9030640
0.1266433 0.2779891 0.9030575
0.1266849 0.2743505 0.9030684
0.1268049 0.2785542 0.9030715
0.1268308 0.2791568 0.9030411
0.1267985 0.2683311 0.9030331
0.1268174 0.2689415 0.9030086
0.1268346 0.2695505 0.9029919
0.1268546 0.2707406 0.9029915
0.1268496 0.2701464 0.9029896
0.1269930 0.2754514 0.9031500
0.1270241 0.2759821 0.9031661
0.1270608 0.2764849 0.9031678
0.1270720 0.2737226 0.9031078
0.1270504 0.2718911 0.9030459
0.1270635 0.2725053 0.9030655
0.1270709 0.2731080 0.9030874
0.1273209 0.2749302 0.9031864
0.1274012 0.2785959 0.9031923
0.1274163 0.2792117 0.9031643
0.1274176 0.2683344 0.9031416
0.1274423 0.2689397 0.9031110
0.1274599 0.2695448 0.9030926
0.1274933 0.2713156 0.9031023
0.1274772 0.2701357 0.9030899
0.1274869 0.2707248 0.9030936
0.1275956 0.2759903 0.9032609
0.1276271 0.2765024 0.9032672
0.1277044 0.2724830 0.9031724
0.1277225 0.2736974 0.9032110
0.1277171 0.2730829 0.9031922
0.1279447 0.2749116 0.9032921
0.1279720 0.2772893 0.9033207
0.1280104 0.2777521 0.9033302
0.1280532 0.2782181 0.9033300
0.1280106 0.2683482 0.9032563
0.1280365 0.2689487 0.9032280
0.1280583 0.2695476 0.9032067
0.1280814 0.2701314 0.9032037
0.1281035 0.2707103 0.9032045
0.1281192 0.2712967 0.9032140
0.1281854 0.2759917 0.9033606
0.1282146 0.2765113 0.9033684
0.1282444 0.2770361 0.9033752
0.1283123 0.2787204 0.9033646
0.1283399 0.2793100 0.9033574
0.1283465 0.2724547 0.9032773
0.1283649 0.2730535 0.9032966
0.1283746 0.2736691 0.9033180
0.1285534 0.2777843 0.9034254
0.1285718 0.2748891 0.9033939
0.1285959 0.2782538 0.9034377
0.1285948 0.2683715 0.9033866
0.1286313 0.2689605 0.9033500
0.1286595 0.2695532 0.9033184
0.1287640 0.2759835 0.9034566
0.1286912 0.2701287 0.9033146
0.1287913 0.2765105 0.9034657
0.1287277 0.2706964 0.9033119
0.1287527 0.2712779 0.9033212
0.1288177 0.2770460 0.9034742
0.1288705 0.2787632 0.9034680
0.1288922 0.2793594 0.9034565
0.1289825 0.2724377 0.9033898
0.1290035 0.2730398 0.9034070
0.1290190 0.2736551 0.9034275
0.1290514 0.2778242 0.9035092
0.1290976 0.2782912 0.9035209
0.1291974 0.2748723 0.9035007
0.1291580 0.2683915 0.9035164
0.1292040 0.2689715 0.9034771
0.1292352 0.2695584 0.9034521
0.1292702 0.2701313 0.9034430
0.1293603 0.2759640 0.9035545
0.1293788 0.2765016 0.9035621
0.1293094 0.2706929 0.9034358
0.1293419 0.2712727 0.9034415
0.1294473 0.2787938 0.9035710
0.1294637 0.2793910 0.9035608
0.1295723 0.2773387 0.9035923
0.1295947 0.2778271 0.9035994
0.1296331 0.2783138 0.9036105
0.1296131 0.2724148 0.9035110
0.1296380 0.2730179 0.9035268
0.1296570 0.2736388 0.9035458
0.1297073 0.2684137 0.9036553
0.1298366 0.2748530 0.9036069
0.1297557 0.2689929 0.9036177
0.1297955 0.2695704 0.9035883
0.1298327 0.2701377 0.9035727
0.1298721 0.2706964 0.9035617
0.1299837 0.2759427 0.9036577
0.1299905 0.2764941 0.9036634
0.1300043 0.2770493 0.9036713
0.1300309 0.2782112 0.9036832
0.1300464 0.2788162 0.9036813
0.1300557 0.2794198 0.9036726
0.1301827 0.2778363 0.9036986
0.1302093 0.2717884 0.9036240
0.1302320 0.2723967 0.9036359
0.1302608 0.2730028 0.9036551
0.1302518 0.2684410 0.9038010
0.1303031 0.2690219 0.9037533
0.1303395 0.2696029 0.9037185
0.1303767 0.2701681 0.9037027
0.1304771 0.2748333 0.9037224
0.1304703 0.2742158 0.9037117
0.1304237 0.2707185 0.9036896
0.1306132 0.2764837 0.9037675
0.1306205 0.2770452 0.9037720
0.1306183 0.2759201 0.9037665
0.1306281 0.2776345 0.9037785
0.1306377 0.2782237 0.9037827
0.1306492 0.2788365 0.9037821
0.1306510 0.2794460 0.9037756
0.1308145 0.2717821 0.9037544
0.1307622 0.2684831 0.9039405
0.1308457 0.2723875 0.9037598
0.1308839 0.2729933 0.9037759
0.1308198 0.2690547 0.9038957
0.1308610 0.2696368 0.9038543
0.1309070 0.2701982 0.9038348
0.1309722 0.2707347 0.9038219
0.1311114 0.2741941 0.9038240
0.1311186 0.2748176 0.9038279
0.1312292 0.2764757 0.9038626
0.1312365 0.2770388 0.9038656
0.1312437 0.2776361 0.9038731
0.1312394 0.2759044 0.9038686
0.1312514 0.2782337 0.9038791
0.1312580 0.2788517 0.9038798
0.1312574 0.2794698 0.9038751
0.1311810 0.2680056 0.9041580
0.1312482 0.2685343 0.9040989
0.1313192 0.2690939 0.9040541
0.1314014 0.2717774 0.9039078
0.1313608 0.2696870 0.9040001
0.1314402 0.2723815 0.9039059
0.1314882 0.2729860 0.9039089
0.1317555 0.2741664 0.9039486
0.1317637 0.2747973 0.9039473
0.1317732 0.2754355 0.9039515
0.1317893 0.2793598 0.9039637
0.1317866 0.2760810 0.9039567
0.1317929 0.2787078 0.9039632
0.1318669 0.2770263 0.9039700
0.1318699 0.2776348 0.9039739
0.1318732 0.2782438 0.9039778
0.1318950 0.2705729 0.9040914
0.1319384 0.2711662 0.9040715
0.1319842 0.2717789 0.9040497
0.1320254 0.2723868 0.9040383
0.1320755 0.2729957 0.9040286
0.1321886 0.2682291 0.9044741
0.1322579 0.2688057 0.9044075
0.1323952 0.2741435 0.9040879
0.1324051 0.2747830 0.9040791
0.1323190 0.2693973 0.9043389
0.1324163 0.2754287 0.9040740
0.1324326 0.2793599 0.9040649
0.1324300 0.2760809 0.9040719
0.1324354 0.2780511 0.9040567
0.1324358 0.2787081 0.9040645
0.1323717 0.2699830 0.9042988
0.1325040 0.2776227 0.9040797
0.1325112 0.2770026 0.9040826
0.1324285 0.2706002 0.9042402
0.1324782 0.2711841 0.9042235
0.1325329 0.2718016 0.9042042
0.1326797 0.2682966 0.9046413
0.1327569 0.2688654 0.9045665
0.1328260 0.2694451 0.9045032
0.1328842 0.2700278 0.9044657
0.1329499 0.2706389 0.9044009
0.1329974 0.2728375 0.9042800
0.1330106 0.2734839 0.9042551
0.1330234 0.2741296 0.9042373
0.1330386 0.2747774 0.9042215
0.1330532 0.2754302 0.9042050
0.1330675 0.2760880 0.9041956
0.1330719 0.2793572 0.9041575
0.1330743 0.2780534 0.9041606
0.1330751 0.2787069 0.9041599
0.1330110 0.2712174 0.9043825
0.1330852 0.2718356 0.9043604
0.1331447 0.2776092 0.9041861
0.1331606 0.2769786 0.9041976
0.1335935 0.2728259 0.9044404
0.1336180 0.2734763 0.9044095
0.1336456 0.2741238 0.9043774
0.1336667 0.2747812 0.9043599
0.1336867 0.2754408 0.9043363
0.1337029 0.2761010 0.9043177
0.1337091 0.2793549 0.9042537
0.1337127 0.2787078 0.9042596
0.1337103 0.2774074 0.9042747
0.1337093 0.2767559 0.9042929
0.1337119 0.2780584 0.9042659
0.1337906 0.2684788 0.9050322
0.1338671 0.2690836 0.9049446
0.1339301 0.2696982 0.9048680
0.1339893 0.2703082 0.9048080
0.1340427 0.2709205 0.9047493
0.1227148 0.2769808 0.9023457
0.1227466 0.2775827 0.9022952
0.1227836 0.2781768 0.9022445
0.1228215 0.2787642 0.9021837
0.1229614 0.2794430 0.9021232
0.1232925 0.2763957 0.9025070
0.1233175 0.2770174 0.9024673
0.1233482 0.2776302 0.9024172
0.1233833 0.2782354 0.9023715
0.1234221 0.2788307 0.9023167
0.1239763 0.2782884 0.9024940
0.1240145 0.2788932 0.9024407
0.1243736 0.2766448 0.9026740
0.1244021 0.2772216 0.9026443
0.1244400 0.2777710 0.9026243
0.1250697 0.2783861 0.9027142
0.1251082 0.2789525 0.9026815
0.1254411 0.2768560 0.9028686
0.1254799 0.2773590 0.9028424
0.1255206 0.2778699 0.9028308
0.1340913 0.2715466 0.9046999
0.1341388 0.2721813 0.9046468
0.1341795 0.2728245 0.9046061
0.1342201 0.2734779 0.9045622
0.1342551 0.2741305 0.9045249
0.1342851 0.2747946 0.9044935
0.1343315 0.2761234 0.9044311
0.1342789 0.2685480 0.9052156
0.1343550 0.2691441 0.9051316
0.1344310 0.2697409 0.9050518
0.1345021 0.2703442 0.9049833
0.1345619 0.2756942 0.9045159
0.1345657 0.2709495 0.9049259
0.1346300 0.2715709 0.9048720
0.1346901 0.2721963 0.9048192
0.1347468 0.2728419 0.9047722
0.1347675 0.2686313 0.9053887
0.1348002 0.2734992 0.9047270
0.1348450 0.2692165 0.9053149
0.1348604 0.2680419 0.9055597
0.1349254 0.2698064 0.9052487
0.1350055 0.2703999 0.9051751
0.1350850 0.2709937 0.9051053
0.1351638 0.2716150 0.9050446
0.1352020 0.2762987 0.9046163
0.1352265 0.2756724 0.9046600
0.1352418 0.2750480 0.9047103
0.1352350 0.2722354 0.9049882
0.1352540 0.2744173 0.9047648
0.1353025 0.2728793 0.9049314
0.1353550 0.2681151 0.9057400
0.1353649 0.2735455 0.9048830
0.1358551 0.2763009 0.9047616
0.1358603 0.2744187 0.9049448
0.1358661 0.2756740 0.9048147
0.1358666 0.2750488 0.9048786
0.1359311 0.2687865 0.9058335
0.1360091 0.2693944 0.9057492
0.1360846 0.2700068 0.9056684
0.1361595 0.2706220 0.9055777
0.1362207 0.2712482 0.9055017
0.1362874 0.2718865 0.9054064
0.1363422 0.2725229 0.9053289
0.1363910 0.2731657 0.9052552
0.1364280 0.2738061 0.9051837
0.1364590 0.2744392 0.9051056
0.1364791 0.2750680 0.9050371
0.1364890 0.2756939 0.9049756
0.1364926 0.2763179 0.9049112
0.1365173 0.2682556 0.9061878
0.1370004 0.2738449 0.9053558
0.1370434 0.2744783 0.9052793
0.1370995 0.2689393 0.9062787
0.1370747 0.2751069 0.9052091
0.1370988 0.2757288 0.9051370
0.1371148 0.2763490 0.9050672
0.1371733 0.2695560 0.9061786
0.1372419 0.2701805 0.9060840
0.1373036 0.2708116 0.9059894
0.1373603 0.2714485 0.9058938
0.1374092 0.2720841 0.9058005
0.1374485 0.2727157 0.9057013
0.1374786 0.2733342 0.9055995
0.1375684 0.2739025 0.9055344
0.1376201 0.2690117 0.9064718
0.1376706 0.2683870 0.9066219
0.1376220 0.2745339 0.9054543
0.1376938 0.2696225 0.9063748
0.1376658 0.2751606 0.9053731
0.1376996 0.2757797 0.9052956
0.1377650 0.2702371 0.9062792
0.1377289 0.2763959 0.9052172
0.1378301 0.2708587 0.9061854
0.1378022 0.2793557 0.9049419
0.1378927 0.2714878 0.9060901
0.1379538 0.2721195 0.9059944
0.1379595 0.2770572 0.9051984
0.1380057 0.2727504 0.9058979
0.1380045 0.2776605 0.9051374
0.1380466 0.2733729 0.9058010
0.1381769 0.2684555 0.9068226
0.1381987 0.2745990 0.9056253
0.1382517 0.2752234 0.9055370
0.1382983 0.2758382 0.9054502
0.1383633 0.2709170 0.9063798
0.1383352 0.2764485 0.9053692
0.1384304 0.2715377 0.9062797
0.1384984 0.2721657 0.9061804
0.1385601 0.2727925 0.9060793
0.1386126 0.2734161 0.9059793
0.1387043 0.2685236 0.9070193
0.1386560 0.2740306 0.9058807
0.1386220 0.2783125 0.9052182
0.1386622 0.2788992 0.9051721
0.1387704 0.2691392 0.9069098
0.1386933 0.2794973 0.9051180
0.1388368 0.2697584 0.9068008
0.1389027 0.2703808 0.9066915
0.1389240 0.2765130 0.9055361
0.1389654 0.2771181 0.9054435
0.1389966 0.2777288 0.9053711
0.1392285 0.2679528 0.9073454
0.1392272 0.2740884 0.9060602
0.1391955 0.2783854 0.9053504
0.1392731 0.2746978 0.9059598
0.1392392 0.2789635 0.9053035
0.1392759 0.2795502 0.9052483
0.1393138 0.2752994 0.9058517
0.1393461 0.2759020 0.9057547
0.1394972 0.2710597 0.9067813
0.1395576 0.2716840 0.9066701
0.1395037 0.2765877 0.9056975
0.1396170 0.2723046 0.9065603
0.1395510 0.2771875 0.9056024
0.1395892 0.2777910 0.9055251
0.1396696 0.2729196 0.9064492
0.1397571 0.2680246 0.9075281
0.1397099 0.2735135 0.9063434
0.1398207 0.2686419 0.9074252
0.1397929 0.2741573 0.9062497
0.1397604 0.2784561 0.9054912
0.1398857 0.2692604 0.9073198
0.1398477 0.2747673 0.9061436
0.1398067 0.2790271 0.9054413
0.1399509 0.2698823 0.9072125
0.1398946 0.2753705 0.9060444
0.1400115 0.2705114 0.9070989
0.1399353 0.2759706 0.9059436
0.1400785 0.2766639 0.9058585
0.1401618 0.2723557 0.9067570
0.1401299 0.2772586 0.9057624
0.1402206 0.2729708 0.9066462
0.1401751 0.2778548 0.9056798
0.1402704 0.2735719 0.9065411
0.1404171 0.2693249 0.9075038
0.1403584 0.2742322 0.9064342
0.1403146 0.2785229 0.9056278
0.1404775 0.2699420 0.9073968
0.1403601 0.2790899 0.9055781
0.1404182 0.2748424 0.9063277
0.1405358 0.2705628 0.9072860
0.1404718 0.2754444 0.9062250
0.1405936 0.2711852 0.9071725
0.1405204 0.2760435 0.9061218
0.1406479 0.2717934 0.9070644
0.1407169 0.2724128 0.9069476
0.1407769 0.2730276 0.9068329
0.1406988 0.2773344 0.9059231
0.1408364 0.2681453 0.9078856
0.1407475 0.2779254 0.9058379
0.1408344 0.2736314 0.9067218
0.1409016 0.2687597 0.9077875
0.1409729 0.2693864 0.9076862
0.1410263 0.2700019 0.9075795
0.1409049 0.2791576 0.9057229
0.1409895 0.2749198 0.9065008
0.1410810 0.2706184 0.9074694
0.1410451 0.2755208 0.9063957
0.1411342 0.2712354 0.9073580
0.1410976 0.2761192 0.9062929
0.1411900 0.2718424 0.9072470
0.1411482 0.2767153 0.9061856
0.1413717 0.2682155 0.9080655
0.1413392 0.2730943 0.9070247
0.1412630 0.2774082 0.9060858
0.1414283 0.2688299 0.9079674
0.1413124 0.2779958 0.9060005
0.1413960 0.2737012 0.9069092
0.1413581 0.2785846 0.9059261
0.1414518 0.2743005 0.9067949
0.1414524 0.2792251 0.9058811
0.1416403 0.2706766 0.9076589
0.1416931 0.2712920 0.9075474
0.1417493 0.2719019 0.9074350
0.1417216 0.2767922 0.9063665
0.1418069 0.2725068 0.9073221
0.1418215 0.2774840 0.9062665
0.1419780 0.2688910 0.9081348
0.1418693 0.2780685 0.9061888
0.1420335 0.2695027 0.9080351
0.1419155 0.2786518 0.9061198
0.1420878 0.2701126 0.9079260
0.1420231 0.2743740 0.9069764
0.1420776 0.2749709 0.9068630
0.1421311 0.2755665 0.9067535
0.1422200 0.2707360 0.9078388
0.1422659 0.2713510 0.9077282
0.1421823 0.2761651 0.9066479
0.1423161 0.2719621 0.9076155
0.1423925 0.2683368 0.9083502
0.1423693 0.2725680 0.9075029
0.1422908 0.2768668 0.9065419
0.1424266 0.2731681 0.9073903
0.1424831 0.2737607 0.9072768
0.1425540 0.2689422 0.9083024
0.1425994 0.2695576 0.9082062
0.1424746 0.2787188 0.9062842
0.1426483 0.2701713 0.9081076
0.1425950 0.2744487 0.9071635
0.1425180 0.2793050 0.9062051
0.1426493 0.2750490 0.9070473
0.1427034 0.2756467 0.9069360
0.1428083 0.2707938 0.9080263
0.1427568 0.2762461 0.9068271
0.1428474 0.2714114 0.9079154
0.1428907 0.2720260 0.9078027
0.1429413 0.2684031 0.9085040
0.1429402 0.2726350 0.9076873
0.1429017 0.2775394 0.9066265
0.1429940 0.2732389 0.9075733
0.1429520 0.2781376 0.9065351
0.1430498 0.2738374 0.9074610
0.1431379 0.2689923 0.9084720
0.1431745 0.2696123 0.9083785
0.1432171 0.2702288 0.9082798
0.1432199 0.2751269 0.9072344
0.1432720 0.2757278 0.9071222
0.1433244 0.2763299 0.9070148
0.1433769 0.2769326 0.9069098
0.1434980 0.2684698 0.9086479
0.1435215 0.2727015 0.9078707
0.1435682 0.2733108 0.9077564
0.1436202 0.2739155 0.9076447
0.1435529 0.2788135 0.9066344
0.1436757 0.2745138 0.9075333
0.1435972 0.2794206 0.9065480
0.1437691 0.2696622 0.9085452
0.1438033 0.2702841 0.9084482
0.1438411 0.2709005 0.9083475
0.1438859 0.2715139 0.9082438
0.1439363 0.2721190 0.9081388
0.1439409 0.2770132 0.9070978
0.1440360 0.2679063 0.9088830
0.1440715 0.2685251 0.9087932
0.1439911 0.2776219 0.9070008
0.1441174 0.2691344 0.9087143
0.1440405 0.2782372 0.9069075
0.1441504 0.2733763 0.9079364
0.1440995 0.2788842 0.9068228
0.1441967 0.2739866 0.9078242
0.1441461 0.2794871 0.9067364
0.1442484 0.2745922 0.9077150
0.1443031 0.2751951 0.9076080
0.1443604 0.2757995 0.9075031
0.1444750 0.2715712 0.9084124
0.1444175 0.2764071 0.9073995
0.1445190 0.2721840 0.9083108
0.1445730 0.2727899 0.9082086
0.1445014 0.2770870 0.9072927
0.1446471 0.2679353 0.9090297
0.1445526 0.2776950 0.9071931
0.1446725 0.2685618 0.9089601
0.1446005 0.2783094 0.9071043
0.1447114 0.2691795 0.9088560
0.1447534 0.2697945 0.9087799
0.1447343 0.2734338 0.9081204
0.1447987 0.2704029 0.9086993
0.1447742 0.2740507 0.9080094
0.1446851 0.2795534 0.9069265
0.1448518 0.2710087 0.9086163
0.1448221 0.2746631 0.9079009
0.1448750 0.2752715 0.9077938
0.1449307 0.2758792 0.9076898
0.1449881 0.2764882 0.9075892
0.1450725 0.2716246 0.9085832
0.1451097 0.2722442 0.9084842
0.1450583 0.2771557 0.9074832
0.1451583 0.2728584 0.9083839
0.1451066 0.2777651 0.9073879
0.1451562 0.2783777 0.9072970
0.1452575 0.2679696 0.9091589
0.1452815 0.2685972 0.9090986
0.1453079 0.2692240 0.9090292
0.1452037 0.2789930 0.9072121
0.1453432 0.2698454 0.9089402
0.1453874 0.2704604 0.9088466
0.1454342 0.2710745 0.9087697
0.1454445 0.2753423 0.9079818
0.1454961 0.2759560 0.9078810
0.1455509 0.2765690 0.9077827
0.1342655 0.2785594 0.9043462
0.1342666 0.2791795 0.9043356
0.1343404 0.2767747 0.9044007
0.1343464 0.2774240 0.9043801
0.1343493 0.2780713 0.9043725
0.1348537 0.2785811 0.9044450
0.1348594 0.2791882 0.9044333
0.1349603 0.2767991 0.9045204
0.1349732 0.2774477 0.9044923
0.1349807 0.2780887 0.9044830
0.1354410 0.2786018 0.9045481
0.1354556 0.2792030 0.9045344
0.1355762 0.2768348 0.9046504
0.1355943 0.2774773 0.9046178
0.1356072 0.2781104 0.9045921
0.1360313 0.2786290 0.9046497
0.1360548 0.2792229 0.9046303
0.1361861 0.2768777 0.9047882
0.1362118 0.2775092 0.9047386
0.1362265 0.2781375 0.9047078
0.1366193 0.2786595 0.9047533
0.1366525 0.2792452 0.9047296
0.1367846 0.2769275 0.9049310
0.1368201 0.2775487 0.9048649
0.1368431 0.2781644 0.9048219
0.1371455 0.2781481 0.9048917
0.1371938 0.2787209 0.9048633
0.1372323 0.2792993 0.9048386
0.1373782 0.2769925 0.9050671
0.1374188 0.2776034 0.9050088
0.1376963 0.2782150 0.9050050
0.1377524 0.2787839 0.9049795
0.1456771 0.2716706 0.9087515
0.1457061 0.2722980 0.9086569
0.1457457 0.2729202 0.9085586
0.1457947 0.2735366 0.9084605
0.1457477 0.2790606 0.9074101
0.1458519 0.2741522 0.9083629
0.1458781 0.2680010 0.9092876
