# 3D Systems, Inc.
# New Model
0.0619432 0.2617614 0.9048355
0.0619463 0.2623782 0.9048546
0.0619538 0.2629789 0.9048781
0.0619671 0.2635682 0.9049056
0.0620875 0.2652625 0.9050457
0.0620946 0.2646248 0.9050341
0.0621936 0.2676702 0.9051642
0.0621657 0.2600653 0.9049588
0.0621729 0.2594157 0.9049459
0.0621780 0.2587666 0.9049338
0.0621834 0.2581198 0.9049200
0.0625046 0.2651944 0.9053597
0.0625051 0.2645648 0.9053442
0.0625334 0.2601101 0.9052416
0.0625416 0.2594623 0.9052291
0.0625500 0.2588173 0.9052166
0.0625584 0.2581677 0.9052040
0.0625990 0.2669765 0.9054614
0.0626052 0.2663386 0.9054596
0.0627888 0.2570356 0.9053399
0.0627917 0.2564026 0.9053174
0.0627857 0.2576726 0.9053602
0.0628017 0.2545139 0.9052460
0.0628934 0.2607931 0.9055373
0.0628968 0.2601579 0.9055221
0.0628926 0.2620576 0.9055704
0.0628944 0.2614247 0.9055538
0.0628944 0.2626829 0.9055898
0.0631549 0.2577319 0.9056382
0.0631625 0.2570854 0.9056192
0.0631717 0.2564400 0.9055984
0.0632040 0.2545131 0.9055281
0.0633764 0.2554108 0.9056893
0.0633815 0.2560065 0.9057264
0.0634414 0.2655611 0.9060632
0.0634465 0.2649182 0.9060558
0.0634521 0.2642729 0.9060484
0.0634601 0.2636253 0.9060412
0.0635035 0.2597197 0.9059697
0.0635118 0.2590708 0.9059541
0.0635182 0.2584259 0.9059331
0.0635318 0.2673219 0.9061548
0.0635381 0.2666912 0.9061528
0.0637662 0.2560618 0.9060085
0.0637679 0.2554511 0.9059720
0.0638525 0.2642545 0.9063402
0.0638507 0.2636243 0.9063279
0.0638517 0.2617064 0.9062897
0.0638502 0.2629871 0.9063161
0.0638507 0.2623468 0.9063037
0.0638551 0.2610627 0.9062771
0.0639540 0.2672574 0.9064623
0.0639619 0.2666159 0.9064601
0.0641305 0.2579967 0.9063693
0.0641370 0.2573552 0.9063441
0.0641462 0.2567212 0.9063166
0.0641563 0.2560904 0.9062863
0.0641651 0.2554635 0.9062541
0.0641722 0.2548436 0.9062169
0.0643810 0.2671984 0.9067686
0.0643876 0.2665508 0.9067649
0.0643953 0.2659019 0.9067635
0.0644054 0.2652475 0.9067632
0.0644684 0.2606337 0.9067174
0.0644752 0.2599826 0.9067008
0.0644833 0.2593335 0.9066844
0.0648207 0.2665065 0.9070737
0.0648192 0.2658635 0.9070658
0.0648256 0.2671524 0.9070795
0.0648190 0.2652170 0.9070588
0.0648217 0.2645701 0.9070531
0.0648305 0.2632716 0.9070370
0.0648326 0.2626209 0.9070291
0.0650893 0.2589147 0.9071054
0.0650949 0.2582711 0.9070782
0.0650974 0.2576496 0.9070453
0.0651008 0.2570379 0.9070104
0.0651044 0.2564271 0.9069729
0.0651038 0.2558163 0.9069319
0.0651010 0.2552186 0.9068858
0.0650977 0.2546112 0.9068393
0.0652240 0.2626635 0.9073107
0.0652251 0.2633073 0.9073233
0.0652353 0.2645838 0.9073446
0.0652421 0.2652218 0.9073575
0.0652544 0.2658624 0.9073704
0.0652687 0.2664951 0.9073812
0.0652856 0.2671338 0.9073912
0.0653886 0.2641964 0.9074551
0.0654260 0.2621984 0.9074497
0.0654342 0.2615401 0.9074414
0.0654409 0.2608908 0.9074298
0.0654469 0.2602446 0.9074152
0.0654559 0.2595979 0.9073986
0.0655282 0.2545771 0.9071198
0.0658024 0.2641964 0.9077423
0.0658240 0.2609308 0.9077053
0.0658196 0.2615783 0.9077186
0.0658154 0.2622288 0.9077309
0.0658309 0.2602839 0.9076895
0.0658421 0.2596323 0.9076726
0.0659746 0.2545236 0.9074080
0.0660182 0.2556095 0.9075305
0.0660297 0.2562005 0.9075864
0.0660383 0.2567884 0.9076422
0.0660460 0.2573797 0.9076866
0.0660505 0.2579638 0.9077265
0.0660517 0.2591862 0.9077991
0.0660538 0.2585686 0.9077652
0.0662168 0.2629225 0.9080206
0.0662196 0.2635723 0.9080255
0.0662229 0.2642213 0.9080283
0.0662273 0.2648714 0.9080292
0.0662301 0.2655218 0.9080307
0.0662347 0.2661720 0.9080275
0.0662403 0.2668206 0.9080275
0.0662462 0.2674704 0.9080295
0.0664337 0.2592310 0.9080681
0.0664419 0.2586066 0.9080377
0.0664468 0.2579865 0.9080048
0.0664491 0.2573882 0.9079651
0.0664523 0.2567836 0.9079193
0.0664525 0.2561820 0.9078663
0.0664475 0.2555833 0.9078119
0.0666957 0.2661926 0.9083295
0.0667119 0.2668260 0.9083338
0.0667287 0.2674655 0.9083393
0.0668087 0.2605379 0.9083823
0.0668035 0.2611790 0.9083971
0.0667952 0.2624679 0.9084100
0.0667987 0.2618200 0.9084049
0.0668156 0.2598987 0.9083636
0.0668885 0.2561416 0.9081494
0.0668868 0.2549389 0.9080344
0.0668926 0.2555328 0.9080968
0.0668838 0.2543295 0.9079722
0.0671750 0.2662467 0.9086342
0.0672095 0.2631628 0.9086881
0.0672109 0.2638141 0.9086874
0.0671987 0.2668616 0.9086426
0.0672119 0.2644701 0.9086838
0.0672136 0.2651277 0.9086756
0.0672107 0.2657852 0.9086652
0.0672236 0.2674875 0.9086492
0.0673721 0.2595264 0.9087207
0.0673699 0.2589355 0.9086849
0.0673612 0.2571641 0.9085533
0.0673732 0.2583203 0.9086493
0.0673739 0.2577305 0.9086043
0.0673497 0.2554775 0.9083807
0.0673488 0.2548742 0.9083194
0.0676360 0.2632229 0.9089699
0.0676423 0.2638666 0.9089729
0.0676505 0.2645131 0.9089700
0.0676587 0.2651601 0.9089652
0.0676674 0.2658096 0.9089562
0.0677609 0.2626882 0.9090532
0.0677720 0.2614137 0.9090497
0.0677661 0.2620493 0.9090533
0.0678023 0.2565536 0.9087745
0.0678267 0.2553989 0.9086726
0.0678375 0.2547863 0.9086177
0.0681225 0.2652304 0.9092495
0.0681373 0.2658710 0.9092419
0.0681886 0.2614597 0.9093254
0.0681503 0.2665092 0.9092344
0.0681873 0.2620971 0.9093305
0.0681869 0.2627318 0.9093315
0.0681646 0.2671494 0.9092267
0.0682316 0.2576127 0.9091495
0.0682682 0.2581271 0.9092151
0.0682613 0.2565059 0.9090632
0.0682973 0.2586589 0.9092737
0.0683026 0.2592391 0.9093170
0.0683126 0.2597985 0.9093526
0.0683141 0.2603892 0.9093759
0.0683144 0.2609686 0.9093941
0.0683418 0.2546769 0.9089206
0.0686324 0.2634300 0.9096026
0.0686402 0.2640706 0.9095941
0.0686450 0.2647157 0.9095856
0.0686335 0.2665818 0.9095241
0.0686542 0.2672041 0.9095185
0.0687062 0.2575619 0.9094413
0.0687240 0.2581052 0.9095019
0.0687360 0.2604294 0.9096511
0.0687355 0.2610170 0.9096683
0.0687369 0.2598314 0.9096283
0.0687355 0.2592585 0.9095944
0.0687371 0.2586675 0.9095509
0.0687341 0.2564319 0.9093483
0.0687390 0.2558295 0.9092857
0.0688621 0.2545569 0.9092266
0.0691150 0.2654247 0.9098528
0.0691612 0.2616729 0.9099427
0.0691646 0.2610650 0.9099347
0.0691681 0.2604594 0.9099218
0.0691632 0.2622889 0.9099425
0.0691269 0.2660693 0.9098331
0.0691601 0.2629133 0.9099405
0.0691313 0.2666731 0.9098159
0.0691753 0.2580770 0.9097832
0.0691787 0.2586588 0.9098304
0.0691705 0.2575108 0.9097271
0.0691530 0.2672795 0.9098084
0.0692257 0.2563381 0.9096411
0.0692349 0.2557316 0.9095804
0.0693801 0.2544434 0.9095308
0.0696046 0.2623512 0.9102234
0.0696074 0.2629754 0.9102186
0.0696123 0.2636061 0.9102095
0.0695988 0.2655047 0.9101348
0.0696190 0.2642429 0.9101949
0.0696398 0.2580319 0.9100691
0.0696243 0.2648802 0.9101755
0.0696127 0.2661376 0.9101181
0.0696429 0.2574471 0.9100130
0.0696614 0.2595691 0.9101947
0.0696795 0.2601069 0.9102288
0.0696318 0.2667730 0.9101017
0.0696591 0.2673639 0.9100917
0.0697371 0.2562327 0.9099412
0.0697493 0.2556246 0.9098813
0.0698873 0.2543339 0.9098253
0.0700626 0.2624171 0.9105010
0.0700656 0.2630486 0.9104959
0.0700742 0.2636764 0.9104822
0.0700977 0.2590170 0.9104246
0.0700836 0.2643058 0.9104639
0.0701110 0.2595734 0.9104702
0.0701193 0.2601306 0.9105016
0.0701177 0.2607032 0.9105224
0.0701192 0.2612777 0.9105380
0.0700931 0.2649349 0.9104427
0.0701259 0.2618576 0.9105396
0.0700902 0.2656018 0.9104132
0.0701180 0.2579792 0.9103541
0.0701245 0.2573805 0.9103000
0.0701096 0.2662263 0.9103942
0.0702644 0.2555131 0.9101822
0.0705673 0.2607358 0.9107957
0.0705606 0.2589999 0.9107063
0.0705710 0.2601490 0.9107736
0.0705523 0.2637614 0.9107578
0.0705708 0.2613255 0.9108071
0.0705684 0.2595734 0.9107495
0.0705754 0.2619133 0.9108101
0.0705649 0.2643892 0.9107397
0.0705789 0.2650154 0.9107202
0.0706148 0.2579038 0.9106477
0.0706283 0.2572920 0.9105962
0.0706127 0.2663319 0.9106721
0.0706412 0.2566866 0.9105393
0.0706324 0.2669399 0.9106517
0.0706534 0.2675491 0.9106316
0.0707791 0.2553915 0.9104822
0.0707866 0.2547896 0.9104240
0.0710359 0.2613728 0.9110868
0.0710337 0.2607642 0.9110795
0.0710408 0.2601578 0.9110604
0.0710410 0.2619779 0.9110872
0.0710457 0.2595620 0.9110340
0.0710466 0.2625851 0.9110846
0.0710460 0.2589675 0.9109966
0.0710520 0.2631963 0.9110705
0.0710550 0.2644874 0.9110176
0.0710689 0.2651139 0.9109969
0.0710863 0.2657403 0.9109723
0.0711247 0.2664436 0.9109512
0.0711464 0.2670409 0.9109280
0.0711574 0.2565746 0.9108407
0.0711665 0.2676363 0.9109100
0.0712894 0.2552752 0.9107806
0.0712885 0.2546840 0.9107192
0.0715177 0.2601479 0.9113474
0.0715188 0.2626634 0.9113576
0.0715253 0.2595269 0.9113231
0.0715287 0.2632809 0.9113402
0.0715360 0.2589162 0.9112851
0.0715401 0.2638957 0.9113202
0.0715416 0.2583169 0.9112433
0.0715446 0.2577286 0.9111924
0.0715898 0.2658393 0.9112468
0.0716482 0.2671394 0.9111976
0.0716724 0.2564623 0.9111433
0.0716712 0.2677217 0.9111760
0.0717708 0.2545978 0.9110085
0.0719988 0.2610143 0.9116469
0.0720015 0.2615734 0.9116555
0.0720082 0.2621536 0.9116528
0.0720432 0.2646056 0.9115716
0.0720589 0.2652282 0.9115412
0.0720955 0.2659424 0.9115139
0.0721178 0.2665562 0.9114835
0.0721900 0.2557450 0.9113856
0.0724666 0.2598811 0.9118995
0.0724714 0.2604536 0.9119138
0.0724657 0.2593064 0.9118647
0.0724634 0.2587327 0.9118237
0.0724598 0.2581678 0.9117772
0.0724946 0.2628033 0.9119087
0.0725053 0.2634003 0.9118913
0.0725163 0.2640015 0.9118677
0.0725480 0.2647029 0.9118421
0.0725662 0.2653259 0.9118120
0.0725855 0.2569227 0.9117440
0.0726550 0.2672688 0.9117204
0.0726898 0.2550360 0.9116231
0.0727036 0.2544306 0.9115722
0.0729856 0.2580751 0.9120862
0.0730816 0.2574227 0.9120929
0.0730954 0.2660478 0.9120466
0.0730965 0.2568057 0.9120474
0.0731135 0.2561945 0.9119969
0.0731187 0.2666733 0.9120099
0.0731709 0.2673650 0.9119886
0.0731633 0.2549500 0.9119058
0.0731720 0.2543545 0.9118552
0.0736203 0.2548755 0.9121927
0.0736223 0.2542933 0.9121420
0.0531465 0.2679026 0.8982885
0.0536288 0.2685931 0.8985582
0.0536279 0.2704928 0.8983179
0.0536666 0.2691854 0.8985209
0.0536747 0.2710989 0.8982641
0.0537100 0.2697688 0.8984763
0.0540539 0.2686915 0.8988450
0.0540908 0.2693066 0.8988072
0.0540825 0.2712371 0.8985384
0.0541424 0.2681085 0.8989630
0.0541327 0.2699091 0.8987640
0.0540899 0.2736935 0.8982112
0.0541290 0.2718417 0.8984865
0.0541752 0.2724370 0.8984370
0.0545043 0.2694159 0.8990872
0.0545466 0.2700388 0.8990440
0.0545181 0.2719844 0.8987589
0.0545775 0.2682075 0.8992708
0.0545934 0.2706443 0.8989960
0.0545660 0.2725774 0.8987087
0.0546153 0.2731629 0.8986612
0.0548643 0.2806845 0.8984575
0.0548665 0.2800543 0.8984464
0.0550011 0.2682891 0.8995672
0.0550348 0.2688919 0.8995373
0.0549919 0.2732886 0.8989340
0.0550369 0.2713919 0.8992316
0.0550366 0.2738700 0.8988890
0.0550798 0.2744572 0.8988497
0.0551204 0.2750504 0.8988177
0.0551574 0.2756547 0.8987874
0.0551906 0.2762672 0.8987586
0.0552164 0.2768837 0.8987386
0.0552369 0.2775042 0.8987262
0.0552534 0.2781262 0.8987157
0.0552661 0.2787532 0.8987075
0.0552733 0.2793727 0.8987121
0.0553543 0.2734140 0.8991986
0.0553988 0.2739827 0.8991588
0.0554714 0.2696079 0.8997940
0.0554705 0.2721435 0.8994597
0.0554464 0.2745535 0.8991217
0.0555148 0.2702118 0.8997550
0.0555185 0.2727415 0.8994133
0.0554898 0.2751295 0.8990853
0.0555605 0.2708088 0.8997158
0.0555266 0.2757128 0.8990571
0.0555590 0.2763023 0.8990331
0.0555918 0.2768910 0.8990174
0.0556176 0.2774947 0.8990028
0.0556393 0.2781063 0.8989870
0.0556603 0.2787209 0.8989781
0.0556770 0.2793292 0.8989790
0.0558418 0.2722872 0.8997291
0.0558551 0.2810811 0.8990716
0.0558528 0.2804469 0.8990761
0.0558474 0.2752110 0.8993575
0.0558889 0.2728790 0.8996846
0.0559513 0.2679410 0.9003017
0.0559793 0.2685229 0.9002823
0.0558847 0.2757740 0.8993249
0.0560156 0.2691017 0.9002607
0.0559983 0.2715598 0.8999518
0.0562630 0.2803832 0.8993550
0.0562717 0.2810258 0.8993520
0.0562936 0.2735980 0.8999163
0.0563741 0.2717078 0.9002322
0.0563423 0.2741765 0.8998764
0.0564420 0.2698092 0.9005242
0.0563904 0.2747637 0.8998385
0.0564841 0.2704003 0.9004908
0.0565344 0.2709891 0.9004521
0.0565123 0.2765729 0.8997406
0.0565443 0.2771939 0.8997147
0.0565729 0.2778137 0.8996932
0.0566017 0.2784376 0.8996752
0.0566257 0.2790676 0.8996566
0.0566471 0.2796971 0.8996431
0.0567844 0.2724648 0.9004671
0.0568258 0.2699238 0.9008072
0.0567877 0.2754277 0.9000814
0.0568657 0.2705371 0.9007758
0.0568326 0.2730660 0.9004234
0.0568311 0.2760117 0.9000526
0.0569231 0.2681989 0.9010298
0.0569105 0.2711423 0.9007413
0.0569526 0.2687623 0.9010125
0.0569892 0.2693234 0.9009934
0.0571303 0.2755025 0.9003521
0.0571770 0.2760661 0.9003253
0.0572348 0.2737972 0.9006548
0.0572771 0.2712868 0.9010224
0.0573192 0.2682569 0.9013275
0.0572484 0.2807439 0.9000149
0.0573449 0.2688500 0.9013130
0.0572837 0.2743909 0.9006176
0.0573256 0.2719025 0.9009812
0.0573764 0.2694392 0.9012950
0.0573307 0.2749939 0.9005798
0.0574595 0.2768594 0.9004686
0.0574977 0.2774937 0.9004365
0.0575316 0.2781298 0.9004082
0.0575761 0.2739199 0.9009257
0.0575630 0.2787695 0.9003795
0.0575917 0.2794094 0.9003527
0.0576176 0.2800513 0.9003287
0.0576260 0.2744998 0.9008905
0.0576744 0.2750820 0.9008520
0.0577460 0.2695400 0.9015863
0.0577275 0.2726638 0.9012174
0.0577824 0.2701474 0.9015633
0.0577780 0.2732733 0.9011797
0.0578248 0.2707478 0.9015331
0.0578035 0.2768767 0.9007479
0.0578457 0.2774911 0.9007193
0.0578858 0.2781136 0.9006917
0.0579250 0.2787417 0.9006631
0.0579635 0.2793697 0.9006394
0.0580016 0.2800116 0.9006145
0.0580704 0.2728000 0.9014858
0.0581187 0.2734038 0.9014486
0.0582573 0.2679621 0.9020756
0.0582288 0.2714986 0.9017833
0.0582783 0.2685298 0.9020737
0.0583054 0.2691001 0.9020633
0.0582306 0.2810616 0.9007029
0.0582784 0.2721124 0.9017489
0.0585032 0.2741251 0.9016813
0.0585809 0.2716278 0.9020614
0.0585502 0.2747186 0.9016440
0.0586281 0.2722511 0.9020242
0.0585997 0.2753164 0.9016083
0.0586201 0.2810266 0.9009909
0.0587092 0.2697820 0.9023419
0.0586507 0.2759245 0.9015722
0.0587477 0.2703726 0.9023199
0.0587007 0.2765344 0.9015375
0.0587880 0.2709709 0.9022980
0.0587468 0.2771579 0.9015020
0.0587910 0.2777894 0.9014656
0.0588346 0.2784252 0.9014301
0.0588772 0.2790636 0.9013940
0.0589195 0.2797071 0.9013558
0.0589718 0.2723784 0.9022981
0.0589609 0.2803572 0.9013170
0.0590130 0.2730020 0.9022606
0.0590696 0.2698687 0.9026259
0.0590606 0.2736190 0.9022234
0.0591025 0.2704901 0.9026050
0.0591419 0.2711048 0.9025809
0.0592046 0.2682618 0.9028166
0.0592283 0.2688167 0.9028203
0.0592576 0.2693762 0.9028133
0.0594553 0.2705889 0.9028855
0.0594398 0.2743448 0.9024557
0.0594910 0.2712221 0.9028612
0.0594899 0.2749499 0.9024180
0.0595315 0.2718505 0.9028314
0.0595829 0.2682728 0.9031175
0.0595413 0.2755647 0.9023823
0.0595991 0.2688628 0.9031152
0.0596240 0.2694523 0.9031075
0.0595925 0.2761855 0.9023455
0.0596441 0.2768116 0.9023062
0.0596941 0.2774483 0.9022652
0.0597597 0.2744549 0.9027157
0.0597427 0.2780898 0.9022221
0.0597930 0.2787332 0.9021762
0.0598076 0.2750429 0.9026813
0.0598385 0.2793780 0.9021334
0.0598608 0.2756426 0.9026486
0.0598838 0.2800251 0.9020861
0.0599158 0.2762450 0.9026162
0.0599345 0.2806751 0.9020329
0.0599658 0.2732166 0.9030422
0.0600163 0.2701265 0.9033829
0.0599705 0.2768477 0.9025822
0.0600124 0.2738409 0.9030077
0.0600252 0.2774652 0.9025449
0.0600772 0.2780976 0.9025039
0.0601336 0.2787306 0.9024651
0.0601879 0.2793690 0.9024255
0.0602432 0.2800172 0.9023780
0.0603089 0.2733203 0.9033218
0.0603081 0.2806763 0.9023268
0.0603493 0.2739409 0.9032840
0.0604795 0.2720829 0.9036001
0.0604972 0.2680212 0.9038479
0.0605149 0.2685849 0.9038518
0.0605350 0.2691476 0.9038524
0.0605249 0.2727066 0.9035720
0.0605659 0.2697241 0.9038479
0.0607188 0.2746488 0.9035130
0.0607595 0.2752698 0.9034684
0.0608305 0.2721889 0.9038824
0.0608095 0.2758947 0.9034295
0.0608706 0.2728214 0.9038509
0.0608642 0.2765043 0.9033948
0.0609196 0.2771283 0.9033559
0.0609885 0.2710009 0.9041121
0.0609764 0.2777583 0.9033138
0.0610294 0.2715990 0.9040969
0.0610351 0.2783939 0.9032699
0.0610963 0.2790382 0.9032190
0.0611555 0.2796825 0.9031657
0.0612141 0.2803312 0.9031088
0.0612748 0.2809845 0.9030497
0.0613019 0.2741745 0.9040621
0.0613478 0.2710897 0.9044008
0.0613828 0.2717100 0.9043796
0.0614248 0.2683384 0.9045683
0.0614403 0.2688966 0.9045677
0.0614633 0.2694570 0.9045705
0.0614913 0.2700250 0.9045722
0.0615279 0.2705896 0.9045696
0.0617296 0.2755052 0.9042611
0.0617786 0.2724326 0.9046425
0.0617784 0.2761342 0.9042205
0.0618078 0.2683157 0.9048607
0.0618150 0.2689029 0.9048643
0.0618200 0.2730627 0.9046160
0.0618338 0.2694949 0.9048608
0.0618293 0.2767650 0.9041764
0.0618576 0.2700903 0.9048576
0.0618638 0.2736974 0.9045882
0.0618892 0.2706802 0.9048514
0.0618835 0.2774007 0.9041304
0.0619401 0.2780407 0.9040804
0.0619997 0.2786830 0.9040273
0.0622569 0.2744181 0.9048319
0.0622889 0.2713620 0.9051345
0.0623016 0.2750576 0.9047959
0.0623248 0.2719737 0.9051187
0.0626745 0.2795840 0.9044309
0.0627150 0.2686599 0.9055517
0.0627308 0.2692328 0.9055559
0.0627296 0.2802188 0.9043584
0.0627531 0.2698116 0.9055589
0.0627704 0.2733191 0.9053602
0.0627836 0.2703862 0.9055654
0.0627835 0.2808419 0.9042825
0.0628160 0.2739544 0.9053362
0.0628212 0.2709713 0.9055646
0.0631136 0.2686206 0.9058514
0.0631139 0.2680140 0.9058512
0.0631250 0.2692200 0.9058526
0.0631389 0.2698265 0.9058538
0.0631625 0.2704298 0.9058522
0.0631923 0.2710364 0.9058488
0.0632232 0.2716368 0.9058426
0.0632591 0.2722418 0.9058353
0.0632594 0.2753200 0.9055503
0.0632988 0.2728716 0.9058245
0.0633078 0.2759669 0.9055119
0.0633582 0.2766157 0.9054688
0.0634109 0.2772675 0.9054204
0.0634668 0.2779193 0.9053633
0.0635230 0.2785652 0.9053030
0.0635239 0.2679563 0.9061513
0.0635796 0.2792027 0.9052340
0.0636130 0.2753758 0.9058313
0.0636344 0.2798345 0.9051597
0.0636576 0.2760183 0.9057912
0.0636696 0.2729532 0.9061050
0.0636871 0.2804493 0.9050825
0.0637139 0.2735883 0.9060859
0.0637051 0.2766601 0.9057483
0.0637602 0.2742286 0.9060670
0.0637406 0.2810541 0.9050006
0.0637591 0.2773032 0.9056991
0.0638104 0.2748769 0.9060422
0.0638136 0.2779485 0.9056458
0.0638734 0.2785901 0.9055855
0.0639355 0.2792290 0.9055194
0.0639459 0.2679006 0.9064626
0.0639970 0.2798615 0.9054490
0.0640013 0.2689640 0.9064978
0.0640098 0.2695712 0.9064973
0.0640247 0.2701884 0.9064980
0.0640480 0.2707893 0.9064976
0.0640561 0.2730177 0.9063939
0.0640606 0.2804854 0.9053733
0.0640825 0.2713797 0.9064978
0.0640916 0.2736581 0.9063700
0.0641155 0.2719673 0.9064975
0.0641277 0.2743010 0.9063467
0.0641232 0.2811003 0.9052914
0.0641572 0.2725658 0.9064962
0.0641697 0.2749463 0.9063177
0.0643649 0.2799032 0.9057295
0.0644308 0.2689248 0.9068005
0.0644349 0.2695482 0.9067981
0.0644356 0.2805372 0.9056548
0.0644440 0.2701779 0.9067977
0.0644645 0.2707957 0.9067945
0.0644887 0.2714091 0.9067944
0.0645161 0.2720203 0.9067882
0.0645083 0.2811629 0.9055737
0.0645506 0.2726360 0.9067826
0.0645814 0.2756429 0.9065567
0.0646276 0.2762864 0.9065177
0.0646762 0.2769303 0.9064743
0.0647297 0.2775717 0.9064239
0.0647882 0.2782139 0.9063653
0.0648449 0.2788469 0.9063054
0.0648663 0.2688759 0.9071031
0.0648744 0.2701544 0.9070947
0.0648672 0.2695120 0.9071011
0.0648698 0.2682365 0.9071045
0.0649040 0.2794742 0.9062354
0.0649271 0.2720531 0.9070797
0.0649525 0.2726833 0.9070716
0.0649858 0.2733183 0.9070574
0.0650234 0.2739559 0.9070415
0.0650640 0.2745938 0.9070204
0.0651066 0.2752373 0.9069956
0.0653151 0.2694837 0.9073978
0.0653204 0.2701324 0.9073952
0.0653130 0.2688378 0.9074039
0.0653286 0.2711555 0.9073817
0.0653135 0.2681899 0.9074085
0.0653438 0.2801437 0.9064355
0.0653565 0.2717575 0.9073838
0.0654108 0.2807613 0.9063564
0.0655377 0.2759203 0.9072400
0.0655837 0.2765602 0.9072008
0.0656339 0.2771987 0.9071549
0.0656847 0.2778305 0.9071050
0.0657407 0.2784543 0.9070455
0.0657368 0.2802062 0.9067140
0.0657686 0.2711479 0.9076760
0.0657969 0.2790707 0.9069827
0.0657919 0.2717662 0.9076776
0.0657860 0.2701070 0.9077054
0.0657750 0.2688047 0.9077156
0.0657804 0.2694564 0.9077099
0.0657737 0.2681521 0.9077189
0.0658075 0.2808328 0.9066368
0.0658231 0.2723896 0.9076805
0.0658528 0.2796841 0.9069092
0.0658575 0.2730132 0.9076751
0.0658973 0.2736407 0.9076717
0.0659357 0.2742760 0.9076611
0.0659402 0.2759575 0.9075218
0.0659804 0.2765967 0.9074816
0.0659814 0.2749042 0.9076468
0.0660242 0.2772348 0.9074378
0.0660304 0.2755269 0.9076260
0.0660758 0.2778689 0.9073845
0.0661302 0.2784994 0.9073221
0.0661870 0.2791225 0.9072580
0.0662474 0.2797410 0.9071853
0.0662299 0.2711384 0.9079742
0.0662507 0.2717713 0.9079762
0.0662778 0.2724033 0.9079793
0.0662558 0.2681198 0.9080309
0.0662658 0.2687703 0.9080324
0.0662695 0.2694262 0.9080290
0.0663068 0.2730352 0.9079757
0.0663370 0.2736699 0.9079699
0.0663691 0.2743074 0.9079581
0.0664074 0.2749400 0.9079364
0.0664468 0.2755670 0.9079120
0.0667183 0.2804266 0.9073900
0.0666929 0.2704617 0.9082790
0.0667054 0.2711112 0.9082783
0.0667219 0.2717558 0.9082784
0.0667412 0.2723963 0.9082789
0.0667620 0.2730369 0.9082738
0.0667849 0.2736790 0.9082632
0.0667863 0.2810320 0.9073051
0.0667481 0.2681067 0.9083458
0.0667676 0.2687502 0.9083490
0.0667836 0.2693988 0.9083514
0.0669076 0.2762349 0.9081650
0.0669485 0.2768680 0.9081256
0.0669910 0.2774968 0.9080809
0.0670396 0.2781218 0.9080275
0.0670912 0.2787351 0.9079671
0.0671440 0.2793401 0.9079014
0.0672035 0.2799405 0.9078288
0.0671861 0.2704318 0.9085936
0.0671960 0.2710839 0.9085898
0.0672095 0.2717330 0.9085853
0.0672234 0.2723805 0.9085783
0.0672860 0.2746460 0.9085354
0.0672522 0.2681195 0.9086541
0.0672787 0.2687496 0.9086623
0.0673350 0.2752562 0.9085280
0.0673041 0.2693817 0.9086707
0.0673824 0.2758647 0.9085128
0.0676894 0.2806228 0.9080334
0.0676821 0.2734045 0.9088320
0.0677150 0.2740366 0.9088315
0.0677032 0.2703974 0.9088972
0.0677110 0.2710471 0.9088948
0.0677197 0.2716961 0.9088916
0.0677506 0.2812097 0.9079499
0.0677287 0.2723444 0.9088870
0.0677510 0.2746593 0.9088256
0.0677878 0.2752773 0.9088170
0.0678248 0.2758946 0.9087981
0.0678609 0.2765191 0.9087721
0.0679047 0.2771379 0.9087375
0.0679462 0.2777486 0.9086970
0.0679947 0.2783563 0.9086489
0.0680471 0.2789497 0.9085920
0.0680980 0.2795430 0.9085292
0.0681211 0.2807089 0.9083153
0.0681501 0.2801219 0.9084582
0.0681652 0.2733928 0.9091282
0.0681912 0.2740287 0.9091274
0.0681776 0.2677917 0.9092216
0.0682179 0.2746605 0.9091195
0.0681902 0.2684337 0.9092181
0.0682002 0.2690783 0.9092143
0.0682461 0.2752881 0.9091067
0.0682123 0.2697204 0.9092121
0.0682219 0.2703640 0.9092064
0.0682783 0.2759167 0.9090821
0.0683100 0.2765479 0.9090520
0.0683474 0.2771736 0.9090175
0.0683866 0.2777911 0.9089786
0.0684316 0.2784050 0.9089268
0.0684802 0.2790099 0.9088718
0.0685311 0.2796139 0.9088064
0.0685859 0.2802051 0.9087347
0.0686157 0.2714422 0.9094195
0.0686305 0.2720878 0.9094188
0.0686478 0.2727305 0.9094207
0.0686644 0.2733737 0.9094182
0.0686796 0.2740142 0.9094134
0.0686957 0.2746521 0.9094044
0.0686745 0.2678304 0.9095149
0.0686952 0.2684535 0.9095112
0.0687120 0.2690807 0.9095073
0.0687329 0.2697062 0.9095071
0.0687506 0.2703301 0.9095081
0.0689227 0.2790737 0.9091541
0.0689750 0.2796839 0.9090877
0.0690318 0.2802874 0.9090148
0.0690881 0.2808832 0.9089342
0.0691449 0.2713995 0.9097143
0.0691527 0.2720474 0.9097137
0.0691645 0.2726892 0.9097141
0.0691997 0.2756221 0.9096519
0.0691752 0.2733327 0.9097125
0.0691866 0.2739745 0.9097073
0.0692352 0.2762372 0.9096369
0.0691795 0.2678898 0.9098038
0.0692051 0.2684929 0.9097996
0.0692716 0.2768462 0.9096175
0.0692255 0.2690994 0.9097957
0.0693109 0.2774429 0.9095911
0.0692529 0.2697054 0.9097956
0.0692801 0.2703081 0.9098010
0.0693528 0.2780387 0.9095538
0.0693947 0.2786309 0.9095081
0.0694847 0.2803754 0.9092964
0.0695427 0.2809811 0.9092122
0.0696352 0.2750242 0.9099305
0.0696632 0.2756371 0.9099215
0.0696920 0.2762586 0.9099095
0.0696788 0.2713560 0.9100064
0.0696866 0.2720006 0.9100053
0.0696973 0.2726383 0.9100049
0.0697055 0.2732800 0.9100032
0.0697139 0.2739229 0.9099992
0.0696878 0.2679562 0.9100851
0.0697589 0.2774796 0.9098616
0.0697156 0.2685405 0.9100809
0.0697975 0.2780858 0.9098216
0.0697368 0.2691280 0.9100760
0.0697616 0.2697179 0.9100792
0.0698388 0.2786865 0.9097800
0.0697914 0.2703003 0.9100851
0.0698858 0.2792774 0.9097303
0.0699365 0.2798757 0.9096741
0.0699530 0.2804664 0.9095809
0.0700083 0.2810779 0.9094970
0.0701334 0.2750094 0.9102101
0.0701556 0.2756330 0.9102029
0.0701793 0.2762623 0.9101895
0.0702014 0.2771395 0.9101450
0.0702342 0.2775093 0.9101407
0.0702644 0.2781307 0.9101042
0.0702136 0.2713137 0.9102965
0.0702241 0.2719502 0.9102954
0.0702327 0.2725833 0.9102947
0.0703031 0.2787426 0.9100608
0.0703458 0.2793482 0.9100094
0.0703944 0.2799540 0.9099470
0.0704838 0.2811738 0.9097831
0.0706670 0.2771697 0.9104069
0.0706303 0.2737081 0.9104993
0.0706421 0.2743435 0.9104995
0.0706553 0.2749763 0.9104953
0.0706716 0.2681661 0.9106158
0.0706884 0.2687860 0.9106025
0.0707034 0.2694096 0.9105922
0.0707203 0.2700301 0.9105861
0.0707356 0.2706519 0.9105818
0.0707476 0.2712721 0.9105809
0.0707631 0.2718958 0.9105823
0.0708291 0.2794203 0.9102884
0.0708728 0.2800358 0.9102289
0.0709246 0.2806490 0.9101569
0.0711002 0.2760008 0.9107067
0.0711284 0.2766066 0.9106982
0.0711592 0.2771992 0.9106867
0.0711944 0.2777820 0.9106616
0.0711591 0.2730144 0.9107811
0.0711684 0.2736518 0.9107807
0.0711780 0.2742885 0.9107806
0.0711880 0.2749281 0.9107793
0.0712268 0.2783775 0.9106367
0.0711835 0.2682377 0.9108921
0.0712613 0.2789677 0.9105997
0.0712035 0.2688370 0.9108770
0.0712222 0.2694388 0.9108661
0.0712453 0.2700382 0.9108575
0.0712655 0.2706392 0.9108580
0.0714069 0.2807380 0.9104401
0.0716092 0.2759948 0.9109804
0.0716318 0.2766112 0.9109716
0.0716561 0.2772181 0.9109615
0.0716852 0.2778171 0.9109413
0.0717155 0.2784258 0.9109104
0.0717465 0.2790286 0.9108765
0.0716955 0.2723202 0.9110596
0.0717029 0.2729571 0.9110608
0.0717109 0.2735923 0.9110622
0.0716927 0.2716722 0.9110623
0.0717191 0.2742303 0.9110629
0.0716922 0.2683092 0.9111575
0.0717138 0.2688918 0.9111408
0.0717888 0.2796278 0.9108293
0.0717334 0.2694739 0.9111283
0.0717563 0.2700540 0.9111215
0.0718381 0.2802233 0.9107763
0.0717796 0.2706356 0.9111225
0.0721175 0.2753517 0.9112602
0.0721343 0.2759708 0.9112605
0.0721516 0.2765976 0.9112556
0.0722831 0.2796966 0.9111126
0.0722325 0.2716294 0.9113368
0.0722393 0.2722658 0.9113361
0.0722584 0.2741698 0.9113417
0.0722464 0.2728980 0.9113374
0.0722526 0.2735314 0.9113404
0.0723267 0.2803052 0.9110567
0.0723721 0.2809169 0.9109939
0.0726028 0.2775200 0.9114552
0.0726324 0.2780944 0.9114411
0.0726667 0.2786715 0.9114182
0.0726628 0.2753024 0.9115425
0.0727000 0.2792385 0.9113906
0.0726732 0.2759351 0.9115412
0.0726843 0.2765748 0.9115364
0.0726763 0.2678759 0.9116921
0.0726967 0.2684850 0.9116662
0.0727155 0.2690984 0.9116442
0.0727923 0.2797625 0.9113942
0.0727308 0.2697169 0.9116271
0.0727454 0.2703408 0.9116135
0.0728297 0.2803869 0.9113393
0.0727582 0.2709678 0.9116071
0.0727697 0.2715922 0.9116031
0.0727809 0.2722137 0.9116056
0.0727895 0.2728388 0.9116083
0.0728748 0.2810064 0.9112753
0.0731312 0.2775364 0.9117389
0.0731584 0.2781267 0.9117254
0.0731886 0.2787198 0.9117038
0.0732179 0.2793064 0.9116753
0.0732065 0.2752486 0.9118173
0.0732003 0.2746095 0.9118160
0.0731952 0.2739722 0.9118119
0.0731935 0.2679619 0.9119577
0.0732146 0.2685577 0.9119311
0.0733060 0.2798184 0.9116739
0.0732327 0.2691516 0.9119084
0.0732479 0.2697503 0.9118888
0.0733388 0.2804570 0.9116199
0.0732664 0.2703513 0.9118743
0.0732865 0.2709578 0.9118689
0.0733766 0.2810866 0.9115559
0.0733011 0.2715645 0.9118686
0.0733155 0.2721723 0.9118714
0.0736241 0.2763255 0.9120218
0.0736415 0.2769381 0.9120210
0.0736595 0.2775455 0.9120165
0.0736810 0.2781534 0.9120067
0.0737062 0.2787643 0.9119850
0.0737336 0.2793669 0.9119584
0.0737507 0.2751949 0.9120893
0.0737463 0.2745513 0.9120858
0.0737425 0.2739131 0.9120813
0.0737391 0.2732746 0.9120776
0.0737256 0.2686293 0.9121880
0.0737448 0.2692060 0.9121635
0.0737582 0.2697829 0.9121439
0.0737774 0.2703646 0.9121317
0.0738042 0.2709513 0.9121265
0.0738234 0.2715403 0.9121268
0.0738410 0.2721360 0.9121287
0.0543623 0.2852513 0.8983286
0.0543638 0.2845899 0.8983073
0.0543719 0.2859190 0.8983362
0.0543692 0.2839364 0.8982888
0.0543909 0.2865834 0.8983320
0.0543770 0.2832909 0.8982714
0.0544097 0.2872453 0.8983219
0.0543869 0.2826486 0.8982502
0.0544264 0.2879039 0.8983112
0.0544449 0.2885485 0.8982765
0.0544581 0.2891848 0.8982319
0.0544691 0.2898197 0.8981816
0.0548563 0.2819581 0.8984894
0.0548606 0.2813208 0.8984716
0.0550344 0.2892345 0.8984433
0.0550538 0.2898647 0.8983860
0.0550684 0.2904938 0.8983247
0.0553397 0.2862081 0.8987619
0.0553387 0.2868357 0.8987389
0.0553397 0.2874599 0.8987065
0.0553460 0.2855742 0.8987773
0.0553387 0.2880805 0.8986569
0.0553372 0.2887020 0.8986050
0.0553466 0.2849390 0.8987977
0.0553536 0.2843089 0.8988067
0.0553626 0.2836757 0.8988059
0.0553776 0.2830463 0.8988001
0.0553793 0.2916989 0.8982998
0.0553928 0.2923021 0.8982293
0.0555992 0.2892898 0.8986496
0.0556209 0.2899171 0.8985978
0.0556400 0.2905422 0.8985370
0.0556552 0.2911652 0.8984716
0.0558700 0.2855808 0.8990213
0.0558484 0.2823561 0.8990701
0.0558782 0.2862271 0.8990043
0.0558513 0.2817174 0.8990706
0.0558899 0.2868659 0.8989761
0.0559019 0.2874980 0.8989388
0.0559116 0.2881234 0.8988892
0.0559216 0.2887473 0.8988341
0.0559131 0.2917349 0.8985110
0.0559260 0.2941121 0.8982289
0.0559302 0.2923280 0.8984407
0.0559292 0.2935106 0.8983007
0.0559296 0.2929199 0.8983710
0.0561487 0.2893554 0.8988649
0.0561743 0.2899754 0.8988120
0.0561964 0.2905934 0.8987555
0.0562155 0.2912113 0.8986909
0.0562820 0.2816691 0.8993443
0.0562894 0.2823157 0.8993436
0.0563365 0.2852070 0.8992782
0.0563505 0.2846073 0.8993135
0.0563645 0.2840066 0.8993405
0.0563760 0.2856115 0.8992822
0.0563681 0.2833819 0.8993659
0.0564017 0.2862689 0.8992565
0.0564276 0.2869161 0.8992194
0.0564517 0.2875522 0.8991742
0.0564431 0.2935027 0.8985251
0.0564475 0.2929290 0.8985888
0.0564716 0.2881786 0.8991262
0.0564487 0.2923508 0.8986558
0.0564891 0.2888027 0.8990718
0.0567138 0.2900394 0.8990245
0.0567382 0.2906487 0.8989696
0.0567597 0.2912576 0.8989103
0.0567807 0.2918729 0.8988502
0.0568430 0.2845857 0.8995972
0.0568387 0.2833364 0.8996517
0.0568447 0.2852014 0.8995600
0.0568435 0.2839687 0.8996258
0.0568341 0.2943718 0.8986184
0.0570160 0.2882524 0.8993667
0.0570420 0.2888716 0.8993116
0.0570659 0.2894921 0.8992522
0.0572452 0.2901073 0.8992538
0.0572597 0.2813832 0.8999979
0.0572722 0.2820244 0.8999775
0.0572706 0.2907051 0.8991961
0.0572829 0.2826674 0.8999590
0.0572926 0.2913037 0.8991393
0.0573295 0.2845858 0.8998684
0.0573108 0.2919049 0.8990839
0.0573455 0.2852175 0.8998317
0.0573594 0.2858431 0.8997839
0.0573221 0.2925115 0.8990232
0.0573329 0.2931227 0.8989704
0.0573416 0.2937351 0.8989162
0.0573484 0.2943508 0.8988666
0.0573726 0.2864665 0.8997379
0.0573876 0.2870801 0.8996818
0.0574015 0.2876916 0.8996132
0.0575488 0.2883361 0.8996091
0.0575800 0.2889477 0.8995489
0.0576080 0.2895614 0.8994900
0.0577588 0.2901733 0.8994869
0.0577828 0.2907602 0.8994301
0.0578400 0.2842151 0.9001954
0.0578347 0.2836128 0.9002468
0.0578082 0.2913479 0.8993734
0.0578630 0.2859028 0.9000467
0.0578254 0.2919320 0.8993203
0.0578299 0.2925243 0.8992638
0.0578371 0.2931205 0.8992117
0.0578422 0.2943180 0.8991175
0.0578424 0.2937186 0.8991599
0.0578948 0.2865301 0.8999902
0.0579184 0.2871481 0.8999364
0.0579406 0.2877584 0.8998729
0.0580683 0.2884244 0.8998508
0.0581026 0.2890314 0.8997899
0.0581347 0.2896375 0.8997296
0.0582487 0.2816977 0.9006655
0.0582678 0.2823326 0.9006252
0.0582843 0.2829622 0.9005850
0.0583020 0.2835850 0.9005409
0.0583202 0.2842019 0.9004845
0.0583319 0.2848040 0.9004318
0.0583389 0.2854040 0.9003712
0.0583102 0.2913874 0.8996084
0.0583562 0.2859817 0.9003127
0.0583261 0.2919537 0.8995513
0.0583311 0.2936935 0.8994079
0.0583296 0.2925285 0.8994982
0.0583322 0.2931080 0.8994512
0.0583971 0.2866139 0.9002566
0.0584349 0.2872359 0.9001952
0.0584678 0.2878462 0.9001287
0.0585816 0.2885240 0.9000959
0.0586169 0.2891228 0.9000326
0.0586511 0.2816720 0.9009511
0.0586503 0.2897180 0.8999705
0.0586795 0.2823166 0.9009126
0.0587088 0.2829578 0.9008704
0.0586809 0.2903150 0.8999150
0.0587416 0.2835933 0.9008210
0.0587108 0.2909183 0.8998579
0.0587704 0.2842243 0.9007690
0.0587992 0.2848436 0.9007134
0.0588254 0.2854558 0.9006491
0.0587987 0.2946503 0.8995970
0.0588972 0.2867159 0.9005184
0.0589431 0.2873389 0.9004532
0.0589826 0.2879456 0.9003853
0.0591533 0.2898008 0.9002175
0.0591837 0.2903818 0.9001602
0.0592570 0.2849140 0.9009916
0.0592115 0.2909711 0.9001074
0.0592337 0.2915642 0.9000518
0.0592974 0.2855366 0.9009284
0.0592521 0.2921646 0.9000034
0.0592805 0.2946070 0.8998610
0.0592676 0.2927730 0.8999576
0.0592814 0.2939947 0.8998847
0.0592770 0.2933833 0.8999202
0.0593353 0.2861469 0.9008575
0.0594893 0.2880565 0.9006479
0.0595291 0.2886540 0.9005771
0.0595946 0.2813274 0.9016941
0.0595632 0.2892545 0.9005116
0.0596286 0.2819583 0.9016414
0.0596670 0.2825857 0.9015771
0.0597005 0.2832041 0.9015146
0.0596479 0.2898786 0.9004693
0.0597316 0.2838172 0.9014478
0.0596760 0.2904459 0.9004097
0.0597542 0.2844123 0.9013760
0.0597076 0.2910234 0.9003553
0.0597255 0.2915993 0.9003033
0.0597430 0.2921808 0.9002541
0.0597490 0.2945532 0.9001317
0.0597532 0.2927719 0.9002143
0.0597539 0.2939560 0.9001516
0.0597549 0.2933623 0.9001855
0.0598672 0.2868594 0.9010523
0.0599050 0.2874566 0.9009768
0.0599801 0.2813221 0.9019803
0.0600263 0.2819706 0.9019261
0.0599913 0.2881668 0.9009108
0.0600306 0.2887572 0.9008406
0.0601184 0.2832456 0.9018039
0.0600678 0.2893463 0.9007687
0.0601590 0.2838716 0.9017404
0.0601971 0.2844829 0.9016683
0.0601688 0.2905097 0.9006648
0.0602404 0.2850805 0.9015906
0.0601974 0.2910711 0.9006112
0.0602071 0.2916242 0.9005637
0.0602180 0.2921847 0.9005167
0.0602768 0.2856752 0.9015083
0.0603054 0.2862651 0.9014255
0.0603648 0.2813353 0.9022722
0.0603568 0.2869772 0.9013285
0.0604213 0.2820046 0.9022174
0.0604048 0.2875738 0.9012470
0.0605359 0.2833072 0.9020941
0.0605233 0.2888648 0.9011036
0.0605929 0.2839455 0.9020263
0.0605615 0.2894418 0.9010320
0.0606477 0.2828132 0.9022549
0.0606506 0.2845747 0.9019512
0.0605962 0.2900216 0.9009640
0.0607016 0.2851822 0.9018739
0.0607505 0.2857798 0.9017917
0.0607190 0.2943011 0.9006935
0.0607085 0.2930622 0.9007389
0.0607161 0.2936809 0.9007138
0.0607931 0.2863724 0.9017061
0.0608427 0.2871017 0.9015961
0.0608916 0.2876950 0.9015208
0.0609379 0.2882851 0.9014414
0.0610503 0.2828509 0.9025571
0.0610763 0.2901020 0.9012334
0.0611634 0.2853017 0.9021539
0.0611085 0.2906762 0.9011718
0.0611355 0.2912606 0.9011216
0.0612201 0.2859033 0.9020714
0.0611532 0.2918444 0.9010772
0.0611814 0.2942485 0.9009702
0.0611663 0.2924400 0.9010411
0.0611829 0.2936427 0.9009877
0.0611806 0.2930406 0.9010086
0.0612712 0.2864946 0.9019869
0.0613344 0.2816327 0.9029874
0.0613179 0.2872395 0.9018682
0.0613946 0.2822757 0.9029215
0.0613737 0.2878249 0.9017884
0.0614551 0.2829081 0.9028486
0.0614232 0.2884063 0.9017115
0.0615165 0.2835282 0.9027681
0.0614716 0.2889929 0.9016328
0.0615716 0.2841341 0.9026817
0.0615142 0.2895899 0.9015633
0.0616178 0.2847275 0.9025953
0.0615545 0.2901763 0.9015017
0.0615842 0.2907334 0.9014407
0.0616064 0.2912972 0.9013918
0.0616189 0.2918595 0.9013468
0.0616411 0.2941872 0.9012521
0.0616320 0.2924363 0.9013096
0.0616441 0.2935972 0.9012636
0.0616396 0.2930156 0.9012864
0.0617458 0.2866333 0.9022660
0.0617904 0.2873816 0.9021339
0.0618500 0.2879584 0.9020571
0.0619030 0.2885267 0.9019799
0.0619521 0.2891018 0.9019040
0.0619953 0.2896813 0.9018308
0.0620703 0.2848491 0.9028808
0.0621283 0.2854382 0.9027902
0.0621847 0.2860224 0.9026943
0.0622135 0.2867751 0.9025401
0.0623732 0.2825091 0.9036230
0.0624306 0.2831145 0.9035375
0.0623673 0.2886467 0.9022458
0.0624858 0.2837065 0.9034469
0.0624167 0.2892121 0.9021753
0.0624567 0.2897742 0.9021035
0.0625357 0.2842827 0.9033465
0.0624929 0.2903449 0.9020418
0.0625868 0.2855753 0.9030721
0.0625309 0.2909335 0.9019827
0.0625598 0.2915323 0.9019382
0.0625936 0.2945504 0.9018442
0.0625766 0.2921300 0.9019045
0.0626505 0.2861598 0.9029768
0.0626012 0.2939437 0.9018427
0.0625927 0.2927296 0.9018762
0.0626016 0.2933385 0.9018557
0.0626774 0.2869223 0.9028080
0.0627431 0.2874993 0.9027220
0.0628408 0.2814562 0.9042034
0.0628018 0.2880716 0.9026387
0.0628914 0.2820476 0.9041205
0.0629746 0.2844009 0.9036393
0.0629437 0.2904188 0.9023139
0.0630345 0.2849743 0.9035378
0.0630396 0.2857219 0.9033508
0.0629847 0.2909872 0.9022564
0.0630093 0.2915617 0.9022180
0.0630275 0.2921305 0.9021788
0.0630426 0.2927131 0.9021566
0.0631116 0.2863072 0.9032553
0.0632001 0.2876461 0.9029938
0.0632627 0.2882092 0.9029072
0.0633412 0.2826973 0.9043259
0.0634013 0.2832710 0.9042321
0.0633218 0.2887798 0.9028259
0.0634152 0.2845328 0.9039224
0.0634570 0.2838307 0.9041306
0.0633756 0.2893569 0.9027522
0.0634869 0.2851163 0.9038227
0.0634234 0.2899434 0.9026803
0.0634898 0.2858784 0.9036236
0.0635686 0.2864616 0.9035270
0.0635662 0.2943141 0.9024593
0.0635717 0.2936870 0.9024566
0.0636393 0.2870395 0.9034347
0.0637478 0.2827882 0.9046118
0.0637907 0.2816184 0.9049167
0.0638184 0.2833792 0.9045197
0.0638416 0.2821739 0.9048254
0.0637772 0.2889022 0.9031011
0.0638873 0.2839544 0.9044173
0.0638303 0.2894638 0.9030296
0.0639330 0.2852671 0.9041031
0.0638761 0.2900300 0.9029590
0.0639179 0.2906123 0.9028976
0.0639530 0.2912114 0.9028463
0.0639775 0.2918162 0.9028106
0.0640109 0.2942524 0.9027518
0.0639955 0.2924238 0.9027839
0.0640179 0.2936428 0.9027460
0.0640124 0.2930330 0.9027582
0.0640966 0.2871906 0.9037063
0.0641835 0.2816904 0.9052077
0.0642440 0.2822657 0.9051188
0.0641644 0.2877605 0.9036156
0.0642366 0.2834996 0.9047959
0.0642169 0.2890244 0.9033706
0.0642286 0.2883349 0.9035268
0.0643171 0.2840880 0.9046948
0.0642726 0.2895688 0.9032982
0.0643911 0.2846630 0.9045921
0.0643188 0.2901165 0.9032326
0.0643598 0.2906798 0.9031741
0.0643937 0.2912559 0.9031258
0.0644614 0.2860027 0.9042773
0.0644185 0.2918349 0.9030931
0.0644468 0.2941883 0.9030484
0.0644372 0.2924204 0.9030691
0.0644534 0.2935963 0.9030399
0.0644525 0.2930096 0.9030469
0.0645794 0.2817721 0.9054886
0.0645362 0.2865781 0.9041760
0.0645419 0.2873465 0.9039750
0.0646510 0.2823678 0.9053983
0.0646138 0.2879067 0.9038857
0.0647228 0.2829475 0.9053029
0.0646785 0.2884677 0.9037993
0.0647130 0.2896740 0.9035666
0.0647572 0.2902004 0.9035060
0.0647955 0.2907436 0.9034519
0.0649072 0.2853835 0.9047628
0.0648300 0.2912981 0.9034090
0.0649106 0.2861608 0.9045466
0.0648607 0.2918490 0.9033734
0.0648808 0.2924154 0.9033524
0.0648943 0.2929878 0.9033366
0.0649902 0.2867331 0.9044464
0.0650579 0.2880549 0.9041550
0.0652132 0.2836423 0.9054732
0.0651233 0.2886027 0.9040700
0.0651874 0.2891580 0.9039879
0.0652890 0.2842086 0.9053661
0.0653595 0.2847672 0.9052586
0.0653581 0.2855399 0.9050362
0.0654788 0.2813632 0.9062702
0.0654117 0.2945609 0.9036963
0.0654219 0.2939518 0.9036803
0.0655514 0.2819532 0.9061771
0.0655129 0.2874581 0.9046187
0.0656217 0.2825190 0.9060801
0.0656461 0.2837812 0.9057500
0.0656938 0.2830752 0.9059795
0.0657282 0.2843580 0.9056428
0.0656732 0.2898207 0.9041899
0.0658062 0.2849254 0.9055346
0.0657193 0.2903814 0.9041325
0.0658049 0.2857020 0.9053111
0.0658842 0.2814472 0.9065465
0.0657639 0.2909536 0.9040749
0.0658063 0.2915383 0.9040292
0.0658862 0.2862754 0.9052056
0.0659608 0.2820478 0.9064527
0.0658268 0.2921224 0.9040045
0.0658428 0.2927155 0.9039881
0.0658543 0.2933117 0.9039692
0.0660364 0.2826325 0.9063552
0.0659652 0.2868491 0.9051014
0.0660844 0.2839288 0.9060263
0.0661127 0.2832027 0.9062516
0.0660269 0.2881696 0.9047956
0.0661689 0.2845115 0.9059188
0.0660954 0.2887399 0.9047059
0.0661007 0.2899233 0.9044624
0.0661471 0.2904636 0.9044092
0.0661646 0.2893173 0.9046216
0.0662521 0.2850857 0.9058100
0.0661910 0.2910098 0.9043554
0.0662358 0.2915754 0.9043142
0.0663801 0.2821580 0.9067309
0.0662586 0.2921361 0.9042930
0.0662792 0.2927072 0.9042742
0.0662872 0.2932855 0.9042617
0.0664603 0.2827565 0.9066287
0.0663868 0.2943250 0.9043378
0.0665405 0.2833402 0.9065255
0.0664579 0.2883088 0.9050635
0.0664918 0.2875830 0.9052722
0.0665259 0.2888694 0.9049762
0.0665918 0.2894306 0.9048983
0.0667836 0.2858206 0.9059741
0.0668565 0.2816242 0.9072133
0.0668680 0.2863955 0.9058678
0.0668211 0.2942654 0.9046361
0.0669294 0.2877293 0.9055440
0.0669551 0.2869777 0.9057620
0.0670627 0.2840649 0.9066957
0.0670180 0.2895427 0.9051726
0.0671472 0.2846385 0.9065866
0.0670749 0.2900964 0.9051106
0.0671286 0.2906639 0.9050528
0.0672314 0.2852083 0.9064783
0.0672264 0.2859757 0.9062478
0.0671726 0.2912449 0.9050055
0.0672139 0.2918346 0.9049657
0.0673557 0.2823240 0.9073936
0.0672549 0.2942115 0.9049295
0.0672402 0.2924281 0.9049371
0.0673124 0.2865526 0.9061403
0.0672513 0.2930254 0.9049225
0.0672585 0.2936200 0.9049146
0.0674316 0.2829041 0.9072920
0.0673611 0.2878690 0.9058079
0.0673979 0.2871329 0.9060357
0.0675099 0.2834802 0.9071860
0.0675070 0.2842102 0.9069721
0.0674394 0.2884398 0.9057148
0.0675128 0.2890164 0.9056295
0.0675916 0.2847915 0.9068625
0.0676790 0.2853686 0.9067517
0.0677998 0.2824486 0.9076758
0.0678167 0.2817915 0.9078574
0.0677515 0.2867010 0.9064101
0.0678760 0.2830380 0.9075696
0.0678377 0.2872808 0.9063057
0.0679564 0.2836235 0.9074635
0.0680065 0.2897112 0.9058222
0.0681250 0.2855192 0.9070235
0.0681860 0.2813063 0.9082271
0.0680695 0.2902969 0.9057534
0.0681217 0.2908925 0.9056977
0.0682529 0.2818978 0.9081342
0.0682152 0.2861016 0.9069133
0.0681689 0.2915000 0.9056491
0.0682027 0.2921158 0.9056106
0.0682301 0.2945873 0.9055920
0.0682388 0.2939724 0.9055780
0.0682262 0.2927372 0.9055871
0.0682381 0.2933571 0.9055741
0.0684047 0.2837603 0.9077420
0.0683518 0.2880050 0.9064756
0.0684896 0.2843472 0.9076325
0.0684323 0.2885929 0.9063833
0.0684286 0.2898299 0.9061024
0.0684894 0.2904018 0.9060399
0.0685794 0.2849289 0.9075235
0.0685101 0.2891895 0.9062975
0.0685396 0.2909768 0.9059853
0.0686996 0.2820105 0.9084168
0.0686549 0.2862479 0.9071813
0.0685901 0.2915647 0.9059384
0.0686250 0.2921562 0.9059070
0.0687739 0.2826033 0.9083173
0.0686673 0.2945325 0.9058927
0.0686540 0.2927512 0.9058799
0.0686698 0.2939346 0.9058819
0.0686646 0.2933464 0.9058745
0.0687459 0.2868353 0.9070741
0.0688541 0.2831927 0.9082132
0.0687820 0.2881433 0.9067402
0.0688345 0.2874260 0.9069739
0.0688618 0.2887237 0.9066485
0.0689374 0.2844838 0.9079057
0.0689130 0.2905142 0.9063195
0.0689359 0.2893074 0.9065653
0.0690272 0.2850747 0.9077951
0.0689606 0.2910674 0.9062688
0.0691527 0.2814682 0.9088479
0.0690152 0.2916362 0.9062231
0.0690912 0.2863854 0.9074520
0.0691201 0.2856625 0.9076860
0.0690530 0.2922038 0.9061954
0.0692283 0.2827258 0.9085947
0.0691811 0.2869752 0.9073446
0.0693070 0.2833214 0.9084911
0.0692687 0.2875637 0.9072407
0.0693914 0.2839141 0.9083855
0.0693856 0.2846104 0.9081807
0.0694715 0.2852077 0.9080653
0.0694301 0.2900123 0.9067593
0.0696062 0.2815789 0.9091227
0.0695618 0.2858012 0.9079535
0.0696761 0.2821775 0.9090317
0.0696867 0.2828434 0.9088773
0.0696578 0.2942975 0.9065321
0.0696534 0.2930543 0.9065295
0.0697617 0.2834435 0.9087695
0.0696594 0.2936778 0.9065268
0.0698426 0.2840415 0.9086604
0.0697823 0.2882891 0.9074145
0.0698648 0.2888829 0.9073218
0.0699159 0.2907076 0.9069796
0.0699421 0.2894848 0.9072359
0.0700674 0.2816855 0.9094073
0.0699721 0.2912869 0.9069230
0.0701343 0.2822885 0.9093124
0.0700213 0.2918807 0.9068760
0.0700929 0.2865270 0.9081152
0.0701502 0.2829531 0.9091620
0.0700548 0.2924760 0.9068441
0.0700804 0.2930712 0.9068267
0.0700960 0.2942646 0.9068257
0.0700916 0.2936670 0.9068222
0.0702203 0.2835577 0.9090503
0.0701831 0.2871220 0.9080091
0.0702970 0.2841611 0.9089382
0.0702737 0.2877176 0.9079067
0.0702905 0.2890095 0.9075890
0.0703808 0.2847615 0.9088261
0.0703644 0.2896023 0.9075085
0.0704695 0.2853619 0.9087149
0.0705394 0.2817898 0.9096923
0.0704325 0.2902038 0.9074343
0.0706014 0.2823975 0.9095974
0.0705613 0.2859569 0.9086053
0.0707903 0.2884494 0.9080779
0.0709301 0.2909125 0.9076398
0.0710061 0.2860853 0.9088769
0.0710721 0.2825035 0.9098791
0.0709831 0.2915150 0.9075833
0.0710291 0.2921272 0.9075356
0.0711385 0.2831124 0.9097760
0.0710965 0.2866839 0.9087700
0.0710616 0.2927471 0.9075018
0.0710888 0.2946277 0.9074842
0.0710833 0.2933758 0.9074781
0.0710930 0.2940026 0.9074709
0.0712124 0.2837188 0.9096708
0.0711894 0.2872833 0.9086670
0.0712929 0.2843260 0.9095652
0.0712799 0.2878808 0.9085657
0.0713027 0.2891762 0.9082546
0.0713797 0.2849314 0.9094592
0.0714593 0.2813489 0.9103625
0.0713588 0.2910247 0.9079257
0.0713734 0.2897821 0.9081744
0.0714711 0.2855344 0.9093539
0.0715209 0.2819578 0.9102777
0.0714153 0.2916125 0.9078669
0.0714427 0.2903943 0.9080960
0.0714588 0.2922048 0.9078295
0.0714949 0.2927984 0.9077924
0.0715216 0.2934028 0.9077684
0.0715393 0.2946026 0.9077753
0.0715373 0.2940028 0.9077592
0.0717504 0.2844333 0.9098449
0.0717316 0.2893016 0.9085313
0.0718325 0.2850440 0.9097343
0.0717961 0.2886134 0.9087354
0.0718067 0.2899016 0.9084460
0.0719472 0.2814435 0.9106473
0.0719189 0.2856517 0.9096253
0.0718756 0.2905047 0.9083683
0.0720002 0.2820592 0.9105608
0.0720057 0.2862519 0.9095190
0.0720612 0.2826716 0.9104685
0.0719875 0.2940126 0.9080651
0.0719985 0.2945876 0.9080842
0.0721281 0.2832858 0.9103737
0.0720948 0.2868504 0.9094152
0.0722043 0.2839010 0.9102776
0.0722083 0.2845268 0.9101225
0.0721859 0.2874487 0.9093135
0.0722319 0.2887404 0.9090057
0.0722871 0.2851460 0.9100109
0.0722728 0.2880455 0.9092131
0.0723701 0.2857611 0.9099011
0.0723160 0.2906259 0.9086447
0.0724349 0.2815247 0.9109312
0.0723737 0.2912226 0.9085812
0.0724830 0.2821491 0.9108428
0.0724573 0.2863708 0.9097933
0.0724247 0.2918289 0.9085234
0.0725381 0.2827675 0.9107528
0.0724666 0.2924421 0.9084757
0.0725455 0.2869751 0.9096869
0.0726040 0.2833843 0.9106541
0.0725015 0.2930662 0.9084366
0.0725249 0.2936988 0.9084123
0.0726766 0.2840018 0.9105551
0.0726329 0.2875757 0.9095846
0.0727175 0.2881742 0.9094836
0.0727442 0.2894693 0.9091893
0.0728148 0.2900764 0.9091041
0.0728246 0.2913463 0.9088747
0.0728759 0.2919382 0.9088114
0.0730210 0.2828497 0.9110322
0.0729139 0.2925279 0.9087699
0.0729476 0.2931290 0.9087347
0.0730761 0.2834726 0.9109347
0.0729796 0.2937297 0.9087017
0.0729954 0.2943328 0.9086987
0.0730750 0.2876973 0.9098540
0.0731412 0.2840924 0.9108358
0.0731563 0.2882996 0.9097537
0.0732156 0.2847130 0.9107343
0.0732359 0.2889043 0.9096577
0.0732965 0.2853316 0.9106286
0.0732746 0.2914755 0.9091625
0.0733783 0.2859446 0.9105260
0.0733211 0.2908041 0.9093044
0.0734227 0.2817106 0.9114864
0.0733257 0.2920560 0.9091017
0.0734767 0.2823362 0.9114100
0.0733703 0.2926223 0.9090531
0.0734614 0.2865493 0.9104226
0.0734083 0.2932034 0.9090155
0.0734354 0.2937734 0.9089982
0.0734592 0.2943482 0.9089955
0.0735479 0.2871481 0.9103227
0.0737456 0.2896308 0.9098361
0.0737744 0.2909288 0.9095799
0.0738144 0.2902403 0.9097455
0.0739179 0.2817877 0.9117660
0.0739637 0.2824167 0.9116905
0.0738835 0.2932913 0.9093139
0.0740185 0.2830433 0.9116079
0.0739169 0.2938293 0.9092988
0.0739951 0.2872626 0.9105912
0.0739424 0.2943742 0.9093047
0.0740801 0.2836696 0.9115197
0.0740729 0.2878589 0.9104898
0.0741490 0.2842964 0.9114260
0.0741481 0.2884565 0.9103889
0.0742222 0.2849208 0.9113313
0.0741980 0.2897569 0.9101089
0.0742243 0.2890558 0.9102905
0.0743018 0.2855355 0.9112330
0.0742663 0.2903610 0.9100202
0.0742914 0.2916595 0.9097992
0.0743786 0.2861369 0.9111362
0.0744115 0.2818499 0.9120525
0.0743411 0.2922492 0.9097347
0.0744516 0.2824836 0.9119755
0.0743824 0.2928400 0.9096835
0.0744490 0.2873738 0.9108657
0.0744582 0.2867311 0.9110371
0.0745008 0.2831146 0.9118905
0.0745563 0.2837438 0.9118015
0.0745269 0.2879796 0.9107624
0.0746191 0.2843740 0.9117083
0.0746025 0.2885809 0.9106600
0.0746896 0.2850029 0.9116107
0.0746520 0.2898935 0.9103874
0.0746755 0.2891806 0.9105618
0.0747652 0.2856250 0.9115117
0.0747167 0.2904941 0.9103021
0.0747775 0.2910956 0.9102210
0.0748427 0.2862373 0.9114118
0.0748501 0.2929386 0.9099678
0.0749193 0.2868411 0.9113123
0.0748857 0.2935231 0.9099223
0.0749194 0.2940975 0.9098985
0.0749496 0.2946856 0.9098886
0.0750379 0.2838047 0.9120841
0.0750933 0.2844387 0.9119904
0.0751578 0.2850723 0.9118920
0.0751303 0.2893077 0.9108334
