# 3D Systems, Inc.
# New Model
0.1582036 0.3014299 0.8672911
0.1582091 0.3020594 0.8673322
0.1582156 0.3026862 0.8673692
0.1582221 0.3033124 0.8674077
0.1582301 0.3039381 0.8674476
0.1582382 0.3045626 0.8674890
0.1582480 0.3051868 0.8675304
0.1587703 0.2921772 0.8666878
0.1587787 0.2927751 0.8667084
0.1587847 0.2933757 0.8667310
0.1587838 0.2939807 0.8667576
0.1587826 0.2945832 0.8667830
0.1587810 0.2951901 0.8668087
0.1587794 0.2957980 0.8668358
0.1587772 0.2964095 0.8668624
0.1587771 0.2970284 0.8668878
0.1587751 0.2976490 0.8669165
0.1587740 0.2982712 0.8669473
0.1587678 0.2988999 0.8669759
0.1587617 0.2995312 0.8670064
0.1587568 0.3001614 0.8670368
0.1587469 0.3007874 0.8670688
0.1587444 0.3014209 0.8671071
0.1587484 0.3020513 0.8671417
0.1587530 0.3026796 0.8671735
0.1587580 0.3033086 0.8672070
0.1587646 0.3039360 0.8672418
0.1587715 0.3045639 0.8672782
0.1587792 0.3051893 0.8673153
0.1593646 0.2923223 0.8665398
0.1593397 0.2933861 0.8665903
0.1593361 0.2939873 0.8666146
0.1593311 0.2945850 0.8666382
0.1593249 0.2951865 0.8666615
0.1593194 0.2957891 0.8666859
0.1593150 0.2963965 0.8667110
0.1593129 0.2970172 0.8667332
0.1593078 0.2976360 0.8667577
0.1593048 0.2982570 0.8667844
0.1592971 0.2988871 0.8668101
0.1592900 0.2995188 0.8668347
0.1592816 0.3001471 0.8668605
0.1592683 0.3007710 0.8668881
0.1592652 0.3014048 0.8669206
0.1592675 0.3020351 0.8669482
0.1592711 0.3026636 0.8669743
0.1592742 0.3032933 0.8670022
0.1592784 0.3039214 0.8670311
0.1592834 0.3045494 0.8670613
0.1592886 0.3051731 0.8670920
0.1599403 0.2923464 0.8663785
0.1598711 0.2933922 0.8664387
0.1598628 0.2939869 0.8664618
0.1598523 0.2945809 0.8664840
0.1598424 0.2951789 0.8665050
0.1598324 0.2957776 0.8665280
0.1598241 0.2963826 0.8665491
0.1598216 0.2970060 0.8665670
0.1598149 0.2976226 0.8665859
0.1598082 0.2982432 0.8666084
0.1597985 0.2988742 0.8666327
0.1597883 0.2995059 0.8666571
0.1597777 0.3001348 0.8666811
0.1597637 0.3007569 0.8667057
0.1597608 0.3013886 0.8667332
0.1597619 0.3020184 0.8667550
0.1597634 0.3026465 0.8667767
0.1597666 0.3032739 0.8667991
0.1597696 0.3039022 0.8668232
0.1597739 0.3045297 0.8668484
0.1597784 0.3051512 0.8668744
0.1604990 0.2923669 0.8662098
0.1604775 0.3010516 0.8664264
0.1604803 0.3016781 0.8664415
0.1604838 0.3023034 0.8664556
0.1604879 0.3029288 0.8664707
0.1604927 0.3035558 0.8664868
0.1604988 0.3041808 0.8665044
0.1605056 0.3048040 0.8665232
0.1605129 0.3054267 0.8665430
0.1603829 0.2933844 0.8662840
0.1603691 0.2939725 0.8663080
0.1603528 0.2945607 0.8663276
0.1603391 0.2951553 0.8663479
0.1603255 0.2957517 0.8663688
0.1603151 0.2963574 0.8663913
0.1603100 0.2969869 0.8664007
0.1602994 0.2976033 0.8664186
0.1602903 0.2982249 0.8664387
0.1602783 0.2988572 0.8664588
0.1602649 0.2994907 0.8664772
0.1602534 0.3001201 0.8664989
0.1602443 0.3007403 0.8665230
0.1610421 0.2923798 0.8660412
0.1609823 0.2991612 0.8661836
0.1609783 0.2997883 0.8661952
0.1609753 0.3004142 0.8662072
0.1609730 0.3010386 0.8662202
0.1609740 0.3016648 0.8662311
0.1609758 0.3022897 0.8662419
0.1609781 0.3029149 0.8662537
0.1609810 0.3035422 0.8662666
0.1609867 0.3041640 0.8662802
0.1609921 0.3047829 0.8662955
0.1609982 0.3053985 0.8663118
0.1608729 0.2933607 0.8661234
0.1608505 0.2939427 0.8661452
0.1608278 0.2945269 0.8661654
0.1608083 0.2951189 0.8661860
0.1607893 0.2957133 0.8662064
0.1607692 0.2963220 0.8662166
0.1607584 0.2969590 0.8662195
0.1607411 0.2975820 0.8662320
0.1607293 0.2982085 0.8662497
0.1607189 0.2988451 0.8662649
0.1617705 0.3038375 0.8659039
0.1617731 0.3044638 0.8659162
0.1617777 0.3050869 0.8659292
0.1615617 0.2923827 0.8658761
0.1614888 0.2966381 0.8659701
0.1614771 0.2972631 0.8659776
0.1614689 0.2978887 0.8659848
0.1614596 0.2985185 0.8659907
0.1614521 0.2991498 0.8659977
0.1614441 0.2997778 0.8660059
0.1614391 0.3004023 0.8660147
0.1614363 0.3010241 0.8660232
0.1614360 0.3016495 0.8660302
0.1614361 0.3022732 0.8660363
0.1614371 0.3028973 0.8660441
0.1614389 0.3035234 0.8660527
0.1613714 0.2933472 0.8659570
0.1613411 0.2939261 0.8659758
0.1613122 0.2945071 0.8659944
0.1612860 0.2950985 0.8660098
0.1612598 0.2956899 0.8660296
0.1612370 0.2963010 0.8660519
0.1622437 0.3038218 0.8656788
0.1622461 0.3044428 0.8656876
0.1622481 0.3050621 0.8656979
0.1620714 0.2923751 0.8657036
0.1620539 0.2929613 0.8657182
0.1620373 0.2935537 0.8657308
0.1620166 0.2941551 0.8657437
0.1619987 0.2947659 0.8657551
0.1619792 0.2953723 0.8657580
0.1619588 0.2959858 0.8657666
0.1619431 0.2966083 0.8657731
0.1619262 0.2972375 0.8657803
0.1619134 0.2978655 0.8657883
0.1619020 0.2985028 0.8657938
0.1618946 0.2991376 0.8657972
0.1618871 0.2997676 0.8658028
0.1618833 0.3003906 0.8658087
0.1618829 0.3010089 0.8658146
0.1618837 0.3016347 0.8658198
0.1618845 0.3022570 0.8658261
0.1618862 0.3028794 0.8658332
0.1618890 0.3035035 0.8658411
0.1630682 0.3053801 0.8653032
0.1628183 0.2919783 0.8654297
0.1627974 0.2944464 0.8654413
0.1627913 0.2950665 0.8654437
0.1627805 0.2956885 0.8654419
0.1627681 0.2963070 0.8654427
0.1627543 0.2969323 0.8654402
0.1627425 0.2975566 0.8654409
0.1627313 0.2981850 0.8654396
0.1627218 0.2988126 0.8654389
0.1627137 0.2994399 0.8654389
0.1627058 0.3000670 0.8654386
0.1627013 0.3006889 0.8654412
0.1626997 0.3013127 0.8654448
0.1626974 0.3019368 0.8654472
0.1626962 0.3025614 0.8654507
0.1626961 0.3031860 0.8654553
0.1626971 0.3038092 0.8654611
0.1627007 0.3044246 0.8654671
0.1627018 0.3050399 0.8654759
0.1625537 0.2929322 0.8655362
0.1625290 0.2935197 0.8655467
0.1624963 0.2941176 0.8655552
0.1635837 0.2984890 0.8650513
0.1635731 0.2991086 0.8650469
0.1635640 0.2997304 0.8650442
0.1635564 0.3003550 0.8650429
0.1635417 0.3022316 0.8650449
0.1635391 0.3028555 0.8650473
0.1635371 0.3034807 0.8650514
0.1635365 0.3041049 0.8650572
0.1635361 0.3047288 0.8650647
0.1635345 0.3053503 0.8650748
0.1633361 0.2919770 0.8652493
0.1633232 0.2925816 0.8652515
0.1633121 0.2931924 0.8652508
0.1632962 0.2938055 0.8652529
0.1632786 0.2944206 0.8652512
0.1632634 0.2950362 0.8652536
0.1632466 0.2956547 0.8652534
0.1632255 0.2962751 0.8652517
0.1632060 0.2969036 0.8652498
0.1631877 0.2975306 0.8652494
0.1631658 0.2981657 0.8652367
0.1631331 0.3012980 0.8652356
0.1631300 0.3019221 0.8652370
0.1640223 0.2984795 0.8648535
0.1640101 0.2991042 0.8648472
0.1640017 0.2997298 0.8648424
0.1639938 0.3003548 0.8648386
0.1639824 0.3022246 0.8648320
0.1639815 0.3028466 0.8648318
0.1639814 0.3034691 0.8648330
0.1639813 0.3040901 0.8648362
0.1639804 0.3047094 0.8648419
0.1639788 0.3053213 0.8648502
0.1638271 0.2925606 0.8650701
0.1638061 0.2931645 0.8650717
0.1637774 0.2937724 0.8650699
0.1637495 0.2943817 0.8650660
0.1637205 0.2949932 0.8650593
0.1636958 0.2956110 0.8650594
0.1636668 0.2962355 0.8650568
0.1636400 0.2968688 0.8650550
0.1636160 0.2975014 0.8650544
0.1635928 0.2981459 0.8650510
0.1635578 0.3012832 0.8650378
0.1635551 0.3019070 0.8650372
0.1635804 0.2922818 0.8651520
0.1648459 0.3050124 0.8644351
0.1645956 0.2941019 0.8647224
0.1645706 0.2947168 0.8647107
0.1645505 0.2953338 0.8647033
0.1645256 0.2959541 0.8646938
0.1645008 0.2965782 0.8646862
0.1644777 0.2972067 0.8646762
0.1644578 0.2978364 0.8646683
0.1644399 0.2984721 0.8646613
0.1644280 0.2991034 0.8646545
0.1644216 0.2997332 0.8646472
0.1644157 0.3003588 0.8646427
0.1644114 0.3009767 0.8646396
0.1644101 0.3015996 0.8646338
0.1644104 0.3022218 0.8646302
0.1644121 0.3028423 0.8646280
0.1644152 0.3034624 0.8646273
0.1644172 0.3040797 0.8646291
0.1644174 0.3046949 0.8646339
0.1643516 0.2919340 0.8648766
0.1643167 0.2925196 0.8648777
0.1642841 0.2931166 0.8648764
0.1642458 0.2937238 0.8648744
0.1654505 0.2951029 0.8643172
0.1654329 0.2957125 0.8643000
0.1654137 0.2963187 0.8642854
0.1653930 0.2969253 0.8642742
0.1653731 0.2975396 0.8642630
0.1653510 0.2981532 0.8642514
0.1653353 0.2987721 0.8642419
0.1653226 0.2993920 0.8642334
0.1653139 0.3000132 0.8642287
0.1653054 0.3006353 0.8642256
0.1652983 0.3012579 0.8642209
0.1652948 0.3018799 0.8642166
0.1652935 0.3025025 0.8642145
0.1652930 0.3031251 0.8642147
0.1652933 0.3037489 0.8642180
0.1652934 0.3043712 0.8642239
0.1652930 0.3049917 0.8642330
0.1651279 0.2922047 0.8645786
0.1651040 0.2928166 0.8645625
0.1650783 0.2934292 0.8645493
0.1650493 0.2940410 0.8645389
0.1650179 0.2946559 0.8645270
0.1648579 0.2918800 0.8646810
0.1658909 0.2950506 0.8641361
0.1658643 0.2956618 0.8641177
0.1658382 0.2962762 0.8641021
0.1658116 0.2968950 0.8640906
0.1657862 0.2975158 0.8640780
0.1657630 0.2981426 0.8640653
0.1657483 0.2987709 0.8640556
0.1657383 0.2993985 0.8640456
0.1657320 0.3000220 0.8640382
0.1657276 0.3006410 0.8640335
0.1657232 0.3012625 0.8640268
0.1657239 0.3018842 0.8640209
0.1657264 0.3025051 0.8640168
0.1657309 0.3031256 0.8640157
0.1657363 0.3037450 0.8640171
0.1657401 0.3043622 0.8640221
0.1657431 0.3049766 0.8640309
0.1656121 0.2921455 0.8643997
0.1655742 0.2927472 0.8643813
0.1655345 0.2933531 0.8643644
0.1654958 0.2939647 0.8643534
0.1654533 0.2945809 0.8643371
0.1653601 0.2918031 0.8644994
0.1667840 0.2954670 0.8637385
0.1667535 0.2960525 0.8637157
0.1667274 0.2966392 0.8636972
0.1667044 0.2972373 0.8636808
0.1666828 0.2978393 0.8636662
0.1666624 0.2984455 0.8636504
0.1666479 0.2990543 0.8636427
0.1666361 0.2996673 0.8636359
0.1666246 0.3002827 0.8636322
0.1666118 0.3009061 0.8636263
0.1666052 0.3046411 0.8636363
0.1666050 0.3052640 0.8636522
0.1664366 0.2931732 0.8640108
0.1663969 0.2937698 0.8639898
0.1663640 0.2943751 0.8639715
0.1663291 0.2949853 0.8639551
0.1661625 0.3019030 0.8638202
0.1661707 0.3025224 0.8638175
0.1661810 0.3031400 0.8638155
0.1661925 0.3037552 0.8638159
0.1662010 0.3043678 0.8638216
0.1660985 0.2920644 0.8642042
0.1660478 0.2926561 0.8641869
0.1676659 0.2953085 0.8633830
0.1676517 0.2958772 0.8633530
0.1676346 0.2964378 0.8633271
0.1676114 0.2969955 0.8633087
0.1675877 0.2975695 0.8632892
0.1675652 0.2981423 0.8632750
0.1675442 0.2987232 0.8632660
0.1675278 0.2993087 0.8632590
0.1674879 0.3011479 0.8632518
0.1674832 0.3017625 0.8632478
0.1674801 0.3023801 0.8632494
0.1674713 0.3048986 0.8633013
0.1672880 0.2936249 0.8636419
0.1672619 0.2942211 0.8636112
0.1672343 0.2948143 0.8635844
0.1670479 0.3002950 0.8634445
0.1670395 0.3009136 0.8634356
0.1670528 0.3033878 0.8634287
0.1670572 0.3040068 0.8634371
0.1670606 0.3046271 0.8634491
0.1669808 0.2918901 0.8638980
0.1669492 0.2924922 0.8638700
0.1669124 0.2930903 0.8638436
0.1680926 0.2952562 0.8632179
0.1680689 0.2958246 0.8631888
0.1680459 0.2963925 0.8631640
0.1680183 0.2969614 0.8631406
0.1679936 0.2975424 0.8631227
0.1679714 0.2981345 0.8631063
0.1679548 0.2987250 0.8630935
0.1679411 0.2993183 0.8630853
0.1679127 0.3011496 0.8630771
0.1679106 0.3017622 0.8630739
0.1679125 0.3023783 0.8630762
0.1679248 0.3048758 0.8631358
0.1677524 0.2935642 0.8634825
0.1677151 0.2941507 0.8634469
0.1676805 0.2947424 0.8634163
0.1674920 0.3003181 0.8632606
0.1674884 0.3009336 0.8632510
0.1675199 0.3033955 0.8632427
0.1675291 0.3040068 0.8632504
0.1675359 0.3046254 0.8632624
0.1692971 0.2966421 0.8626673
0.1692602 0.2971080 0.8626467
0.1692405 0.2976086 0.8626253
0.1692178 0.2981100 0.8626081
0.1674790 0.2918103 0.8637287
0.1674376 0.2923995 0.8636962
0.1673935 0.2929901 0.8636693
0.1689466 0.2951736 0.8628957
0.1689318 0.2957056 0.8628623
0.1689060 0.2962410 0.8628349
0.1687952 0.2989533 0.8627465
0.1687781 0.2995276 0.8627428
0.1687590 0.3001083 0.8627443
0.1686103 0.2934997 0.8631641
0.1685779 0.2940631 0.8631232
0.1685519 0.2946327 0.8630877
0.1683501 0.3011584 0.8629014
0.1683515 0.3017701 0.8628972
0.1683557 0.3023827 0.8628994
0.1683625 0.3029984 0.8629047
0.1683668 0.3036152 0.8629157
0.1683768 0.3042349 0.8629382
0.1683857 0.3048553 0.8629592
0.1682645 0.2929017 0.8633495
0.1697319 0.2952126 0.8626113
0.1697195 0.2956810 0.8625756
0.1696998 0.2961455 0.8625509
0.1696668 0.2965986 0.8625303
0.1696314 0.2970738 0.8625097
0.1696129 0.2975785 0.8624882
0.1695927 0.2980975 0.8624674
0.1695641 0.2985993 0.8624641
0.1679911 0.2917142 0.8635482
0.1679431 0.2922907 0.8635154
0.1693923 0.2945959 0.8627873
0.1691923 0.2995318 0.8625927
0.1691733 0.3001144 0.8625938
0.1691621 0.3007270 0.8625918
0.1691610 0.3013323 0.8625903
0.1691631 0.3019412 0.8625961
0.1691646 0.3025524 0.8626087
0.1691667 0.3031790 0.8626262
0.1691624 0.3038013 0.8626512
0.1691743 0.3044102 0.8626764
0.1691856 0.3050274 0.8627078
0.1690711 0.2934368 0.8630027
0.1690358 0.2939986 0.8629635
0.1687996 0.2922377 0.8632176
0.1687584 0.2928124 0.8631752
0.1701228 0.2951390 0.8625041
0.1701112 0.2956184 0.8624669
0.1700920 0.2960886 0.8624401
0.1700660 0.2965560 0.8624114
0.1700325 0.2970485 0.8623817
0.1700186 0.2975643 0.8623518
0.1699963 0.2980949 0.8623320
0.1699709 0.2986053 0.8623272
0.1698226 0.2945426 0.8626452
0.1696181 0.2995380 0.8624284
0.1696011 0.3001231 0.8624304
0.1695969 0.3007301 0.8624241
0.1696014 0.3013315 0.8624252
0.1696069 0.3019357 0.8624312
0.1696141 0.3025437 0.8624476
0.1696206 0.3031657 0.8624669
0.1696246 0.3037862 0.8624977
0.1696356 0.3043835 0.8625331
0.1696515 0.3049851 0.8625727
0.1695510 0.2933641 0.8628562
0.1695107 0.2939256 0.8628137
0.1693257 0.2921533 0.8630709
0.1692790 0.2927160 0.8630176
0.1705439 0.2945765 0.8624141
0.1705269 0.2950736 0.8623671
0.1705124 0.2955617 0.8623325
0.1704931 0.2960387 0.8623005
0.1704751 0.2965233 0.8622627
0.1704516 0.2970266 0.8622424
0.1704418 0.2975488 0.8622139
0.1704202 0.2980831 0.8621985
0.1703979 0.2986007 0.8621910
0.1703817 0.2991454 0.8621860
0.1703619 0.2997092 0.8621917
0.1703394 0.3002751 0.8622008
0.1703382 0.3008692 0.8622006
0.1703357 0.3014706 0.8622065
0.1703181 0.2933901 0.8626181
0.1702897 0.2939383 0.8625691
0.1700777 0.3025406 0.8623107
0.1700856 0.3031560 0.8623286
0.1700933 0.3037742 0.8623518
0.1701064 0.3043692 0.8623799
0.1701194 0.3049719 0.8624139
0.1700799 0.2927185 0.8627753
0.1711244 0.2964465 0.8620746
0.1710953 0.2968638 0.8620527
0.1710712 0.2973066 0.8620374
0.1710626 0.2977602 0.8620198
0.1710329 0.2982285 0.8620013
0.1698720 0.2920439 0.8629114
0.1709357 0.2945225 0.8623063
0.1709211 0.2950249 0.8622586
0.1709124 0.2955195 0.8622180
0.1708946 0.2960038 0.8621768
0.1707800 0.2991436 0.8620554
0.1707630 0.2997057 0.8620631
0.1707399 0.3002707 0.8620705
0.1707329 0.3008595 0.8620725
0.1707299 0.3014589 0.8620786
0.1707791 0.2933336 0.8624889
0.1707494 0.2938750 0.8624400
0.1705619 0.3025565 0.8621641
0.1705721 0.3031644 0.8621913
0.1705807 0.3037757 0.8622217
0.1705923 0.3043681 0.8622557
0.1706060 0.3049691 0.8622956
0.1706252 0.2920771 0.8626925
0.1705941 0.2926378 0.8626319
0.1715251 0.2964061 0.8619814
0.1714948 0.2968306 0.8619536
0.1714717 0.2972854 0.8619371
0.1714559 0.2977453 0.8619185
0.1714196 0.2982255 0.8618991
0.1713851 0.2944673 0.8622017
0.1713663 0.2949720 0.8621523
0.1713440 0.2954711 0.8621160
0.1713277 0.2959704 0.8620704
0.1712082 0.2991365 0.8619398
0.1711909 0.2996965 0.8619458
0.1711710 0.3002677 0.8619444
0.1711676 0.3008561 0.8619502
0.1711662 0.3014507 0.8619601
0.1712751 0.2932672 0.8623766
0.1712453 0.2938067 0.8623210
0.1710723 0.3025694 0.8620243
0.1710799 0.3031727 0.8620507
0.1710880 0.3037782 0.8620830
0.1710948 0.3043704 0.8621216
0.1711032 0.3049769 0.8621619
0.1711665 0.2920021 0.8625578
0.1711354 0.2925528 0.8624887
0.1718938 0.2959451 0.8619291
0.1718891 0.2963719 0.8618958
0.1718688 0.2968145 0.8618653
0.1718489 0.2972765 0.8618460
0.1718369 0.2977436 0.8618268
0.1718040 0.2982360 0.8618056
0.1718341 0.2944129 0.8620974
0.1718157 0.2949180 0.8620486
0.1717934 0.2954269 0.8620055
0.1716709 0.2991452 0.8618138
0.1716570 0.2997100 0.8618223
0.1716455 0.3002910 0.8618297
0.1716362 0.3008757 0.8618352
0.1716283 0.3014643 0.8618449
0.1716223 0.3020524 0.8618601
0.1717722 0.2931953 0.8622604
0.1717465 0.2937320 0.8621960
0.1716092 0.3031925 0.8619115
0.1716116 0.3037925 0.8619465
0.1716114 0.3043909 0.8619863
0.1716208 0.3050022 0.8620247
0.1717255 0.2919250 0.8624300
0.1717045 0.2924731 0.8623601
0.1723208 0.2958933 0.8618370
0.1723106 0.2963311 0.8618075
0.1722995 0.2967884 0.8617709
0.1722724 0.2972559 0.8617579
0.1722457 0.2977252 0.8617384
0.1722039 0.2982172 0.8617248
0.1723497 0.2932944 0.8621286
0.1723266 0.2938331 0.8620641
0.1723092 0.2943531 0.8619937
0.1723026 0.2948576 0.8619464
0.1722796 0.2953718 0.8618982
0.1721570 0.2991511 0.8617125
0.1721366 0.2997131 0.8617159
0.1721236 0.3002916 0.8617239
0.1721092 0.3008706 0.8617346
0.1720957 0.3014550 0.8617468
0.1720854 0.3020412 0.8617646
0.1723290 0.2925793 0.8622207
0.1721759 0.3032090 0.8618045
0.1721623 0.3038059 0.8618434
0.1721488 0.3044051 0.8618878
0.1721407 0.3050092 0.8619331
0.1723074 0.2918610 0.8623175
0.1727436 0.2958478 0.8617529
0.1727259 0.2962942 0.8617209
0.1727154 0.2967628 0.8616838
0.1726843 0.2972227 0.8616712
0.1726560 0.2976991 0.8616488
0.1726153 0.2981943 0.8616366
0.1728376 0.2932389 0.8620297
0.1728149 0.2937748 0.8619630
0.1728009 0.2942954 0.8619064
0.1727896 0.2948082 0.8618552
0.1727725 0.2953238 0.8618067
0.1726623 0.2991533 0.8616064
0.1726466 0.2997223 0.8616123
0.1726342 0.3003009 0.8616223
0.1726160 0.3008780 0.8616342
0.1725973 0.3014606 0.8616467
0.1725796 0.3020439 0.8616653
0.1728719 0.2925222 0.8621170
0.1727455 0.3032232 0.8616941
0.1727275 0.3038245 0.8617335
0.1727090 0.3044237 0.8617780
0.1726885 0.3050204 0.8618308
0.1729017 0.2918009 0.8622107
0.1731944 0.2958131 0.8616714
0.1731688 0.2962639 0.8616403
0.1731604 0.2967391 0.8616039
0.1731144 0.2971993 0.8615918
0.1730850 0.2976830 0.8615735
0.1730417 0.2981744 0.8615571
0.1733729 0.2931739 0.8619452
0.1733536 0.2937084 0.8618827
0.1733436 0.2942352 0.8618156
0.1733256 0.2947539 0.8617606
0.1733103 0.2952734 0.8617079
0.1732072 0.2991641 0.8615152
0.1731911 0.2997358 0.8615192
0.1731768 0.3003167 0.8615278
0.1731547 0.3008982 0.8615387
0.1731309 0.3014841 0.8615514
0.1731046 0.3020745 0.8615740
0.1734408 0.2924660 0.8620234
0.1733351 0.3032435 0.8615806
0.1733132 0.3038478 0.8616123
0.1732937 0.3044512 0.8616583
0.1732726 0.3050509 0.8617199
0.1735067 0.2917554 0.8621082
0.1736893 0.2957683 0.8616089
0.1736693 0.2962265 0.8615794
0.1736532 0.2967126 0.8615441
0.1736031 0.2971739 0.8615279
0.1739286 0.2931214 0.8618711
0.1739044 0.2936579 0.8618049
0.1738888 0.2941890 0.8617425
0.1738718 0.2947133 0.8616874
0.1738515 0.2952399 0.8616321
0.1738058 0.2980210 0.8614495
0.1737921 0.2985854 0.8614369
0.1737754 0.2991558 0.8614331
0.1737605 0.2997333 0.8614383
0.1737453 0.3003187 0.8614463
0.1737203 0.3009065 0.8614546
0.1736931 0.3014978 0.8614662
0.1740106 0.2924242 0.8619484
0.1739583 0.3026558 0.8614743
0.1739329 0.3032538 0.8614970
0.1739111 0.3038586 0.8615343
0.1738888 0.3044624 0.8615727
0.1738646 0.3050648 0.8616190
0.1741189 0.2917259 0.8620240
0.1741725 0.2957251 0.8615560
0.1741516 0.2961916 0.8615252
0.1744739 0.2930738 0.8618083
0.1744447 0.2936143 0.8617434
0.1744272 0.2941507 0.8616820
0.1744107 0.2946784 0.8616256
0.1743922 0.2952093 0.8615736
0.1743704 0.2968705 0.8614414
0.1743649 0.2974404 0.8614103
0.1743561 0.2980149 0.8613886
0.1743451 0.2985834 0.8613743
0.1743331 0.2991561 0.8613678
0.1743221 0.2997371 0.8613701
0.1743105 0.3003254 0.8613752
0.1745925 0.2923907 0.8618830
0.1746068 0.3014703 0.8613425
0.1745828 0.3020700 0.8613565
0.1745602 0.3026672 0.8613800
0.1745361 0.3032672 0.8614032
0.1745154 0.3038725 0.8614399
0.1744935 0.3044734 0.8614828
0.1744714 0.3050760 0.8615281
0.1747375 0.2917046 0.8619480
0.1746708 0.2956761 0.8615122
0.1746531 0.2961482 0.8614792
0.1750270 0.2930254 0.8617469
0.1749960 0.2935731 0.8616885
0.1749754 0.2941170 0.8616292
0.1749624 0.2946498 0.8615699
0.1749458 0.2951841 0.8615221
0.1749324 0.2968587 0.8613931
0.1749299 0.2974305 0.8613597
0.1749228 0.2980092 0.8613343
0.1749157 0.2985807 0.8613177
0.1749069 0.2991570 0.8613090
0.1748999 0.2997419 0.8613073
0.1748928 0.3003324 0.8613097
0.1751852 0.2923609 0.8618209
0.1752066 0.3014702 0.8612810
0.1751867 0.3020732 0.8612912
0.1751665 0.3026750 0.8613048
0.1751093 0.3044901 0.8613817
0.1750910 0.3050959 0.8614176
0.1753667 0.2916995 0.8618804
0.1754600 0.3038126 0.8613129
0.1754380 0.3044225 0.8613435
0.1755785 0.2929785 0.8617105
0.1755513 0.2935333 0.8616513
0.1755306 0.2940832 0.8615906
0.1755184 0.2946212 0.8615313
0.1755041 0.2951600 0.8614850
0.1755002 0.2957150 0.8614383
0.1755004 0.2962798 0.8613959
0.1754989 0.2968465 0.8613547
0.1754983 0.2974171 0.8613193
0.1754943 0.2980028 0.8612902
0.1754920 0.2985781 0.8612688
0.1754893 0.2991576 0.8612544
0.1754896 0.2997455 0.8612484
0.1757845 0.2923364 0.8617649
0.1758286 0.3008651 0.8612140
0.1758112 0.3014700 0.8612166
0.1757945 0.3020757 0.8612240
0.1757771 0.3026814 0.8612334
0.1757315 0.3045030 0.8613034
0.1757172 0.3051118 0.8613356
0.1760656 0.3038103 0.8612288
0.1760460 0.3044237 0.8612529
0.1761340 0.2929319 0.8616801
0.1761136 0.2934972 0.8616174
0.1760957 0.2940543 0.8615545
0.1760850 0.2945990 0.8614988
0.1760714 0.2951425 0.8614497
0.1760678 0.2957001 0.8614021
0.1760697 0.2962681 0.8613582
0.1760709 0.2968375 0.8613151
0.1760729 0.2974069 0.8612832
0.1760724 0.2979980 0.8612492
0.1760781 0.2985787 0.8612232
0.1763790 0.2923221 0.8617262
0.1764500 0.2996406 0.8611818
0.1764442 0.3002498 0.8611744
0.1764307 0.3008589 0.8611690
0.1767406 0.3019620 0.8611387
0.1767143 0.3025797 0.8611436
0.1766862 0.3031975 0.8611536
0.1766647 0.3038021 0.8611680
0.1766479 0.3044189 0.8611867
0.1766295 0.3050326 0.8612094
0.1766631 0.2940221 0.8615304
0.1766537 0.2945740 0.8614766
0.1766446 0.2951270 0.8614277
0.1766450 0.2956915 0.8613797
0.1766496 0.2962624 0.8613340
0.1766559 0.2968354 0.8612893
0.1766627 0.2974089 0.8612575
0.1766701 0.2980042 0.8612234
0.1769784 0.2923091 0.8616996
0.1769743 0.2928957 0.8616407
0.1769794 0.2934821 0.8615799
0.1770545 0.2990165 0.8611687
0.1770497 0.2996302 0.8611535
0.1770457 0.3002420 0.8611423
0.1770360 0.3008540 0.8611293
0.1773281 0.3019352 0.8610986
0.1773024 0.3025572 0.8610979
0.1772751 0.3031820 0.8611026
0.1772518 0.3037957 0.8611117
0.1772374 0.3044169 0.8611246
0.1772208 0.3050341 0.8611411
0.1772260 0.2939897 0.8615159
0.1772197 0.2945513 0.8614627
0.1772166 0.2951173 0.8614115
0.1772216 0.2956899 0.8613625
0.1772303 0.2962667 0.8613123
0.1772423 0.2968428 0.8612696
0.1772533 0.2974156 0.8612336
0.1772683 0.2980120 0.8611975
0.1775725 0.2922945 0.8616742
0.1775709 0.2928887 0.8616179
0.1775775 0.2934824 0.8615603
0.1776604 0.2989983 0.8611414
0.1776555 0.2996154 0.8611234
0.1776521 0.3002310 0.8611076
0.1776450 0.3008471 0.8610928
0.1779093 0.3019087 0.8610624
0.1778871 0.3025306 0.8610566
0.1778651 0.3031572 0.8610557
0.1778412 0.3037771 0.8610595
0.1778251 0.3044028 0.8610657
0.1778057 0.3050286 0.8610761
0.1777825 0.2945255 0.8614592
0.1777865 0.2951059 0.8614071
0.1777973 0.2956899 0.8613557
0.1778102 0.2962760 0.8613063
0.1781649 0.2922807 0.8616628
0.1781632 0.2928818 0.8616072
0.1781703 0.2934816 0.8615518
0.1781814 0.2940800 0.8614964
0.1782582 0.2971303 0.8612419
0.1782644 0.2977495 0.8612027
0.1782663 0.2983666 0.8611622
0.1782647 0.2989858 0.8611297
0.1782620 0.2996037 0.8611091
0.1782603 0.3002214 0.8610878
0.1782567 0.3008396 0.8610675
0.1782568 0.3045491 0.8610223
0.1782609 0.3051692 0.8610308
0.1785044 0.2917789 0.8617140
0.1784900 0.3018727 0.8610307
0.1784652 0.3024994 0.8610201
0.1784427 0.3031338 0.8610132
0.1784167 0.3037637 0.8610102
0.1783983 0.3043886 0.8610110
0.1787614 0.2922616 0.8616617
0.1787581 0.2928696 0.8616084
0.1787653 0.2934767 0.8615551
0.1787769 0.2940800 0.8615013
0.1787913 0.2946825 0.8614478
0.1788085 0.2952909 0.8613942
0.1788281 0.2959003 0.8613434
0.1788459 0.2965130 0.8612897
0.1788587 0.2971274 0.8612416
0.1788667 0.2977437 0.8612040
0.1788726 0.2983602 0.8611590
0.1788744 0.2989783 0.8611229
0.1788744 0.2995968 0.8610957
0.1788744 0.3002159 0.8610695
0.1788732 0.3008355 0.8610462
0.1788756 0.3045553 0.8609625
0.1788784 0.3051767 0.8609708
0.1791246 0.2918015 0.8617091
0.1790825 0.3018322 0.8610030
0.1790530 0.3024666 0.8609861
0.1790197 0.3031061 0.8609728
0.1789869 0.3037419 0.8609632
0.1789659 0.3043671 0.8609575
0.1793608 0.2922400 0.8616661
0.1793574 0.2928554 0.8616152
0.1793648 0.2934697 0.8615627
0.1793761 0.2940780 0.8615096
0.1793900 0.2946829 0.8614569
0.1794080 0.2952944 0.8614034
0.1794272 0.2959048 0.8613518
0.1794463 0.2965179 0.8612971
0.1794610 0.2971293 0.8612524
0.1794723 0.2977434 0.8612097
0.1794816 0.2983589 0.8611604
0.1794870 0.2989760 0.8611198
0.1794898 0.2995943 0.8610882
0.1794914 0.3002137 0.8610558
0.1794913 0.3008336 0.8610285
0.1794902 0.3014539 0.8609987
0.1794882 0.3020747 0.8609728
0.1794862 0.3026956 0.8609509
0.1794846 0.3033166 0.8609324
0.1794843 0.3039373 0.8609176
0.1794857 0.3045578 0.8609064
0.1794882 0.3051789 0.8609085
0.1797427 0.2918182 0.8617079
0.1799930 0.2946812 0.8614700
0.1800114 0.2952978 0.8614175
0.1800310 0.2959117 0.8613648
0.1800506 0.2965275 0.8613116
0.1800683 0.2971365 0.8612634
0.1800830 0.2977489 0.8612145
0.1800954 0.2983626 0.8611642
0.1801038 0.2989781 0.8611218
0.1801092 0.2995952 0.8610844
0.1801117 0.3002137 0.8610462
0.1801117 0.3008327 0.8610154
0.1801093 0.3014517 0.8609801
0.1801048 0.3020720 0.8609486
0.1801002 0.3026929 0.8609203
0.1800952 0.3033148 0.8608945
0.1800921 0.3039359 0.8608724
0.1800912 0.3045578 0.8608537
0.1800928 0.3051802 0.8608492
0.1803587 0.2918299 0.8617082
0.1803717 0.2924443 0.8616611
0.1803888 0.2930598 0.8616134
0.1804075 0.2936716 0.8615648
0.1804273 0.2942860 0.8615132
0.1806971 0.2977595 0.8612230
0.1807114 0.2983706 0.8611720
0.1807228 0.2989839 0.8611232
0.1807300 0.2995988 0.8610810
0.1807325 0.3002146 0.8610360
0.1807312 0.3008317 0.8610014
0.1807263 0.3014482 0.8609602
0.1807179 0.3020676 0.8609221
0.1807096 0.3026880 0.8608868
0.1807004 0.3033111 0.8608541
0.1806946 0.3039329 0.8608250
0.1806921 0.3045570 0.8607985
0.1806946 0.3051821 0.8607897
0.1809717 0.2918365 0.8617119
0.1809814 0.2924505 0.8616699
0.1809956 0.2930656 0.8616260
0.1810124 0.2936775 0.8615797
0.1810305 0.2942899 0.8615304
0.1810446 0.2948944 0.8614794
0.1810579 0.2954986 0.8614274
0.1810686 0.2961032 0.8613758
0.1810699 0.2967127 0.8613185
0.1810606 0.2973313 0.8612655
0.1812883 0.3035961 0.8608078
0.1813011 0.3042073 0.8607763
0.1813171 0.3048012 0.8607459
0.1813171 0.2977746 0.8612325
0.1813327 0.2983821 0.8611800
0.1813450 0.2989930 0.8611296
0.1813523 0.2996045 0.8610816
0.1813541 0.3002164 0.8610312
0.1813512 0.3008303 0.8609921
0.1813434 0.3014435 0.8609456
0.1813312 0.3020621 0.8609013
0.1813199 0.3026826 0.8608603
0.1813080 0.3033083 0.8608221
0.1815819 0.2918379 0.8617196
0.1815894 0.2924527 0.8616818
0.1815998 0.2930678 0.8616409
0.1816135 0.2936809 0.8615971
0.1816280 0.2942929 0.8615484
0.1816420 0.2948976 0.8614978
0.1816540 0.2954994 0.8614458
0.1816629 0.2960998 0.8613936
0.1816618 0.2967059 0.8613358
0.1816500 0.2973183 0.8612825
0.1818009 0.3006274 0.8609911
0.1818242 0.3012282 0.8609456
0.1818449 0.3018261 0.8608953
0.1818561 0.3024288 0.8608483
0.1818675 0.3030286 0.8608043
0.1818848 0.3036183 0.8607647
0.1818914 0.3042234 0.8607261
0.1819029 0.3048151 0.8606890
0.1819543 0.2983966 0.8611869
0.1819666 0.2990032 0.8611321
0.1819732 0.2996102 0.8610812
0.1819735 0.3002170 0.8610251
0.1822616 0.2961004 0.8614107
0.1822620 0.2967010 0.8613529
0.1822519 0.2973053 0.8612984
0.1822371 0.2979147 0.8612421
0.1824227 0.3006657 0.8609809
0.1824416 0.3012599 0.8609262
0.1824570 0.3018512 0.8608708
0.1824624 0.3024496 0.8608183
0.1824678 0.3030462 0.8607689
0.1824783 0.3036343 0.8607230
0.1824812 0.3042384 0.8606778
0.1824886 0.3048290 0.8606343
0.1825802 0.2921605 0.8617323
0.1825970 0.2927549 0.8616969
0.1826125 0.2933325 0.8616580
0.1826257 0.2939196 0.8616125
0.1826356 0.2945124 0.8615622
0.1826337 0.2950821 0.8615130
0.1826293 0.2956472 0.8614624
0.1825955 0.2996162 0.8610799
0.1825941 0.3002171 0.8610188
0.1828400 0.2978975 0.8612505
0.1828214 0.2985034 0.8611907
0.1827981 0.2991146 0.8611309
0.1830196 0.3001150 0.8610205
0.1830445 0.3006993 0.8609651
0.1830572 0.3012856 0.8609047
0.1830668 0.3018702 0.8608465
0.1830672 0.3024643 0.8607902
0.1830679 0.3030589 0.8607358
0.1830724 0.3036485 0.8606834
0.1830720 0.3042527 0.8606310
0.1830762 0.3048437 0.8605822
0.1831766 0.2921839 0.8617375
0.1831895 0.2927770 0.8617066
0.1831966 0.2933494 0.8616698
0.1832051 0.2939282 0.8616268
0.1832070 0.2945067 0.8615791
0.1832031 0.2950679 0.8615310
0.1831938 0.2956270 0.8614801
0.1831874 0.2961815 0.8614288
0.1831701 0.2967655 0.8613681
0.1831400 0.2973509 0.8613087
0.1832048 0.2984287 0.8611987
0.1832128 0.2990229 0.8611346
0.1832163 0.2996180 0.8610756
0.1834487 0.2978830 0.8612567
0.1836421 0.3001439 0.8610092
0.1836614 0.3007217 0.8609508
0.1836694 0.3013002 0.8608882
0.1836751 0.3018786 0.8608269
0.1836738 0.3024699 0.8607660
0.1836729 0.3030632 0.8607068
0.1836748 0.3036545 0.8606496
0.1836732 0.3042577 0.8605929
0.1836737 0.3048511 0.8605384
0.1837698 0.2921910 0.8617429
0.1837792 0.2927834 0.8617129
0.1837830 0.2933559 0.8616787
0.1837904 0.2939306 0.8616391
0.1837900 0.2945031 0.8615927
0.1837849 0.2950580 0.8615450
0.1837725 0.2956124 0.8614933
0.1837608 0.2961631 0.8614392
0.1837457 0.2967374 0.8613786
0.1837202 0.2973134 0.8613179
0.1838241 0.2984376 0.8612035
0.1838308 0.2990269 0.8611404
0.1838341 0.2996165 0.8610750
0.1840757 0.2967014 0.8613880
0.1840702 0.2972856 0.8613277
0.1840618 0.2978722 0.8612639
0.1842550 0.3001645 0.8610017
0.1842712 0.3007377 0.8609392
0.1842774 0.3013105 0.8608737
0.1842815 0.3018846 0.8608091
0.1842793 0.3024732 0.8607443
0.1842774 0.3030658 0.8606808
0.1842774 0.3036603 0.8606187
0.1842752 0.3042638 0.8605573
0.1842738 0.3048603 0.8604983
0.1843684 0.2921906 0.8617488
0.1843744 0.2927822 0.8617207
0.1843763 0.2933546 0.8616872
0.1843805 0.2939287 0.8616480
0.1843767 0.2944977 0.8616027
0.1843698 0.2950495 0.8615560
0.1843566 0.2955995 0.8615045
0.1843417 0.2961475 0.8614484
0.1844485 0.2984485 0.8612024
0.1844531 0.2990315 0.8611352
0.1844549 0.2996153 0.8610677
0.1846829 0.2967031 0.8613941
0.1846801 0.2972803 0.8613323
0.1846755 0.2978590 0.8612674
0.1848851 0.3001741 0.8609954
0.1848934 0.3007459 0.8609291
0.1848947 0.3013157 0.8608612
0.1848950 0.3018877 0.8607940
0.1848914 0.3024741 0.8607263
0.1848885 0.3030662 0.8606593
0.1848872 0.3036627 0.8605936
0.1848850 0.3042665 0.8605288
0.1848832 0.3048650 0.8604667
0.1849611 0.2921867 0.8617496
0.1849639 0.2927776 0.8617237
0.1849635 0.2933506 0.8616907
0.1849644 0.2939246 0.8616524
0.1849568 0.2944907 0.8616071
0.1849473 0.2950407 0.8615607
0.1849332 0.2955876 0.8615095
0.1849167 0.2961319 0.8614528
0.1850770 0.2984563 0.8611993
0.1850773 0.2990343 0.8611315
0.1850760 0.2996140 0.8610633
0.1852931 0.2967017 0.8613929
0.1852885 0.2972771 0.8613302
0.1852821 0.2978536 0.8612651
0.1855143 0.3001815 0.8609878
0.1855145 0.3007518 0.8609184
0.1855114 0.3013186 0.8608487
0.1855087 0.3018884 0.8607793
0.1855041 0.3024728 0.8607091
0.1855007 0.3030647 0.8606393
0.1854985 0.3036647 0.8605700
0.1854963 0.3042699 0.8605019
0.1854951 0.3048705 0.8604368
0.1855498 0.2921838 0.8617490
0.1855479 0.2927735 0.8617235
0.1855454 0.2933482 0.8616915
0.1855423 0.2939231 0.8616538
0.1855305 0.2944887 0.8616098
0.1855172 0.2950384 0.8615638
0.1855050 0.2955826 0.8615142
0.1854887 0.2961239 0.8614564
0.1857022 0.2984578 0.8611926
0.1856993 0.2990344 0.8611228
0.1856968 0.2996125 0.8610528
0.1859039 0.2966984 0.8613889
0.1859004 0.2972734 0.8613252
0.1858967 0.2978496 0.8612590
0.1861265 0.3001794 0.8609805
0.1861219 0.3007505 0.8609091
0.1861180 0.3013167 0.8608386
0.1861156 0.3018864 0.8607682
0.1861127 0.3024707 0.8606968
0.1861107 0.3030631 0.8606256
0.1861091 0.3036644 0.8605546
0.1861078 0.3042699 0.8604846
0.1861060 0.3048719 0.8604169
0.1861448 0.2921767 0.8617435
0.1861373 0.2927657 0.8617194
0.1861335 0.2933422 0.8616883
0.1861271 0.2939178 0.8616511
0.1861116 0.2944828 0.8616072
0.1860958 0.2950325 0.8615618
0.1860856 0.2955746 0.8615134
0.1860732 0.2961164 0.8614544
0.1863236 0.2984550 0.8611863
0.1863187 0.2990308 0.8611160
0.1863161 0.2996078 0.8610455
0.1865132 0.2966932 0.8613829
0.1865089 0.2972661 0.8613192
0.1865069 0.2978418 0.8612526
0.1867441 0.3001777 0.8609697
0.1867369 0.3007481 0.8608981
0.1867312 0.3013139 0.8608272
0.1867282 0.3018837 0.8607563
0.1867261 0.3024683 0.8606841
0.1867246 0.3030614 0.8606120
0.1867234 0.3036630 0.8605398
0.1867225 0.3042673 0.8604686
0.1867199 0.3048656 0.8603996
0.1867383 0.2921682 0.8617333
0.1867260 0.2927565 0.8617104
0.1867201 0.2933348 0.8616802
0.1867106 0.2939112 0.8616435
0.1866940 0.2944779 0.8615998
0.1866770 0.2950286 0.8615546
0.1866674 0.2955677 0.8615068
0.1866568 0.2961066 0.8614482
0.1869508 0.2984445 0.8611773
0.1869422 0.2990230 0.8611072
0.1869372 0.2996030 0.8610362
0.1871186 0.2966873 0.8613727
0.1871114 0.2972602 0.8613101
0.1871086 0.2978383 0.8612427
0.1873677 0.3001631 0.8609594
0.1873534 0.3007360 0.8608900
0.1873447 0.3013054 0.8608197
0.1873396 0.3018776 0.8607496
0.1873375 0.3024646 0.8606784
0.1873363 0.3030582 0.8606073
0.1873353 0.3036560 0.8605369
0.1873347 0.3042568 0.8604675
0.1873310 0.3048506 0.8604005
0.1873292 0.2921552 0.8617131
0.1873149 0.2927458 0.8616918
0.1873048 0.2933251 0.8616625
0.1872920 0.2939032 0.8616263
0.1872738 0.2944729 0.8615830
0.1872592 0.2950256 0.8615385
0.1872503 0.2955686 0.8614897
0.1872415 0.2961109 0.8614309
0.1875721 0.2984318 0.8611634
0.1875622 0.2990147 0.8610933
0.1875569 0.2995994 0.8610230
0.1877256 0.2966800 0.8613546
0.1877212 0.2972565 0.8612933
0.1877212 0.2978394 0.8612274
0.1879978 0.2995776 0.8610151
0.1879794 0.3001437 0.8609491
0.1879621 0.3007204 0.8608824
0.1879534 0.3012954 0.8608135
0.1879475 0.3018704 0.8607450
0.1879453 0.3024591 0.8606756
0.1879440 0.3030523 0.8606067
0.1879422 0.3036449 0.8605390
0.1879416 0.3042422 0.8604719
0.1879381 0.3048376 0.8604068
0.1879223 0.2921388 0.8616888
0.1879068 0.2927302 0.8616675
0.1878946 0.2933103 0.8616394
0.1878799 0.2938896 0.8616041
0.1878608 0.2944628 0.8615626
0.1878481 0.2950180 0.8615185
0.1878416 0.2955669 0.8614688
0.1878368 0.2961162 0.8614104
0.1881899 0.2984173 0.8611500
0.1881811 0.2990050 0.8610800
0.1883348 0.2966743 0.8613348
0.1883336 0.2972548 0.8612741
0.1883378 0.2978428 0.8612090
0.1886369 0.2995338 0.8610056
0.1886098 0.3001084 0.8609400
0.1885850 0.3006910 0.8608765
0.1885710 0.3012745 0.8608091
0.1885608 0.3018566 0.8607425
0.1885565 0.3024506 0.8606751
0.1885538 0.3030464 0.8606088
0.1885508 0.3036360 0.8605442
0.1885500 0.3042321 0.8604801
0.1885464 0.3048289 0.8604175
0.1885011 0.2921143 0.8616618
0.1884832 0.2927069 0.8616413
0.1884684 0.2932894 0.8616139
0.1884520 0.2938725 0.8615803
0.1884323 0.2944515 0.8615390
0.1884190 0.2950144 0.8614947
0.1884131 0.2955726 0.8614456
0.1884120 0.2961295 0.8613881
0.1888120 0.2984011 0.8611321
0.1888022 0.2989932 0.8610646
0.1889396 0.2966687 0.8613097
0.1889402 0.2972543 0.8612502
0.1889483 0.2978501 0.8611853
0.1892545 0.2994936 0.8609952
0.1892231 0.3000751 0.8609310
0.1891970 0.3006629 0.8608693
0.1891801 0.3012519 0.8608041
0.1891672 0.3018386 0.8607400
0.1891630 0.3024389 0.8606751
0.1891604 0.3030383 0.8606111
0.1891550 0.3036234 0.8605500
0.1891527 0.3042168 0.8604891
0.1891477 0.3048137 0.8604291
0.1890820 0.2920907 0.8616299
0.1890600 0.2926839 0.8616115
0.1890435 0.2932696 0.8615859
0.1890248 0.2938572 0.8615514
0.1890048 0.2944421 0.8615081
0.1889909 0.2950150 0.8614645
0.1889898 0.2955814 0.8614151
0.1889949 0.2961471 0.8613606
0.1894326 0.2983863 0.8611092
0.1894223 0.2989835 0.8610436
0.1895679 0.2948842 0.8614354
0.1895552 0.2954813 0.8613871
0.1895471 0.2960747 0.8613356
0.1895418 0.2966666 0.8612800
0.1895443 0.2972576 0.8612219
0.1895561 0.2978614 0.8611577
0.1898772 0.2994532 0.8609792
0.1898430 0.3000427 0.8609219
0.1898163 0.3006358 0.8608610
0.1897969 0.3012302 0.8607989
0.1897807 0.3018213 0.8607379
0.1897736 0.3024249 0.8606762
0.1897679 0.3030260 0.8606155
0.1897574 0.3036097 0.8605582
0.1897529 0.3042010 0.8605010
0.1897465 0.3047988 0.8604442
0.1896560 0.2920608 0.8615919
0.1896311 0.2926563 0.8615746
0.1896117 0.2932458 0.8615466
0.1895915 0.2938395 0.8615110
0.1895721 0.2944336 0.8614714
0.1900665 0.2977706 0.8611435
0.1900516 0.2983726 0.8610826
0.1900416 0.2989750 0.8610180
0.1902253 0.2918369 0.8615475
0.1902193 0.2924457 0.8615295
0.1902103 0.2930557 0.8615025
0.1901972 0.2936642 0.8614728
0.1901801 0.2942717 0.8614365
0.1901610 0.2948745 0.8613960
0.1901481 0.2954737 0.8613495
0.1901414 0.2960709 0.8612997
0.1901383 0.2966686 0.8612458
0.1901425 0.2972665 0.8611896
0.1904981 0.2994123 0.8609636
0.1904620 0.3000088 0.8609095
0.1903518 0.3041846 0.8605148
0.1903441 0.3047840 0.8604619
0.1906813 0.2977543 0.8611100
0.1906680 0.2983609 0.8610528
0.1906595 0.2989690 0.8609942
0.1906630 0.3008048 0.8608277
0.1906721 0.3014190 0.8607699
0.1906890 0.3020465 0.8607116
0.1907035 0.3026701 0.8606546
0.1907177 0.3032997 0.8605987
0.1907243 0.3039284 0.8605456
0.1908318 0.2918324 0.8614905
0.1908218 0.2924390 0.8614752
0.1908084 0.2930467 0.8614531
0.1907896 0.2936532 0.8614251
0.1907686 0.2942596 0.8613907
0.1907480 0.2948651 0.8613514
0.1907341 0.2954696 0.8613073
0.1907271 0.2960732 0.8612593
0.1907236 0.2966800 0.8612073
0.1907296 0.2972856 0.8611533
0.1911190 0.2993754 0.8609442
0.1910820 0.2999783 0.8608977
0.1910556 0.3005813 0.8608385
0.1910321 0.3011849 0.8607847
0.1910101 0.3017844 0.8607312
0.1909563 0.3041730 0.8605282
0.1909483 0.3047747 0.8604797
0.1912949 0.2977408 0.8610729
0.1912844 0.2983520 0.8610206
0.1912784 0.2989650 0.8609689
0.1913193 0.3026743 0.8606561
0.1913304 0.3033023 0.8606055
0.1913354 0.3039299 0.8605588
0.1914279 0.2918195 0.8614321
0.1914157 0.2924252 0.8614179
0.1913992 0.2930324 0.8613981
0.1913800 0.2936411 0.8613712
0.1913612 0.2942502 0.8613384
0.1913437 0.2948615 0.8613006
0.1913316 0.2954727 0.8612586
0.1913276 0.2960822 0.8612128
0.1913285 0.2966944 0.8611636
0.1913382 0.2973060 0.8611123
0.1916845 0.3005548 0.8608285
0.1916610 0.3011610 0.8607740
0.1916381 0.3017633 0.8607258
0.1920604 0.2922658 0.8613571
0.1920574 0.2928672 0.8613374
0.1920415 0.2934699 0.8613095
0.1920223 0.2940681 0.8612802
0.1919986 0.2946748 0.8612481
0.1919750 0.2952787 0.8612120
0.1919527 0.2958901 0.8611708
0.1919339 0.2965031 0.8611261
0.1919182 0.2971166 0.8610799
0.1919065 0.2977310 0.8610327
0.1918989 0.2983457 0.8609852
0.1918952 0.2989624 0.8609389
0.1918946 0.2995802 0.8608922
0.1918966 0.3001973 0.8608457
0.1919298 0.3026809 0.8606557
0.1919390 0.3033063 0.8606109
0.1919434 0.3039317 0.8605690
0.1919461 0.3045580 0.8605331
0.1919440 0.3051809 0.8604991
0.1920203 0.2918012 0.8613685
0.1926565 0.2922542 0.8612847
0.1926492 0.2928520 0.8612668
0.1926327 0.2934517 0.8612438
0.1926156 0.2940518 0.8612176
0.1925927 0.2946583 0.8611879
0.1925706 0.2952653 0.8611530
0.1925524 0.2958787 0.8611156
0.1925376 0.2964936 0.8610754
0.1925257 0.2971090 0.8610318
0.1925173 0.2977252 0.8609895
0.1925128 0.2983429 0.8609474
0.1925115 0.2989624 0.8609059
0.1925123 0.2995821 0.8608637
0.1925146 0.3002008 0.8608226
0.1925177 0.3008203 0.8607805
0.1925228 0.3014407 0.8607377
0.1925322 0.3020660 0.8606948
0.1925399 0.3026881 0.8606537
0.1925465 0.3033119 0.8606146
0.1925494 0.3039359 0.8605787
0.1925500 0.3045597 0.8605477
0.1925475 0.3051801 0.8605188
0.1926091 0.2917787 0.8612958
0.1932500 0.2922390 0.8612095
0.1932392 0.2928349 0.8611944
0.1932222 0.2934340 0.8611744
0.1932048 0.2940357 0.8611511
0.1931842 0.2946431 0.8611227
0.1931648 0.2952546 0.8610914
0.1931506 0.2958707 0.8610574
0.1931394 0.2964877 0.8610210
0.1931310 0.2971054 0.8609818
0.1931261 0.2977234 0.8609433
0.1931246 0.2983436 0.8609071
0.1931253 0.2989654 0.8608705
0.1931275 0.2995863 0.8608328
0.1931302 0.3002059 0.8607970
0.1931328 0.3008265 0.8607595
0.1931368 0.3014478 0.8607220
0.1931437 0.3020722 0.8606850
0.1931493 0.3026942 0.8606493
0.1931538 0.3033166 0.8606165
0.1931554 0.3039391 0.8605870
0.1931541 0.3045597 0.8605596
0.1931518 0.3051783 0.8605357
0.1938405 0.2944410 0.8610583
0.1938104 0.2950237 0.8610369
0.1937806 0.2956213 0.8610097
0.1937530 0.2962281 0.8609808
0.1937259 0.2968365 0.8609482
0.1937006 0.2974448 0.8609172
0.1938370 0.2922181 0.8611311
0.1938260 0.2928144 0.8611196
0.1938102 0.2934153 0.8611024
0.1937937 0.2940193 0.8610805
0.1937388 0.2983480 0.8608632
0.1937410 0.2989711 0.8608327
0.1937440 0.2995925 0.8607998
0.1937476 0.3002125 0.8607690
0.1937498 0.3008334 0.8607365
0.1937529 0.3014545 0.8607036
0.1937574 0.3020768 0.8606721
0.1937631 0.3045577 0.8605671
0.1939973 0.3031186 0.8606165
0.1940234 0.3037650 0.8605890
0.1940341 0.3044164 0.8605638
0.1944165 0.2944120 0.8609909
0.1943903 0.2949961 0.8609715
0.1943649 0.2955939 0.8609446
0.1943417 0.2961989 0.8609218
0.1943204 0.2968085 0.8608954
0.1943009 0.2974171 0.8608674
0.1944199 0.2921892 0.8610497
0.1944095 0.2927879 0.8610408
0.1943966 0.2933931 0.8610269
0.1943847 0.2940037 0.8610086
0.1943520 0.2983556 0.8608157
0.1943549 0.2989795 0.8607898
0.1943587 0.2996010 0.8607634
0.1943627 0.3002209 0.8607380
0.1943646 0.3008412 0.8607095
0.1943672 0.3014615 0.8606825
0.1943700 0.3020814 0.8606569
0.1943750 0.3045548 0.8605707
0.1945739 0.3031316 0.8606084
0.1945912 0.3037651 0.8605870
0.1946000 0.3044160 0.8605664
0.1950471 0.2926356 0.8609531
0.1950321 0.2932184 0.8609459
0.1950164 0.2938047 0.8609310
0.1949884 0.2943859 0.8609165
0.1949663 0.2949721 0.8609003
0.1949461 0.2955713 0.8608809
0.1949285 0.2961773 0.8608619
0.1949123 0.2967872 0.8608399
0.1948976 0.2973954 0.8608164
0.1948839 0.2980010 0.8607920
0.1950083 0.2921582 0.8609648
0.1949684 0.2989890 0.8607458
0.1949718 0.2996093 0.8607257
0.1949746 0.3002274 0.8607045
0.1949768 0.3008473 0.8606808
0.1949796 0.3014668 0.8606586
0.1949827 0.3020856 0.8606379
0.1949934 0.3045568 0.8605679
0.1951508 0.3031414 0.8605973
0.1951598 0.3037642 0.8605809
0.1951662 0.3044127 0.8605626
0.1956250 0.2926063 0.8608682
0.1956103 0.2931924 0.8608619
0.1955954 0.2937817 0.8608479
0.1955691 0.2943622 0.8608409
0.1955491 0.2949507 0.8608276
0.1955322 0.2955508 0.8608134
0.1955186 0.2961579 0.8607965
0.1955068 0.2967691 0.8607778
0.1954967 0.2973774 0.8607570
0.1954888 0.2979841 0.8607339
0.1955870 0.2989936 0.8606933
0.1955894 0.2996139 0.8606780
0.1955904 0.3002325 0.8606606
0.1955916 0.3008531 0.8606420
0.1955944 0.3014719 0.8606248
0.1955975 0.3020900 0.8606083
0.1956010 0.3027078 0.8605924
0.1956063 0.3039457 0.8605667
0.1956102 0.3045610 0.8605532
0.1957488 0.3037646 0.8605698
0.1962103 0.2925700 0.8607784
0.1961976 0.2931612 0.8607746
0.1961828 0.2937532 0.8607650
0.1961623 0.2943378 0.8607621
0.1961470 0.2949326 0.8607521
0.1961334 0.2955388 0.8607414
0.1961224 0.2961499 0.8607297
0.1961128 0.2967629 0.8607148
0.1961051 0.2973732 0.8606982
0.1962053 0.2983754 0.8606641
0.1962048 0.2989990 0.8606495
0.1962052 0.2996186 0.8606341
0.1962039 0.3002377 0.8606207
0.1962037 0.3008588 0.8606084
0.1962063 0.3014765 0.8605955
0.1962094 0.3020935 0.8605830
0.1962127 0.3027101 0.8605709
0.1962152 0.3033275 0.8605598
0.1962181 0.3039481 0.8605509
0.1962241 0.3045654 0.8605405
0.1967977 0.2925355 0.8606855
0.1967855 0.2931323 0.8606839
0.1967710 0.2937283 0.8606791
0.1967538 0.2943179 0.8606805
0.1967411 0.2949180 0.8606717
0.1967301 0.2955275 0.8606634
0.1967209 0.2961398 0.8606558
0.1967138 0.2967541 0.8606467
0.1967074 0.2973663 0.8606331
0.1967049 0.2979776 0.8606240
0.1967030 0.2985859 0.8606145
0.1967026 0.2991976 0.8606055
0.1968226 0.3002416 0.8605738
0.1968205 0.3008630 0.8605652
0.1968207 0.3014811 0.8605559
0.1968227 0.3020968 0.8605467
0.1968245 0.3027115 0.8605374
0.1968262 0.3033278 0.8605282
0.1968276 0.3039493 0.8605198
0.1968325 0.3045704 0.8605106
0.1973941 0.2925003 0.8605858
0.1973827 0.2931019 0.8605874
0.1973686 0.2937022 0.8605875
0.1973514 0.2943000 0.8605915
0.1973384 0.2949066 0.8605884
0.1973277 0.2955191 0.8605852
0.1973179 0.2961337 0.8605821
0.1973115 0.2967488 0.8605748
0.1973064 0.2973626 0.8605671
0.1973055 0.2979753 0.8605634
0.1973059 0.2985857 0.8605587
0.1973080 0.2991988 0.8605543
0.1973119 0.2998159 0.8605466
0.1973155 0.3004312 0.8605373
0.1973201 0.3010459 0.8605297
0.1974377 0.3020975 0.8605093
0.1974372 0.3027122 0.8605027
0.1974371 0.3033287 0.8604963
0.1974373 0.3039519 0.8604905
0.1974416 0.3045757 0.8604836
0.1979898 0.2924663 0.8604877
0.1979779 0.2930732 0.8604926
0.1979653 0.2936796 0.8604974
0.1979511 0.2942844 0.8605031
0.1979401 0.2948964 0.8605067
0.1979298 0.2955114 0.8605077
0.1979209 0.2961284 0.8605075
0.1979140 0.2967469 0.8605073
0.1979103 0.2973637 0.8605043
0.1979101 0.2979782 0.8605038
0.1979115 0.2985908 0.8605027
0.1979143 0.2992056 0.8605013
0.1979195 0.2998231 0.8604950
0.1979244 0.3004385 0.8604902
0.1979299 0.3010538 0.8604855
0.1979360 0.3016714 0.8604804
0.1980509 0.3027113 0.8604640
0.1980487 0.3033282 0.8604595
0.1980473 0.3039535 0.8604552
0.1980506 0.3045804 0.8604495
0.1985814 0.2924414 0.8603901
0.1985716 0.2930527 0.8603968
0.1985620 0.2936634 0.8604062
0.1985507 0.2942736 0.8604147
0.1985417 0.2948892 0.8604240
0.1985326 0.2955063 0.8604304
0.1985247 0.2961256 0.8604353
0.1985179 0.2967465 0.8604383
0.1985147 0.2973657 0.8604398
0.1985147 0.2979816 0.8604426
0.1985197 0.2992124 0.8604463
0.1985257 0.2998302 0.8604413
0.1985373 0.3010617 0.8604377
0.1985444 0.3016795 0.8604348
0.1987053 0.2989969 0.8604261
0.1986810 0.3008573 0.8604234
0.1986645 0.3027093 0.8604200
0.1986597 0.3033268 0.8604171
0.1986566 0.3039548 0.8604138
0.1986583 0.3045851 0.8604086
0.1991771 0.2924236 0.8602884
0.1991713 0.2930384 0.8603002
0.1991646 0.2936526 0.8603130
0.1991560 0.2942667 0.8603261
0.1991486 0.2948847 0.8603403
0.1991403 0.2955040 0.8603515
0.1991337 0.2961247 0.8603608
0.1991262 0.2967475 0.8603669
0.1991230 0.2973687 0.8603729
0.1991244 0.2979863 0.8603772
0.1991312 0.2992209 0.8603869
0.1991374 0.2998392 0.8603839
0.1991423 0.3004559 0.8603833
0.1991479 0.3010727 0.8603841
0.1991542 0.3016911 0.8603827
0.1991622 0.3023114 0.8603804
0.1993315 0.2989875 0.8603653
0.1992761 0.3033198 0.8603656
0.1992701 0.3039516 0.8603624
0.1992669 0.3045894 0.8603570
0.1997720 0.2924158 0.8601882
0.1997708 0.2930340 0.8602022
0.1997690 0.2936495 0.8602198
0.1997640 0.2942651 0.8602364
0.1997589 0.2948838 0.8602570
0.1997518 0.2955036 0.8602712
0.1997464 0.2961240 0.8602846
0.1997391 0.2967473 0.8602938
0.1997340 0.2973711 0.8603044
0.1997336 0.2979922 0.8603100
0.1997397 0.2992317 0.8603239
0.1997459 0.2998497 0.8603232
0.1997502 0.3004672 0.8603253
0.1997549 0.3010849 0.8603273
0.1997600 0.3017039 0.8603266
0.1997662 0.3023238 0.8603247
0.1997835 0.3035608 0.8603166
0.1997935 0.3041513 0.8603112
0.1997992 0.3047657 0.8603039
0.1999564 0.2989775 0.8602992
0.1998963 0.3033103 0.8603075
0.2003657 0.2924196 0.8600865
0.2003711 0.2930393 0.8601037
0.2003748 0.2936537 0.8601268
0.2003638 0.2955048 0.8601892
0.2003596 0.2961251 0.8602065
0.2003520 0.2967495 0.8602200
0.2003461 0.2973754 0.8602345
0.2003486 0.2992421 0.8602573
0.2003546 0.2998594 0.8602573
0.2003588 0.3004773 0.8602619
0.2003630 0.3010957 0.8602651
0.2003673 0.3017151 0.8602653
0.2003722 0.3023350 0.8602633
0.2003846 0.3035694 0.8602536
0.2003913 0.3041624 0.8602470
0.2003947 0.3047778 0.8602379
0.2005336 0.2947566 0.8601481
0.2005649 0.2953539 0.8601658
0.2005901 0.2983520 0.8602232
0.2005798 0.2989662 0.8602330
0.2005233 0.3032988 0.8602419
0.2009605 0.2924343 0.8599850
0.2009728 0.2930532 0.8600084
0.2009810 0.2936644 0.8600337
0.2009761 0.2955078 0.8601063
0.2009710 0.2961280 0.8601273
0.2009641 0.2967530 0.8601443
0.2009571 0.2973805 0.8601624
0.2009548 0.2992528 0.8601891
0.2009608 0.2998690 0.8601886
0.2009655 0.3004869 0.8601951
0.2009697 0.3011054 0.8601989
0.2009736 0.3017251 0.8601988
0.2009770 0.3023461 0.8601958
0.2009830 0.3029643 0.8601900
0.2009869 0.3035764 0.8601826
0.2009903 0.3041720 0.8601735
0.2009908 0.3047890 0.8601619
0.2011474 0.2947983 0.8600619
0.2011821 0.2953861 0.8600789
0.2012072 0.2983432 0.8601526
0.2012017 0.2989507 0.8601638
0.2015571 0.2924583 0.8598865
0.2015760 0.2930754 0.8599135
0.2015882 0.2936825 0.8599405
0.2015829 0.2961326 0.8600467
0.2015768 0.2967573 0.8600671
0.2015685 0.2973854 0.8600876
0.2015638 0.2992610 0.8601172
0.2015691 0.2998764 0.8601180
