# 3D Systems, Inc.
# New Model
0.2170887 0.2140777 0.8096319
0.2170823 0.2146645 0.8096138
0.2170700 0.2152452 0.8095865
0.2170567 0.2158251 0.8095594
0.2170414 0.2164000 0.8095326
0.2166652 0.2213630 0.8090835
0.2165916 0.2218579 0.8090175
0.2173533 0.2240627 0.8079603
0.2172653 0.2245617 0.8078673
0.2180861 0.2257524 0.8070234
0.2180170 0.2262520 0.8069357
0.2179528 0.2267522 0.8068497
0.2178948 0.2272552 0.8067689
0.2178419 0.2277664 0.8066907
0.2167596 0.2173242 0.8096271
0.2167291 0.2178638 0.8095987
0.2166918 0.2183969 0.8095678
0.2166469 0.2189212 0.8095294
0.2165964 0.2194274 0.8094878
0.2165333 0.2199071 0.8094437
0.2164673 0.2203832 0.8094009
0.2163955 0.2208429 0.8093525
0.2172636 0.2223689 0.8084794
0.2171803 0.2228660 0.8084011
0.2170924 0.2233519 0.8083215
0.2180779 0.2241045 0.8074967
0.2179864 0.2246060 0.8074085
0.2179038 0.2251104 0.8073190
0.2185531 0.2272186 0.8063688
0.2185013 0.2277166 0.8062956
0.2175102 0.2105254 0.8095139
0.2175046 0.2111164 0.8094935
0.2174992 0.2117093 0.8094703
0.2175027 0.2123100 0.8094572
0.2175063 0.2129112 0.8094399
0.2175050 0.2135080 0.8094169
0.2175028 0.2141020 0.8093943
0.2175006 0.2146935 0.8093764
0.2174906 0.2152761 0.8093519
0.2174769 0.2158560 0.8093283
0.2174596 0.2164290 0.8093013
0.2170570 0.2212549 0.8088861
0.2169820 0.2217332 0.8088281
0.2178410 0.2234122 0.8078415
0.2185105 0.2256169 0.8068006
0.2184430 0.2261253 0.8067104
0.2183783 0.2266332 0.8066191
0.2171564 0.2173297 0.8093952
0.2171246 0.2178564 0.8093698
0.2170859 0.2183764 0.8093427
0.2170372 0.2188852 0.8093100
0.2169819 0.2193740 0.8092753
0.2169124 0.2198371 0.8092354
0.2168455 0.2202966 0.8092014
0.2167703 0.2207398 0.8091612
0.2182371 0.2103315 0.8090056
0.2182255 0.2109071 0.8089982
0.2182153 0.2114836 0.8089912
0.2182083 0.2120636 0.8089850
0.2182059 0.2126409 0.8089839
0.2181975 0.2132160 0.8089751
0.2181894 0.2137927 0.8089641
0.2181779 0.2143647 0.8089485
0.2177390 0.2217413 0.8083596
0.2176535 0.2222393 0.8082775
0.2175684 0.2227255 0.8082028
0.2185726 0.2234409 0.8073748
0.2184822 0.2239560 0.8072829
0.2183978 0.2244632 0.8071915
0.2183191 0.2249707 0.8070969
0.2189709 0.2271106 0.8061363
0.2189213 0.2276185 0.8060580
0.2178860 0.2153068 0.8091076
0.2178731 0.2158830 0.8090857
0.2178583 0.2164508 0.8090650
0.2178365 0.2170075 0.8090378
0.2178095 0.2175585 0.8090048
0.2177785 0.2181058 0.8089701
0.2177375 0.2186454 0.8089273
0.2176907 0.2191720 0.8088854
0.2176373 0.2196856 0.8088386
0.2175782 0.2201826 0.8087909
0.2175115 0.2206614 0.8087416
0.2174373 0.2211336 0.8086926
0.2189058 0.2117583 0.8084657
0.2189004 0.2123208 0.8084766
0.2184869 0.2217261 0.8078962
0.2184012 0.2222510 0.8078010
0.2183229 0.2227670 0.8077143
0.2189309 0.2254893 0.8065689
0.2188659 0.2260016 0.8064728
0.2188072 0.2265180 0.8063773
0.2185764 0.2103080 0.8087451
0.2185757 0.2108940 0.8087377
0.2185787 0.2114793 0.8087331
0.2185859 0.2132373 0.8087179
0.2185839 0.2138190 0.8087070
0.2185796 0.2143986 0.8086931
0.2185769 0.2149771 0.8086845
0.2183823 0.2195435 0.8084094
0.2183237 0.2200847 0.8083429
0.2182624 0.2206101 0.8082816
0.2181952 0.2211229 0.8082148
0.2189678 0.2233018 0.8071586
0.2188887 0.2238178 0.8070655
0.2188136 0.2243281 0.8069718
0.2187412 0.2248380 0.8068726
0.2194017 0.2270042 0.8058958
0.2193552 0.2275218 0.8058154
0.2182550 0.2159084 0.8088360
0.2182378 0.2164706 0.8088174
0.2182169 0.2170160 0.8087956
0.2181914 0.2175543 0.8087670
0.2181592 0.2180858 0.8087346
0.2181192 0.2186086 0.8087016
0.2180715 0.2191182 0.8086651
0.2192838 0.2117711 0.8082005
0.2192865 0.2123414 0.8082100
0.2188714 0.2216125 0.8076629
0.2188006 0.2221302 0.8075821
0.2187282 0.2226381 0.8074991
0.2195683 0.2238122 0.8066255
0.2194947 0.2243328 0.8065295
0.2194259 0.2248486 0.8064329
0.2193610 0.2253657 0.8063347
0.2193001 0.2258842 0.8062347
0.2192443 0.2264092 0.8061362
0.2199264 0.2279618 0.8053881
0.2188974 0.2102988 0.8084771
0.2189042 0.2108940 0.8084662
0.2189167 0.2114871 0.8084606
0.2189494 0.2132667 0.8084484
0.2189536 0.2138518 0.8084392
0.2189576 0.2144363 0.8084311
0.2189578 0.2150154 0.8084225
0.2187577 0.2194823 0.8081736
0.2187035 0.2200043 0.8081199
0.2186428 0.2205127 0.8080636
0.2185735 0.2210109 0.8080007
0.2195252 0.2221190 0.8071123
0.2194502 0.2226482 0.8070256
0.2193733 0.2231685 0.8069326
0.2200120 0.2253453 0.8059241
0.2199476 0.2258649 0.8058307
0.2198884 0.2263834 0.8057401
0.2198358 0.2269027 0.8056509
0.2197927 0.2274309 0.8055698
0.2186398 0.2159347 0.8086019
0.2186223 0.2164906 0.8085820
0.2186014 0.2170235 0.8085629
0.2185763 0.2175469 0.8085389
0.2185409 0.2180617 0.8085075
0.2184987 0.2185657 0.8084790
0.2184459 0.2190568 0.8084446
0.2196057 0.2100562 0.8079032
0.2196185 0.2106378 0.8079148
0.2196290 0.2112179 0.8079247
0.2196361 0.2117964 0.8079309
0.2196449 0.2123729 0.8079381
0.2196518 0.2129509 0.8079436
0.2192611 0.2214989 0.8074363
0.2200588 0.2231493 0.8064834
0.2199852 0.2236808 0.8063893
0.2199155 0.2242051 0.8062909
0.2198512 0.2247262 0.8061924
0.2203699 0.2278815 0.8051424
0.2193225 0.2138891 0.8081796
0.2193297 0.2144770 0.8081697
0.2193293 0.2150537 0.8081581
0.2193250 0.2156212 0.8081482
0.2193156 0.2161850 0.8081341
0.2193004 0.2167410 0.8081164
0.2192808 0.2172903 0.8080930
0.2192556 0.2178297 0.8080636
0.2192229 0.2183701 0.8080290
0.2191780 0.2188969 0.8079868
0.2191317 0.2194144 0.8079470
0.2190764 0.2199148 0.8078987
0.2190172 0.2204049 0.8078433
0.2189509 0.2208899 0.8077869
0.2203085 0.2103384 0.8073291
0.2203150 0.2109092 0.8073474
0.2203200 0.2114783 0.8073678
0.2203248 0.2120444 0.8073875
0.2203295 0.2126150 0.8074043
0.2200534 0.2209129 0.8070432
0.2199856 0.2214615 0.8069605
0.2199170 0.2219973 0.8068778
0.2198492 0.2225247 0.8067913
0.2204399 0.2252307 0.8056860
0.2203811 0.2257544 0.8055922
0.2203264 0.2262794 0.8054983
0.2202786 0.2268072 0.8054075
0.2202358 0.2273413 0.8053229
0.2200093 0.2135707 0.8076723
0.2200213 0.2141476 0.8076806
0.2200264 0.2147235 0.8076804
0.2200230 0.2153007 0.8076708
0.2200179 0.2158763 0.8076573
0.2199507 0.2181665 0.8075567
0.2199135 0.2187287 0.8075140
0.2198692 0.2192824 0.8074631
0.2198212 0.2198257 0.8074048
0.2197704 0.2203567 0.8073460
0.2204724 0.2230263 0.8062432
0.2204053 0.2235584 0.8061490
0.2203413 0.2240853 0.8060509
0.2202801 0.2246110 0.8059486
0.2208983 0.2267552 0.8050441
0.2208548 0.2272788 0.8049648
0.2208137 0.2278029 0.8048862
0.2196723 0.2167503 0.8078632
0.2196541 0.2172840 0.8078427
0.2196302 0.2178026 0.8078181
0.2206251 0.2103642 0.8070476
0.2206441 0.2109388 0.8070710
0.2206607 0.2115116 0.8070936
0.2206761 0.2120827 0.8071150
0.2206891 0.2126554 0.8071335
0.2204371 0.2208170 0.8067939
0.2203743 0.2213557 0.8067171
0.2203132 0.2218853 0.8066391
0.2202512 0.2224085 0.8065553
0.2209376 0.2245875 0.8055364
0.2208774 0.2251169 0.8054420
0.2208212 0.2256462 0.8053456
0.2207699 0.2261783 0.8052496
0.2203613 0.2136159 0.8074013
0.2203742 0.2141921 0.8074055
0.2203832 0.2147633 0.8074076
0.2203828 0.2153329 0.8074026
0.2203801 0.2158997 0.8073959
0.2203137 0.2181323 0.8073088
0.2202779 0.2186783 0.8072681
0.2202365 0.2192170 0.8072205
0.2201918 0.2197434 0.8071685
0.2201472 0.2202628 0.8071142
0.2212590 0.2100275 0.8064030
0.2210208 0.2218410 0.8061772
0.2209538 0.2223796 0.8060932
0.2208894 0.2229137 0.8060038
0.2208257 0.2234434 0.8059071
0.2207665 0.2239729 0.8058084
0.2213945 0.2261305 0.8048769
0.2213460 0.2266627 0.8047869
0.2213040 0.2271932 0.8047082
0.2212672 0.2277252 0.8046359
0.2200347 0.2167591 0.8076145
0.2200153 0.2172748 0.8075950
0.2199920 0.2177704 0.8075757
0.2209535 0.2109834 0.8067750
0.2209833 0.2115602 0.8068017
0.2210178 0.2121344 0.8068381
0.2210395 0.2127072 0.8068600
0.2210552 0.2132815 0.8068745
0.2210714 0.2138566 0.8068888
0.2210440 0.2179296 0.8068231
0.2210137 0.2185080 0.8067860
0.2209741 0.2190759 0.8067404
0.2209264 0.2196326 0.8066814
0.2208772 0.2201823 0.8066229
0.2208225 0.2207226 0.8065546
0.2207658 0.2212518 0.8064830
0.2215602 0.2228639 0.8055618
0.2214952 0.2234077 0.8054734
0.2214302 0.2239464 0.8053809
0.2213683 0.2244793 0.8052849
0.2213109 0.2250128 0.8051888
0.2212578 0.2255455 0.8050904
0.2207456 0.2148067 0.8071499
0.2207473 0.2153691 0.8071488
0.2207445 0.2159259 0.8071443
0.2207350 0.2164811 0.8071331
0.2207217 0.2170241 0.8071168
0.2207017 0.2175611 0.8070946
0.2215730 0.2100883 0.8061155
0.2216031 0.2106570 0.8061546
0.2216322 0.2112232 0.8061941
0.2216638 0.2117903 0.8062370
0.2216907 0.2123560 0.8062731
0.2215347 0.2206384 0.8060744
0.2214783 0.2211899 0.8060047
0.2214177 0.2217324 0.8059272
0.2213546 0.2222692 0.8058404
0.2218385 0.2260360 0.8046156
0.2217933 0.2265732 0.8045304
0.2217524 0.2271097 0.8044515
0.2217173 0.2276500 0.8043806
0.2213964 0.2133375 0.8065933
0.2214216 0.2139072 0.8066160
0.2214390 0.2144777 0.8066280
0.2214438 0.2150494 0.8066288
0.2214482 0.2156215 0.8066295
0.2214468 0.2161940 0.8066247
0.2214402 0.2167654 0.8066140
0.2214247 0.2173337 0.8065923
0.2214043 0.2178986 0.8065660
0.2213752 0.2184577 0.8065308
0.2213361 0.2190106 0.8064852
0.2212950 0.2195555 0.8064371
0.2212498 0.2200898 0.8063797
0.2219755 0.2227564 0.8053054
0.2219155 0.2232995 0.8052196
0.2218538 0.2238378 0.8051259
0.2217977 0.2243735 0.8050328
0.2217417 0.2249097 0.8049317
0.2216961 0.2254469 0.8048390
0.2218872 0.2101492 0.8058285
0.2219266 0.2107189 0.8058691
0.2219641 0.2112867 0.8059099
0.2219963 0.2118550 0.8059461
0.2220291 0.2124217 0.8059833
0.2219167 0.2205438 0.8058196
0.2218652 0.2210888 0.8057522
0.2218099 0.2216266 0.8056758
0.2217558 0.2221642 0.8055927
0.2224354 0.2243245 0.8046232
0.2223811 0.2248625 0.8045351
0.2223318 0.2254018 0.8044491
0.2222849 0.2259435 0.8043626
0.2222427 0.2264834 0.8042784
0.2222058 0.2270254 0.8041991
0.2221728 0.2275725 0.8041252
0.2217383 0.2133990 0.8063211
0.2217666 0.2139645 0.8063416
0.2217902 0.2145290 0.8063576
0.2217964 0.2150918 0.8063599
0.2217998 0.2156522 0.8063651
0.2217958 0.2162125 0.8063611
0.2217896 0.2167674 0.8063543
0.2217745 0.2173177 0.8063360
0.2217548 0.2178595 0.8063121
0.2217308 0.2184018 0.8062813
0.2216948 0.2189393 0.8062393
0.2216535 0.2194724 0.8061884
0.2216135 0.2199942 0.8061311
0.2225574 0.2103776 0.8052231
0.2225973 0.2109378 0.8052752
0.2226358 0.2114987 0.8053275
0.2225039 0.2215602 0.8052072
0.2224448 0.2221090 0.8051327
0.2223870 0.2226523 0.8050518
0.2223288 0.2231929 0.8049619
0.2222736 0.2237316 0.8048697
0.2227741 0.2274976 0.8037861
0.2223657 0.2124901 0.8057023
0.2224017 0.2130558 0.8057384
0.2224341 0.2136236 0.8057709
0.2224762 0.2176576 0.8057963
0.2224514 0.2182319 0.8057642
0.2224175 0.2187971 0.8057249
0.2223802 0.2193536 0.8056791
0.2223395 0.2199048 0.8056272
0.2222967 0.2204520 0.8055685
0.2222491 0.2209916 0.8055021
0.2230396 0.2225743 0.8046177
0.2229826 0.2231303 0.8045358
0.2229243 0.2236821 0.8044530
0.2228705 0.2242258 0.8043680
0.2228200 0.2247673 0.8042813
0.2227746 0.2253102 0.8041965
0.2227316 0.2258533 0.8041114
0.2226924 0.2263958 0.8040285
0.2226575 0.2269435 0.8039462
0.2221390 0.2145828 0.8060850
0.2221462 0.2151366 0.8060894
0.2221472 0.2156834 0.8060983
0.2221411 0.2162298 0.8060971
0.2221355 0.2167670 0.8060952
0.2221216 0.2172980 0.8060811
0.2228658 0.2104462 0.8049315
0.2229103 0.2110100 0.8049810
0.2229566 0.2115725 0.8050354
0.2230026 0.2121337 0.8050890
0.2230448 0.2126990 0.8051383
0.2230812 0.2132726 0.8051800
0.2229962 0.2203529 0.8050745
0.2229459 0.2209097 0.8050131
0.2228935 0.2214594 0.8049441
0.2228424 0.2220073 0.8048723
0.2232321 0.2274217 0.8035284
0.2228017 0.2142485 0.8055175
0.2228241 0.2148097 0.8055380
0.2228350 0.2153757 0.8055498
0.2228422 0.2159418 0.8055571
0.2228417 0.2165068 0.8055565
0.2228352 0.2170672 0.8055476
0.2228213 0.2176240 0.8055319
0.2228019 0.2181785 0.8055050
0.2227736 0.2187293 0.8054680
0.2227424 0.2192748 0.8054258
0.2227083 0.2198177 0.8053764
0.2234583 0.2224779 0.8043528
0.2234059 0.2230325 0.8042748
0.2233529 0.2235834 0.8041948
0.2233034 0.2241289 0.8041121
0.2232560 0.2246739 0.8040265
0.2232127 0.2252201 0.8039407
0.2231731 0.2257645 0.8038559
0.2231366 0.2263104 0.8037736
0.2231064 0.2268661 0.8036911
0.2231698 0.2105167 0.8046453
0.2232278 0.2110823 0.8046985
0.2232794 0.2116464 0.8047492
0.2233293 0.2122081 0.8048003
0.2233767 0.2127711 0.8048495
0.2234181 0.2133378 0.8048930
0.2233723 0.2202645 0.8048144
0.2233289 0.2208173 0.8047546
0.2232842 0.2213648 0.8046896
0.2232396 0.2219132 0.8046189
0.2237572 0.2262538 0.8034152
0.2237206 0.2267994 0.8033426
0.2236902 0.2273469 0.8032786
0.2231404 0.2143036 0.8052438
0.2231619 0.2148550 0.8052638
0.2231707 0.2154094 0.8052780
0.2231776 0.2159595 0.8052881
0.2231768 0.2165087 0.8052922
0.2231700 0.2170489 0.8052819
0.2231586 0.2175848 0.8052695
0.2231460 0.2181222 0.8052454
0.2231240 0.2186600 0.8052094
0.2230952 0.2191968 0.8051662
0.2230681 0.2197316 0.8051158
0.2237825 0.2101724 0.8039734
0.2238365 0.2107294 0.8040388
0.2238895 0.2112847 0.8041071
0.2239417 0.2118427 0.8041733
0.2240537 0.2201496 0.8043327
0.2240074 0.2207138 0.8042827
0.2239649 0.2212755 0.8042239
0.2239192 0.2218330 0.8041618
0.2238713 0.2223867 0.8040916
0.2238239 0.2229390 0.8040163
0.2237762 0.2234883 0.8039366
0.2237320 0.2240355 0.8038557
0.2236898 0.2245852 0.8037718
0.2236529 0.2251353 0.8036876
0.2236196 0.2256820 0.8036033
0.2242633 0.2278068 0.8028972
0.2237049 0.2128453 0.8045651
0.2237475 0.2134043 0.8046076
0.2237919 0.2139652 0.8046521
0.2238284 0.2145287 0.8046895
0.2238441 0.2150971 0.8047048
0.2238709 0.2168121 0.8047290
0.2238642 0.2173820 0.8047199
0.2238533 0.2179495 0.8047046
0.2238375 0.2185140 0.8046807
0.2238097 0.2190715 0.8046451
0.2237791 0.2196277 0.8046031
0.2242455 0.2256210 0.8032390
0.2242091 0.2261714 0.8031670
0.2241760 0.2267217 0.8030961
0.2241480 0.2272757 0.8030310
0.2235147 0.2159763 0.8050160
0.2235124 0.2165078 0.8050247
0.2240915 0.2102555 0.8036789
0.2241530 0.2108136 0.8037427
0.2242132 0.2113695 0.8038091
0.2242748 0.2119242 0.8038795
0.2243256 0.2124830 0.8039393
0.2243707 0.2130452 0.8039962
0.2245222 0.2183447 0.8041609
0.2244952 0.2189255 0.8041304
0.2244657 0.2194975 0.8040957
0.2244319 0.2200664 0.8040559
0.2243943 0.2206282 0.8040085
0.2243561 0.2211869 0.8039527
0.2243162 0.2217426 0.8038911
0.2242766 0.2222973 0.8038257
0.2242357 0.2228489 0.8037548
0.2241970 0.2233993 0.8036814
0.2241592 0.2239494 0.8036042
0.2241229 0.2245036 0.8035221
0.2240917 0.2250569 0.8034343
0.2247230 0.2277394 0.8026410
0.2241338 0.2140257 0.8043621
0.2241720 0.2145768 0.8044031
0.2241831 0.2151342 0.8044200
0.2241952 0.2156911 0.8044400
0.2241992 0.2162473 0.8044481
0.2242034 0.2168012 0.8044534
0.2242006 0.2173524 0.8044505
0.2241968 0.2178993 0.8044381
0.2246909 0.2255384 0.8029845
0.2246612 0.2260914 0.8029185
0.2246285 0.2266450 0.8028418
0.2246042 0.2272056 0.8027780
0.2244019 0.2103470 0.8033694
0.2244680 0.2109030 0.8034362
0.2245326 0.2114569 0.8035036
0.2246054 0.2120076 0.8035819
0.2246587 0.2125626 0.8036441
0.2247088 0.2131173 0.8037029
0.2248818 0.2182887 0.8038843
0.2248566 0.2188582 0.8038525
0.2248348 0.2194234 0.8038220
0.2248064 0.2199860 0.8037818
0.2247781 0.2205459 0.8037375
0.2247465 0.2211024 0.8036872
0.2247126 0.2216579 0.8036288
0.2246764 0.2222130 0.8035633
0.2246392 0.2227645 0.8034968
0.2246066 0.2233160 0.8034285
0.2245714 0.2238674 0.8033520
0.2245396 0.2244250 0.8032712
0.2245168 0.2249795 0.8031817
0.2252705 0.2260138 0.8025494
0.2252361 0.2265695 0.8024921
0.2252071 0.2271211 0.8024376
0.2251837 0.2276747 0.8023906
0.2244656 0.2140837 0.8040850
0.2245017 0.2146241 0.8041217
0.2245133 0.2151679 0.8041431
0.2245259 0.2157078 0.8041694
0.2245271 0.2162490 0.8041771
0.2245333 0.2167852 0.8041838
0.2245353 0.2173189 0.8041847
0.2245364 0.2178487 0.8041734
0.2250412 0.2105456 0.8027643
0.2254548 0.2204244 0.8032579
0.2254218 0.2209909 0.8032175
0.2253847 0.2215548 0.8031685
0.2253460 0.2221156 0.8031153
0.2253087 0.2226756 0.8030588
0.2252680 0.2232339 0.8029940
0.2252272 0.2237896 0.8029266
0.2251913 0.2243467 0.8028625
0.2251547 0.2249017 0.8027899
0.2251281 0.2254581 0.8027252
0.2248583 0.2115491 0.8032137
0.2249280 0.2120959 0.8032852
0.2249875 0.2126459 0.8033502
0.2250428 0.2131921 0.8034086
0.2250949 0.2137424 0.8034644
0.2251402 0.2142958 0.8035144
0.2251746 0.2148535 0.8035531
0.2251954 0.2154182 0.8035779
0.2252169 0.2159809 0.8036014
0.2252313 0.2165440 0.8036172
0.2252392 0.2171075 0.8036240
0.2252350 0.2176679 0.8036189
0.2252328 0.2182310 0.8036074
0.2252147 0.2187910 0.8035830
0.2251980 0.2193502 0.8035527
0.2251784 0.2199097 0.8035171
0.2258318 0.2242504 0.8024637
0.2257925 0.2248105 0.8024052
0.2257597 0.2253735 0.8023562
0.2257250 0.2259361 0.8022999
0.2256935 0.2264933 0.8022428
0.2256680 0.2270493 0.8021902
0.2256464 0.2276087 0.8021434
0.2085658 0.2279922 0.8117820
0.2085845 0.2285374 0.8117468
0.2085940 0.2290861 0.8117195
0.2086031 0.2296326 0.8117040
0.2086118 0.2301683 0.8116989
0.2086214 0.2307156 0.8117054
0.2086294 0.2312589 0.8117209
0.2086429 0.2318096 0.8117474
0.2086593 0.2323513 0.8117849
0.2086972 0.2334392 0.8118798
0.2087131 0.2339760 0.8119409
0.2090735 0.2279728 0.8115568
0.2090754 0.2285156 0.8115163
0.2090743 0.2290637 0.8114880
0.2090738 0.2296132 0.8114713
0.2090733 0.2301641 0.8114624
0.2090787 0.2307219 0.8114677
0.2090854 0.2312814 0.8114804
0.2090998 0.2318403 0.8115047
0.2091216 0.2323899 0.8115444
0.2091697 0.2334854 0.8116424
0.2091910 0.2340216 0.8117027
0.2095630 0.2279149 0.8113290
0.2095491 0.2284589 0.8112836
0.2095375 0.2290139 0.8112579
0.2095256 0.2295756 0.8112385
0.2095196 0.2301446 0.8112314
0.2095217 0.2307185 0.8112358
0.2095283 0.2312969 0.8112485
0.2095434 0.2318695 0.8112686
0.2095679 0.2324330 0.8113082
0.2095962 0.2329897 0.8113550
0.2096279 0.2335414 0.8114117
0.2096549 0.2340799 0.8114709
0.2102656 0.2284430 0.8109273
0.2102686 0.2289491 0.8108884
0.2102635 0.2294558 0.8108588
0.2102561 0.2299643 0.8108381
0.2102575 0.2304837 0.8108399
0.2102576 0.2310076 0.8108466
0.2102598 0.2315342 0.8108593
0.2102712 0.2320586 0.8108851
0.2102924 0.2325758 0.8109335
0.2103104 0.2330903 0.8109837
0.2100430 0.2278395 0.8111146
0.2101153 0.2341529 0.8112434
0.2101496 0.2346906 0.8113169
0.2101796 0.2352157 0.8113891
0.2107346 0.2283761 0.8106992
0.2107235 0.2288878 0.8106571
0.2107094 0.2294038 0.8106272
0.2106940 0.2299323 0.8106034
0.2106912 0.2304689 0.8106017
0.2106903 0.2310137 0.8106067
0.2106966 0.2315549 0.8106179
0.2107166 0.2320925 0.8106447
0.2107416 0.2326224 0.8106933
0.2107683 0.2331502 0.8107454
0.2105064 0.2277497 0.8108969
0.2105718 0.2342380 0.8110156
0.2106147 0.2347777 0.8110893
0.2106505 0.2353030 0.8111617
0.2114377 0.2293405 0.8102454
0.2114299 0.2298225 0.8102074
0.2114297 0.2302961 0.8101901
0.2114358 0.2307799 0.8101904
0.2114315 0.2312666 0.8101966
0.2114376 0.2317532 0.8102179
0.2114522 0.2322291 0.8102519
0.2114654 0.2327128 0.8102965
0.2111899 0.2282848 0.8104723
0.2111652 0.2288076 0.8104317
0.2112377 0.2337371 0.8105692
0.2109603 0.2276493 0.8106860
0.2110719 0.2348798 0.8108595
0.2111164 0.2354074 0.8109357
0.2111534 0.2359288 0.8110105
0.2112043 0.2454337 0.8110532
0.2118771 0.2292701 0.8099921
0.2118600 0.2297637 0.8099574
0.2118557 0.2302603 0.8099464
0.2118563 0.2307662 0.8099436
0.2118542 0.2312741 0.8099517
0.2118661 0.2317791 0.8099725
0.2118829 0.2322726 0.8100086
0.2119059 0.2327739 0.8100608
0.2116312 0.2281863 0.8102531
0.2115938 0.2287224 0.8102082
0.2116813 0.2338250 0.8103387
0.2115210 0.2349963 0.8106265
0.2115714 0.2355273 0.8107032
0.2116162 0.2360431 0.8107817
0.2116538 0.2447866 0.8108777
0.2115908 0.2453020 0.8108071
0.2123117 0.2291931 0.8097568
0.2122867 0.2297082 0.8097233
0.2122742 0.2302269 0.8097081
0.2122717 0.2307544 0.8097075
0.2122704 0.2312869 0.8097126
0.2122851 0.2318146 0.8097339
0.2123066 0.2323299 0.8097702
0.2123332 0.2328403 0.8098210
0.2120672 0.2280832 0.8100372
0.2120201 0.2286316 0.8099906
0.2121196 0.2339270 0.8101107
0.2123347 0.2452918 0.8102867
0.2130435 0.2291410 0.8093473
0.2130155 0.2295918 0.8093122
0.2129953 0.2300635 0.8092880
0.2129932 0.2305322 0.8092818
0.2129956 0.2310122 0.8092860
0.2130014 0.2314805 0.8092955
0.2130128 0.2319502 0.8093160
0.2130321 0.2324102 0.8093583
0.2119708 0.2351194 0.8104035
0.2120226 0.2356551 0.8104763
0.2120700 0.2361723 0.8105483
0.2121088 0.2366794 0.8106217
0.2121431 0.2371832 0.8106967
0.2121638 0.2436079 0.8107740
0.2121100 0.2441217 0.8107075
0.2120545 0.2446361 0.8106515
0.2127997 0.2280867 0.8096275
0.2127675 0.2285943 0.8095774
0.2127900 0.2334292 0.8096424
0.2126065 0.2345726 0.8099485
0.2126560 0.2350907 0.8100222
0.2127224 0.2451294 0.8100691
0.2134664 0.2290521 0.8091038
0.2134367 0.2295277 0.8090685
0.2134137 0.2300212 0.8090420
0.2134102 0.2305128 0.8090390
0.2134086 0.2310173 0.8090410
0.2134135 0.2315140 0.8090493
0.2134259 0.2320012 0.8090726
0.2134485 0.2324787 0.8091184
0.2134743 0.2329513 0.8091620
0.2125238 0.2363128 0.8103198
0.2125653 0.2368154 0.8103946
0.2126009 0.2373124 0.8104668
0.2125719 0.2434606 0.8105421
0.2125034 0.2439583 0.8104721
0.2124310 0.2444581 0.8104146
0.2132310 0.2279727 0.8094085
0.2131818 0.2284904 0.8093480
0.2132576 0.2340337 0.8094738
0.2132964 0.2345336 0.8095456
0.2135346 0.2452524 0.8094567
0.2134478 0.2457085 0.8094103
0.2145435 0.2464109 0.8084411
0.2131440 0.2357316 0.8098622
0.2131750 0.2444589 0.8099195
0.2138871 0.2289626 0.8088722
0.2138541 0.2294606 0.8088333
0.2138282 0.2299758 0.8088039
0.2138231 0.2304923 0.8087999
0.2138204 0.2310224 0.8087989
0.2138265 0.2315420 0.8088055
0.2138421 0.2320537 0.8088312
0.2138701 0.2325516 0.8088820
0.2139002 0.2330430 0.8089291
0.2142836 0.2453274 0.8089228
0.2141930 0.2457647 0.8088576
0.2130034 0.2369517 0.8101705
0.2130440 0.2374435 0.8102386
0.2129609 0.2433000 0.8103013
0.2128917 0.2437841 0.8102497
0.2136528 0.2278559 0.8091841
0.2135949 0.2283875 0.8091201
0.2136941 0.2341527 0.8092375
0.2137407 0.2346631 0.8093105
0.2137831 0.2351577 0.8093779
0.2139554 0.2445528 0.8093513
0.2146175 0.2289100 0.8084436
0.2145822 0.2293643 0.8084089
0.2145527 0.2298378 0.8083762
0.2145440 0.2303034 0.8083681
0.2145388 0.2307705 0.8083695
0.2145382 0.2312497 0.8083712
0.2145500 0.2317151 0.8083864
0.2145650 0.2321728 0.8084134
0.2148505 0.2462480 0.8082719
0.2143445 0.2283650 0.8086909
0.2143250 0.2331411 0.8086963
0.2143611 0.2336335 0.8087506
0.2144048 0.2341136 0.8088077
0.2146185 0.2451309 0.8087375
0.2145311 0.2455788 0.8086778
0.2152263 0.2301381 0.8079526
0.2152220 0.2305623 0.8079536
0.2134288 0.2370933 0.8099496
0.2134687 0.2375761 0.8100163
0.2134937 0.2380579 0.8100843
0.2134168 0.2426577 0.8101257
0.2133550 0.2431314 0.8100803
0.2132820 0.2436006 0.8100391
0.2142238 0.2352966 0.8091448
0.2143177 0.2443622 0.8091504
0.2150763 0.2283440 0.8082556
0.2150253 0.2288157 0.8082076
0.2149908 0.2292976 0.8081692
0.2149614 0.2297882 0.8081335
0.2149474 0.2312650 0.8081224
0.2149591 0.2317548 0.8081397
0.2149813 0.2322304 0.8081750
0.2150075 0.2327027 0.8082196
0.2153278 0.2452117 0.8082364
0.2152500 0.2456518 0.8081623
0.2151752 0.2460779 0.8080926
0.2147847 0.2337516 0.8085186
0.2148300 0.2342443 0.8085803
0.2156310 0.2301011 0.8077114
0.2156234 0.2305458 0.8077103
0.2156182 0.2310101 0.8077104
0.2156225 0.2314674 0.8077162
0.2156327 0.2319110 0.8077399
0.2157570 0.2461370 0.8076690
0.2138474 0.2372390 0.8097333
0.2138783 0.2377111 0.8097993
0.2138960 0.2381730 0.8098598
0.2138084 0.2424974 0.8099024
0.2137496 0.2429458 0.8098650
0.2136689 0.2433934 0.8098258
0.2146589 0.2354397 0.8089177
0.2146867 0.2441646 0.8089473
0.2154917 0.2282347 0.8080329
0.2154390 0.2287221 0.8079802
0.2153991 0.2292238 0.8079327
0.2153692 0.2297328 0.8078930
0.2154215 0.2327880 0.8079840
0.2154540 0.2332719 0.8080316
0.2154875 0.2337441 0.8080877
0.2156699 0.2450205 0.8080496
0.2155957 0.2454707 0.8079722
0.2144818 0.2366647 0.8092506
0.2145281 0.2371567 0.8093162
0.2144775 0.2429595 0.8093722
0.2144074 0.2434187 0.8093223
0.2153089 0.2348785 0.8084124
0.2154206 0.2442690 0.8084281
0.2160956 0.2291058 0.8075293
0.2160655 0.2295843 0.8074869
0.2160433 0.2300624 0.8074661
0.2160361 0.2305304 0.8074605
0.2160342 0.2310172 0.8074600
0.2160349 0.2314938 0.8074676
0.2160461 0.2319565 0.8074924
0.2161161 0.2459632 0.8074829
0.2142795 0.2382839 0.8096507
0.2141855 0.2423252 0.8096924
0.2151288 0.2360914 0.8087478
0.2151823 0.2365871 0.8088130
0.2152301 0.2430242 0.8088728
0.2151564 0.2435045 0.8088063
0.2158990 0.2281253 0.8078062
0.2158479 0.2286301 0.8077485
0.2158358 0.2328756 0.8077456
0.2158690 0.2333775 0.8077947
0.2159066 0.2338670 0.8078553
0.2160342 0.2448269 0.8078705
0.2159602 0.2452863 0.8077883
0.2149695 0.2377781 0.8091561
0.2149294 0.2423235 0.8092035
0.2157324 0.2350216 0.8081784
0.2158020 0.2440745 0.8082259
0.2165485 0.2285501 0.8073321
0.2165085 0.2290342 0.8072877
0.2164757 0.2295293 0.8072394
0.2164513 0.2300250 0.8072097
0.2164455 0.2305174 0.8072026
0.2164437 0.2310215 0.8072022
0.2164471 0.2315154 0.8072111
0.2164612 0.2320005 0.8072401
0.2164959 0.2324731 0.8072857
0.2164989 0.2457952 0.8072875
0.2146823 0.2388188 0.8094826
0.2147021 0.2392418 0.8095083
0.2147161 0.2396565 0.8095265
0.2146703 0.2413335 0.8095314
0.2146235 0.2417435 0.8095096
0.2155450 0.2362392 0.8085239
0.2155954 0.2367380 0.8085854
0.2156273 0.2428480 0.8086564
0.2155493 0.2433087 0.8085803
0.2162876 0.2334837 0.8075569
0.2163304 0.2339906 0.8076176
0.2163793 0.2344831 0.8076802
0.2164842 0.2441655 0.8077548
0.2164130 0.2446388 0.8076757
0.2163438 0.2451053 0.8075880
0.2171176 0.2298559 0.8068279
0.2171040 0.2303018 0.8068199
0.2170038 0.2462551 0.8068298
0.2153575 0.2378982 0.8089375
0.2153172 0.2421497 0.8089934
0.2162060 0.2356700 0.8080128
0.2162608 0.2361748 0.8080718
0.2169597 0.2284612 0.8070987
0.2169211 0.2289657 0.8070484
0.2168883 0.2294745 0.8069982
0.2168535 0.2310260 0.8069529
0.2168583 0.2315395 0.8069633
0.2168768 0.2320467 0.8069946
0.2169093 0.2325420 0.8070438
0.2169397 0.2330350 0.8070883
0.2169713 0.2335192 0.8071484
0.2170148 0.2447017 0.8072736
0.2169520 0.2451691 0.8071810
0.2168922 0.2456309 0.8070858
0.2150572 0.2389100 0.8092675
0.2150803 0.2393025 0.8092903
0.2150949 0.2396776 0.8092987
0.2150417 0.2411915 0.8093138
0.2149948 0.2415682 0.8092934
0.2160514 0.2373760 0.8084216
0.2160814 0.2422010 0.8084853
0.2160314 0.2426684 0.8084273
0.2159665 0.2431161 0.8083628
0.2168034 0.2346178 0.8074483
0.2168561 0.2351243 0.8075093
0.2169117 0.2356323 0.8075679
0.2168817 0.2439707 0.8075515
0.2175313 0.2298142 0.8065859
0.2175178 0.2302822 0.8065753
0.2173866 0.2461128 0.8066311
0.2157685 0.2384663 0.8087645
0.2157945 0.2389137 0.8088021
0.2167497 0.2427266 0.8079547
0.2166900 0.2432192 0.8078709
0.2173753 0.2283742 0.8068654
0.2173350 0.2288934 0.8068037
0.2173009 0.2294203 0.8067504
0.2172634 0.2310330 0.8067033
0.2172713 0.2315673 0.8067178
0.2172926 0.2320929 0.8067525
0.2173250 0.2326126 0.8068010
0.2173556 0.2331234 0.8068522
0.2173866 0.2336266 0.8069105
0.2174092 0.2445186 0.8070714
0.2173544 0.2449991 0.8069737
0.2173029 0.2454708 0.8068739
0.2154600 0.2397004 0.8090774
0.2154633 0.2400263 0.8090892
0.2154558 0.2403467 0.8090885
0.2154462 0.2407047 0.8090955
0.2154021 0.2410528 0.8090937
0.2153545 0.2414038 0.8090716
0.2164484 0.2375152 0.8082007
0.2164902 0.2380014 0.8082549
0.2165248 0.2384970 0.8082969
0.2164783 0.2420440 0.8082459
0.2172257 0.2347502 0.8072126
0.2172742 0.2352644 0.8072768
0.2173265 0.2357762 0.8073393
0.2173006 0.2437953 0.8073371
0.2179967 0.2287903 0.8064163
0.2179667 0.2292851 0.8063678
0.2179440 0.2297748 0.8063342
0.2179317 0.2302620 0.8063185
0.2179282 0.2307606 0.8063099
0.2179250 0.2312624 0.8063118
0.2179305 0.2317541 0.8063334
0.2179529 0.2322361 0.8063689
0.2178349 0.2455081 0.8065348
0.2177865 0.2459802 0.8064243
0.2161807 0.2393943 0.8086000
0.2161865 0.2398035 0.8086155
0.2161933 0.2402024 0.8086245
0.2161888 0.2406040 0.8086170
0.2161707 0.2410213 0.8085984
0.2161385 0.2414169 0.8085737
0.2171746 0.2425637 0.8077189
0.2171272 0.2430460 0.8076374
0.2177942 0.2282878 0.8066192
0.2177768 0.2332137 0.8066068
0.2178103 0.2337333 0.8066664
0.2178541 0.2342377 0.8067332
0.2178301 0.2443510 0.8068587
0.2177809 0.2448367 0.8067608
0.2185453 0.2305271 0.8059467
0.2185428 0.2309926 0.8059459
0.2185390 0.2314463 0.8059571
0.2168406 0.2376484 0.8079754
0.2168780 0.2381167 0.8080247
0.2169079 0.2385880 0.8080653
0.2168851 0.2418928 0.8080084
0.2176965 0.2354004 0.8070405
0.2177457 0.2359141 0.8071065
0.2178362 0.2426182 0.8072836
0.2177836 0.2431394 0.8071989
0.2177358 0.2436305 0.8071101
0.2184558 0.2282121 0.8062337
0.2184184 0.2287168 0.8061746
0.2183862 0.2292230 0.8061267
0.2183664 0.2297324 0.8060890
0.2183543 0.2302436 0.8060711
0.2183742 0.2322916 0.8061211
0.2184019 0.2327871 0.8061674
0.2184304 0.2332701 0.8062224
0.2182413 0.2453710 0.8063333
0.2182037 0.2458550 0.8062144
0.2165685 0.2394353 0.8083597
0.2165749 0.2397942 0.8083744
0.2165890 0.2401436 0.8083830
0.2165776 0.2405221 0.8083725
0.2165676 0.2409057 0.8083538
0.2165366 0.2412942 0.8083345
0.2175394 0.2371124 0.8074464
0.2182822 0.2343560 0.8064915
0.2183279 0.2348696 0.8065566
0.2183757 0.2353852 0.8066199
0.2182785 0.2441883 0.8066321
0.2182375 0.2446865 0.8065308
0.2189691 0.2305194 0.8056959
0.2189668 0.2310023 0.8056956
0.2189645 0.2314727 0.8057077
0.2172663 0.2382268 0.8077937
0.2172965 0.2386781 0.8078319
0.2173113 0.2391159 0.8078634
0.2173257 0.2395587 0.8078778
0.2173348 0.2400042 0.8078890
0.2173343 0.2409148 0.8078526
0.2173179 0.2413563 0.8078159
0.2172968 0.2417741 0.8077699
0.2182114 0.2365680 0.8069335
0.2182606 0.2370956 0.8069953
0.2183066 0.2376457 0.8070532
0.2182643 0.2424697 0.8070378
0.2182236 0.2429867 0.8069611
0.2181847 0.2434790 0.8068703
0.2188765 0.2281269 0.8059911
0.2188426 0.2286428 0.8059307
0.2188115 0.2291673 0.8058757
0.2187892 0.2296921 0.8058397
0.2187796 0.2302255 0.8058197
0.2188011 0.2323456 0.8058752
0.2188293 0.2328607 0.8059250
0.2188543 0.2333641 0.8059781
0.2186638 0.2457324 0.8059901
0.2169681 0.2404715 0.8081203
0.2180540 0.2387460 0.8073510
0.2180609 0.2418085 0.8072836
0.2187157 0.2344739 0.8062439
0.2187585 0.2349953 0.8063157
0.2188023 0.2355149 0.8063809
0.2187375 0.2440489 0.8064014
0.2187043 0.2445512 0.8062927
0.2186772 0.2450504 0.8061706
0.2194549 0.2285359 0.8055756
0.2194360 0.2290335 0.8055242
0.2194145 0.2295303 0.8054796
0.2193990 0.2300205 0.8054565
0.2193970 0.2305155 0.8054427
0.2193958 0.2310153 0.8054432
0.2193958 0.2315019 0.8054544
0.2194117 0.2319868 0.8054821
0.2194323 0.2324768 0.8055224
0.2194500 0.2329571 0.8055671
0.2177194 0.2395783 0.8076361
0.2177321 0.2399889 0.8076413
0.2177423 0.2404038 0.8076362
0.2177485 0.2408410 0.8076036
0.2177389 0.2412682 0.8075686
0.2186270 0.2366990 0.8066937
0.2186723 0.2372184 0.8067574
0.2187130 0.2377550 0.8068120
0.2187112 0.2423414 0.8067995
0.2186772 0.2428507 0.8067202
0.2186449 0.2433413 0.8066208
0.2193099 0.2280430 0.8057415
0.2193286 0.2339723 0.8057925
0.2191661 0.2451169 0.8058882
0.2191386 0.2456195 0.8057589
0.2184537 0.2388149 0.8071084
0.2184862 0.2417043 0.8070318
0.2191895 0.2351189 0.8060714
0.2192321 0.2356419 0.8061398
0.2192754 0.2361650 0.8062046
0.2192398 0.2434056 0.8062659
0.2192075 0.2439218 0.8061640
0.2191830 0.2444245 0.8060511
0.2198962 0.2284682 0.8053301
0.2198728 0.2289793 0.8052753
0.2198516 0.2294913 0.8052307
0.2198378 0.2299985 0.8052049
0.2198334 0.2305095 0.8051914
0.2198332 0.2310233 0.8051920
0.2198335 0.2315250 0.8052047
0.2198479 0.2320322 0.8052314
0.2198699 0.2325336 0.8052692
0.2198943 0.2330316 0.8053170
0.2199250 0.2335189 0.8053670
0.2181342 0.2396217 0.8073751
0.2181544 0.2400039 0.8073719
0.2181671 0.2403922 0.8073593
0.2181826 0.2407975 0.8073248
0.2181761 0.2412210 0.8072885
0.2190832 0.2373409 0.8065164
0.2191221 0.2378629 0.8065671
0.2191572 0.2383946 0.8066133
0.2191800 0.2417100 0.8066104
0.2191561 0.2422280 0.8065472
0.2191322 0.2427318 0.8064685
0.2198075 0.2345944 0.8056128
0.2198502 0.2351161 0.8056752
0.2196555 0.2449928 0.8056413
0.2196298 0.2455064 0.8055213
0.2188845 0.2393425 0.8068751
0.2188970 0.2398056 0.8068866
0.2189117 0.2402612 0.8068845
0.2189153 0.2407407 0.8068647
0.2189156 0.2411818 0.8068286
0.2197027 0.2362879 0.8059657
0.2197453 0.2368163 0.8060294
0.2197862 0.2373623 0.8060912
0.2197094 0.2432853 0.8060150
0.2196839 0.2438031 0.8059206
0.2196622 0.2443107 0.8058101
0.2203423 0.2284012 0.8050858
0.2203167 0.2289235 0.8050287
0.2202932 0.2294493 0.8049842
0.2202764 0.2299732 0.8049528
0.2202710 0.2304979 0.8049401
0.2202715 0.2310287 0.8049412
0.2202759 0.2315495 0.8049567
0.2202907 0.2320741 0.8049838
0.2203123 0.2325916 0.8050227
0.2203373 0.2331046 0.8050722
0.2203664 0.2336087 0.8051223
0.2195709 0.2384792 0.8063612
0.2196034 0.2389951 0.8064000
0.2196204 0.2395280 0.8064225
0.2196314 0.2400588 0.8064274
0.2196288 0.2405941 0.8064112
0.2196248 0.2411125 0.8063856
0.2196146 0.2416290 0.8063391
0.2196039 0.2421362 0.8062844
0.2195924 0.2426316 0.8062145
0.2202467 0.2347025 0.8053710
0.2202858 0.2352313 0.8054340
0.2201352 0.2453967 0.8052894
0.2208819 0.2302888 0.8046050
0.2208845 0.2307771 0.8045933
0.2208861 0.2312617 0.8045981
0.2208925 0.2317463 0.8046161
0.2201334 0.2364037 0.8057251
0.2201701 0.2369314 0.8057859
0.2202084 0.2374694 0.8058445
0.2201866 0.2431774 0.8057682
0.2201666 0.2436943 0.8056798
0.2201485 0.2442056 0.8055726
0.2201349 0.2447126 0.8054576
0.2207840 0.2283320 0.8048272
0.2207594 0.2288649 0.8047737
0.2207360 0.2294019 0.8047296
0.2207226 0.2299421 0.8047021
0.2207577 0.2326484 0.8047748
0.2207791 0.2331776 0.8048208
0.2208120 0.2336954 0.8048791
0.2208443 0.2342131 0.8049399
0.2208818 0.2347327 0.8050006
0.2199911 0.2385629 0.8061139
0.2200219 0.2390534 0.8061424
0.2200384 0.2395643 0.8061581
0.2200531 0.2400707 0.8061636
0.2200576 0.2405822 0.8061532
0.2200639 0.2410679 0.8061287
0.2200637 0.2415660 0.8060879
0.2200601 0.2420583 0.8060335
0.2200490 0.2425511 0.8059613
0.2207644 0.2358746 0.8052582
0.2207223 0.2437047 0.8053702
0.2206877 0.2442428 0.8052718
0.2206590 0.2447706 0.8051667
0.2206339 0.2452896 0.8050518
0.2213286 0.2297657 0.8043701
0.2213263 0.2302706 0.8043500
0.2213303 0.2307730 0.8043423
0.2213307 0.2312741 0.8043499
0.2213364 0.2317753 0.8043686
0.2213539 0.2322727 0.8043943
0.2213739 0.2327653 0.8044325
0.2205986 0.2370434 0.8055427
0.2206337 0.2375730 0.8055963
0.2206654 0.2381078 0.8056447
0.2207005 0.2420266 0.8056622
0.2206803 0.2425632 0.8055995
0.2206578 0.2430863 0.8055193
0.2212368 0.2282627 0.8045746
0.2212108 0.2288063 0.8045202
0.2211874 0.2293549 0.8044764
0.2212589 0.2337794 0.8046305
0.2212897 0.2343080 0.8046894
0.2213290 0.2348333 0.8047535
0.2204405 0.2391171 0.8058904
0.2204600 0.2396033 0.8059060
0.2204756 0.2400919 0.8059081
0.2204846 0.2405832 0.8059002
0.2204961 0.2410404 0.8058767
0.2205058 0.2415202 0.8058364
0.2212013 0.2359861 0.8050148
0.2212379 0.2365213 0.8050766
0.2212757 0.2370640 0.8051360
0.2212124 0.2436108 0.8051322
0.2211803 0.2441472 0.8050370
0.2211537 0.2446754 0.8049361
0.2211302 0.2451963 0.8048256
0.2217774 0.2297360 0.8041130
0.2217751 0.2302526 0.8040943
0.2217782 0.2307702 0.8040854
0.2217789 0.2312873 0.8040927
0.2217875 0.2318047 0.8041135
0.2218051 0.2323162 0.8041410
0.2218244 0.2328238 0.8041802
0.2210893 0.2381972 0.8053993
0.2211161 0.2387204 0.8054409
0.2211357 0.2392557 0.8054665
0.2211553 0.2397942 0.8054860
0.2211666 0.2403384 0.8054932
0.2211671 0.2408864 0.8054827
0.2211646 0.2414286 0.8054557
0.2211572 0.2419639 0.8054155
0.2211412 0.2424909 0.8053547
0.2211258 0.2430076 0.8052803
0.2216879 0.2281945 0.8043178
0.2216617 0.2287471 0.8042619
0.2216439 0.2293105 0.8042198
0.2217085 0.2338623 0.8043799
0.2217378 0.2344011 0.8044392
0.2217733 0.2349345 0.8045034
0.2216367 0.2360966 0.8047680
0.2216703 0.2366307 0.8048298
0.2217051 0.2371692 0.8048870
0.2216957 0.2435221 0.8048834
0.2216717 0.2440584 0.8048026
0.2216495 0.2445872 0.8047086
0.2216279 0.2451090 0.8046030
0.2222886 0.2281035 0.8039785
0.2222648 0.2286348 0.8039290
0.2222457 0.2291683 0.8038863
0.2222310 0.2296996 0.8038605
0.2222257 0.2302330 0.8038402
0.2222251 0.2307669 0.8038316
0.2222289 0.2313012 0.8038414
0.2222374 0.2318324 0.8038625
0.2222559 0.2323594 0.8038925
0.2222735 0.2328819 0.8039312
0.2222955 0.2333990 0.8039778
0.2215107 0.2382878 0.8051504
0.2215320 0.2387923 0.8051888
0.2215515 0.2393100 0.8052134
0.2215727 0.2398225 0.8052283
0.2215899 0.2403446 0.8052354
0.2215956 0.2408723 0.8052250
0.2216027 0.2413948 0.8052043
0.2216043 0.2419131 0.8051671
0.2215928 0.2424291 0.8051089
0.2215834 0.2429388 0.8050417
0.2221895 0.2344948 0.8041923
0.2222215 0.2350350 0.8042569
0.2222537 0.2355720 0.8043208
0.2228120 0.2300473 0.8035197
0.2228132 0.2305471 0.8035021
0.2228148 0.2310370 0.8035048
0.2221048 0.2367391 0.8045856
0.2221353 0.2372728 0.8046420
0.2221674 0.2378093 0.8046922
0.2221809 0.2434442 0.8046469
0.2221609 0.2439782 0.8045708
0.2221395 0.2445050 0.8044778
0.2221191 0.2450257 0.8043761
0.2227455 0.2280350 0.8037255
0.2227210 0.2285736 0.8036736
0.2227023 0.2291175 0.8036320
0.2226882 0.2296611 0.8036047
0.2226934 0.2318631 0.8036111
0.2227107 0.2324059 0.8036407
0.2227288 0.2329430 0.8036816
0.2227508 0.2334725 0.8037304
0.2227789 0.2339982 0.8037858
0.2228096 0.2345214 0.8038410
0.2219572 0.2388662 0.8049330
0.2219742 0.2393660 0.8049593
0.2219998 0.2398613 0.8049742
0.2220195 0.2403612 0.8049787
0.2220315 0.2408737 0.8049692
0.2220455 0.2413769 0.8049487
0.2220551 0.2418775 0.8049135
0.2220518 0.2423824 0.8048630
0.2220473 0.2428848 0.8047986
0.2227002 0.2356749 0.8040743
0.2227323 0.2362137 0.8041382
0.2227653 0.2367563 0.8041991
0.2232721 0.2300210 0.8032652
0.2232749 0.2305325 0.8032472
0.2232775 0.2310381 0.8032509
0.2225999 0.2379024 0.8044501
0.2226284 0.2384320 0.8044933
0.2226527 0.2389680 0.8045294
0.2226764 0.2395128 0.8045607
0.2226958 0.2400624 0.8045838
0.2227025 0.2406204 0.8045869
0.2226591 0.2433751 0.8044169
0.2226426 0.2439050 0.8043445
0.2226225 0.2444301 0.8042554
0.2226056 0.2449492 0.8041619
0.2232046 0.2279664 0.8034716
0.2231810 0.2285148 0.8034201
0.2231633 0.2290684 0.8033798
0.2231485 0.2296249 0.8033524
0.2231509 0.2318902 0.8033594
0.2231666 0.2324514 0.8033907
0.2231858 0.2330023 0.8034338
0.2232093 0.2335453 0.8034846
0.2232371 0.2340817 0.8035399
0.2232666 0.2346144 0.8035971
0.2225144 0.2413780 0.8046866
0.2225316 0.2418629 0.8046556
0.2225296 0.2423571 0.8046105
0.2225281 0.2428506 0.8045536
0.2231479 0.2357745 0.8038313
0.2231784 0.2363145 0.8038956
0.2232093 0.2368548 0.8039560
0.2237574 0.2289402 0.8030599
0.2237415 0.2294697 0.8030355
0.2237362 0.2299945 0.8030138
0.2237368 0.2305210 0.8029960
0.2237395 0.2310426 0.8029999
0.2237474 0.2315630 0.8030171
0.2237631 0.2320846 0.8030360
0.2237803 0.2325972 0.8030678
0.2237976 0.2331106 0.8031122
0.2230345 0.2379940 0.8042051
0.2230615 0.2385120 0.8042459
0.2230851 0.2390336 0.8042850
0.2231086 0.2395614 0.8043171
0.2231294 0.2400906 0.8043344
0.2231413 0.2406309 0.8043395
0.2231335 0.2433144 0.8041851
0.2231227 0.2438415 0.8041202
0.2231079 0.2443647 0.8040388
0.2230946 0.2448800 0.8039510
0.2236643 0.2278996 0.8032205
0.2236424 0.2284563 0.8031676
0.2236949 0.2341639 0.8032976
0.2237232 0.2347052 0.8033553
0.2237539 0.2352468 0.8034108
0.2229709 0.2413801 0.8044374
0.2229959 0.2418523 0.8044088
0.2229979 0.2423370 0.8043679
0.2229981 0.2428248 0.8043102
0.2236263 0.2364113 0.8036567
0.2236537 0.2369513 0.8037122
0.2236825 0.2374924 0.8037665
0.2237113 0.2380363 0.8038188
0.2237382 0.2385931 0.8038650
0.2242416 0.2283479 0.8028472
0.2242228 0.2288899 0.8028103
0.2242102 0.2294280 0.8027847
0.2242026 0.2299656 0.8027627
0.2242015 0.2305064 0.8027493
0.2242028 0.2310457 0.8027515
0.2242138 0.2315818 0.8027673
0.2242280 0.2321176 0.8027874
0.2242420 0.2326453 0.8028188
0.2242581 0.2331706 0.8028637
0.2242808 0.2336906 0.8029099
0.2243075 0.2342092 0.8029667
0.2235451 0.2396122 0.8040734
0.2235664 0.2401275 0.8040919
0.2235815 0.2406513 0.8040959
0.2236079 0.2411678 0.8040948
0.2236267 0.2416888 0.8040831
0.2236248 0.2422173 0.8040557
0.2236121 0.2427432 0.8040081
0.2236095 0.2432683 0.8039604
0.2236017 0.2437905 0.8038982
0.2235919 0.2443100 0.8038253
0.2235818 0.2448182 0.8037433
0.2242085 0.2353417 0.8031731
0.2242406 0.2358844 0.8032343
0.2242726 0.2364286 0.8032912
0.2241253 0.2375823 0.8035291
0.2241527 0.2381207 0.8035795
0.2241786 0.2386623 0.8036252
0.2242029 0.2392114 0.8036629
0.2242279 0.2397650 0.8037007
0.2242401 0.2403301 0.8037202
0.2241991 0.2442762 0.8035544
0.2241755 0.2448137 0.8034793
0.2247040 0.2282871 0.8025951
0.2246859 0.2288364 0.8025577
0.2246733 0.2293864 0.8025352
0.2246668 0.2299357 0.8025105
0.2246647 0.2304907 0.8025019
0.2246658 0.2310468 0.8025052
0.2246751 0.2315997 0.8025214
0.2246887 0.2321498 0.8025390
0.2247024 0.2326945 0.8025689
0.2247214 0.2332329 0.8026140
0.2247450 0.2337643 0.8026646
0.2247703 0.2342930 0.8027201
0.2240838 0.2411796 0.8038400
0.2241115 0.2416860 0.8038313
0.2241095 0.2422026 0.8038114
0.2240970 0.2427182 0.8037679
0.2240993 0.2432390 0.8037274
0.2240945 0.2437560 0.8036722
0.2246615 0.2354349 0.8029339
0.2246906 0.2359799 0.8029929
0.2247220 0.2365246 0.8030518
0.2245690 0.2376674 0.8032866
0.2245932 0.2382005 0.8033350
0.2246154 0.2387303 0.8033792
0.2246443 0.2392663 0.8034252
0.2246708 0.2398044 0.8034592
0.2246863 0.2403521 0.8034799
0.2247072 0.2409069 0.8034965
0.2247220 0.2414651 0.8035091
0.2247257 0.2420219 0.8035080
0.2247152 0.2425788 0.8034746
0.2247032 0.2431291 0.8034338
0.2246992 0.2436758 0.8033963
0.2246803 0.2442155 0.8033352
0.2246614 0.2447472 0.8032668
0.2251639 0.2282274 0.8023423
0.2251479 0.2287852 0.8023069
0.2251391 0.2293455 0.8022877
0.2251304 0.2299060 0.8022613
0.2251276 0.2304746 0.8022560
0.2251285 0.2310458 0.8022583
0.2251343 0.2316149 0.8022747
0.2251473 0.2321806 0.8022952
0.2251615 0.2327430 0.8023249
0.2251825 0.2332940 0.8023706
0.2252078 0.2338361 0.8024258
0.2252307 0.2343740 0.8024786
0.2252591 0.2349121 0.8025328
0.2251402 0.2360731 0.8027581
0.2251704 0.2366177 0.8028176
0.2252037 0.2371636 0.8028764
0.2257306 0.2302636 0.8019333
0.2257299 0.2307931 0.8019427
0.2257385 0.2313177 0.8019442
0.2257543 0.2318452 0.8019603
0.2257672 0.2323674 0.8019830
0.2250285 0.2382811 0.8031101
0.2250523 0.2387937 0.8031541
0.2250810 0.2393186 0.8031998
0.2251028 0.2398444 0.8032258
0.2251275 0.2403784 0.8032469
0.2251513 0.2409238 0.8032581
0.2251799 0.2414627 0.8032806
0.2251876 0.2420052 0.8032777
0.2251824 0.2425499 0.8032505
0.2251743 0.2430898 0.8032170
0.2251663 0.2436271 0.8031757
0.2251510 0.2441606 0.8031232
0.2251336 0.2446831 0.8030564
0.2256262 0.2281674 0.8020957
0.2256110 0.2287339 0.8020622
0.2256015 0.2293036 0.8020385
0.2255941 0.2298756 0.8020212
0.2256433 0.2333545 0.8021350
0.2256681 0.2339109 0.8021840
0.2256927 0.2344592 0.8022359
0.2257216 0.2350046 0.8022924
0.2257553 0.2355506 0.8023526
0.2257899 0.2360965 0.8024106
0.2086476 0.2616826 0.8121047
0.2086557 0.2622077 0.8121820
0.2086659 0.2627290 0.8122582
0.2091711 0.2616766 0.8119339
0.2091834 0.2622102 0.8120157
0.2091964 0.2627402 0.8120996
0.2096438 0.2582469 0.8113595
0.2096545 0.2588285 0.8114138
0.2096668 0.2594051 0.8114811
0.2096837 0.2605476 0.8116183
0.2096878 0.2611142 0.8116950
0.2096863 0.2616697 0.8117614
0.2097013 0.2622122 0.8118481
0.2097175 0.2627515 0.8119385
0.2102986 0.2472270 0.8113503
0.2102512 0.2477640 0.8112860
0.2102079 0.2483148 0.8112306
0.2101608 0.2488729 0.8111761
0.2101209 0.2494432 0.8111321
0.2100820 0.2500208 0.8110903
0.2100457 0.2506014 0.8110528
0.2100170 0.2511835 0.8110197
0.2099914 0.2517669 0.8109898
0.2099732 0.2523544 0.8109693
0.2099643 0.2529419 0.8109546
0.2099615 0.2541200 0.8109463
0.2099682 0.2547090 0.8109491
0.2100173 0.2564696 0.8110103
0.2100294 0.2570557 0.8110323
0.2100497 0.2576417 0.8110678
0.2100777 0.2582256 0.8111237
0.2101028 0.2588073 0.8111827
0.2101278 0.2593846 0.8112510
0.2101474 0.2599615 0.8113165
0.2101694 0.2605323 0.8113946
0.2101886 0.2611021 0.8114863
0.2102016 0.2616643 0.8115707
0.2102171 0.2622183 0.8116665
0.2102358 0.2627657 0.8117690
0.2106686 0.2471533 0.8111044
0.2106139 0.2477022 0.8110441
0.2105561 0.2482640 0.8109843
0.2104961 0.2488417 0.8109313
0.2104468 0.2494291 0.8108895
0.2104037 0.2500189 0.8108529
0.2103680 0.2506072 0.8108170
0.2103458 0.2511958 0.8107887
0.2103271 0.2517837 0.8107623
0.2103131 0.2523705 0.8107414
0.2103107 0.2529567 0.8107283
0.2103176 0.2535420 0.8107224
0.2103235 0.2541261 0.8107169
0.2103339 0.2547119 0.8107169
0.2103534 0.2552982 0.8107269
0.2103754 0.2558820 0.8107463
0.2104115 0.2564691 0.8107816
0.2104342 0.2570520 0.8108074
0.2104698 0.2576371 0.8108480
0.2105082 0.2582206 0.8109015
0.2105472 0.2588022 0.8109621
0.2105870 0.2593801 0.8110348
0.2106197 0.2599586 0.8111035
0.2106536 0.2605318 0.8111859
0.2106872 0.2611022 0.8112866
0.2107109 0.2616688 0.8113777
0.2107327 0.2622297 0.8114835
0.2107542 0.2627829 0.8115933
0.2113398 0.2481028 0.8104179
0.2112861 0.2486341 0.8103725
0.2111554 0.2459660 0.8109924
0.2110868 0.2464997 0.8109142
0.2110233 0.2470502 0.8108547
0.2109536 0.2476174 0.8107914
0.2107636 0.2494128 0.8106567
0.2107143 0.2500180 0.8106267
0.2106749 0.2506146 0.8105874
0.2106546 0.2512103 0.8105580
0.2106335 0.2518021 0.8105225
0.2106235 0.2523899 0.8104953
0.2106361 0.2529780 0.8104866
0.2106520 0.2535631 0.8104779
0.2106685 0.2541451 0.8104734
0.2106845 0.2547269 0.8104719
0.2107165 0.2553153 0.8104861
0.2107534 0.2558975 0.8105123
0.2107998 0.2564877 0.8105476
0.2108327 0.2570697 0.8105748
0.2108841 0.2576519 0.8106229
0.2109376 0.2582376 0.8106777
0.2109969 0.2588177 0.8107519
0.2110481 0.2593971 0.8108222
0.2110978 0.2599741 0.8109014
0.2111424 0.2605482 0.8109863
0.2111889 0.2611173 0.8110922
0.2112219 0.2616860 0.8111840
0.2112552 0.2622470 0.8112999
0.2112799 0.2628042 0.8114176
0.2121830 0.2480142 0.8097983
0.2121157 0.2484785 0.8097600
0.2120567 0.2489797 0.8097284
0.2120059 0.2494973 0.8096940
0.2119602 0.2500368 0.8096621
0.2118434 0.2464328 0.8103722
0.2117852 0.2469450 0.8103145
0.2117240 0.2474715 0.8102588
0.2114101 0.2509061 0.8100014
0.2113891 0.2514918 0.8099755
0.2113821 0.2520732 0.8099572
0.2113768 0.2526531 0.8099397
0.2113878 0.2532342 0.8099400
0.2114043 0.2538138 0.8099466
0.2114310 0.2543932 0.8099640
0.2114496 0.2549741 0.8099747
0.2114832 0.2555554 0.8100091
0.2115137 0.2561368 0.8100410
0.2115588 0.2567145 0.8100969
0.2115987 0.2572917 0.8101568
0.2116383 0.2578671 0.8102227
0.2116804 0.2584358 0.8103050
0.2117222 0.2590051 0.8104061
0.2117539 0.2595730 0.8105119
0.2115161 0.2458219 0.8107293
0.2116330 0.2605817 0.8107885
0.2116903 0.2611485 0.8108965
0.2117347 0.2617161 0.8109946
0.2117743 0.2622789 0.8111109
0.2118046 0.2628363 0.8112339
0.2127082 0.2465127 0.8097303
0.2126292 0.2469602 0.8096874
0.2125503 0.2474225 0.8096484
0.2124709 0.2479040 0.8096030
0.2123987 0.2484048 0.8095625
0.2123374 0.2489319 0.8095266
0.2122850 0.2494777 0.8094885
0.2122361 0.2500361 0.8094495
0.2121977 0.2505989 0.8094157
0.2121764 0.2511637 0.8093958
0.2121583 0.2517327 0.8093772
0.2121463 0.2523050 0.8093646
0.2121509 0.2528732 0.8093685
0.2121626 0.2534448 0.8093809
0.2121764 0.2540181 0.8093976
0.2121955 0.2545971 0.8094246
0.2122203 0.2551690 0.8094628
0.2122453 0.2557495 0.8095029
0.2123088 0.2568660 0.8096455
0.2123370 0.2574195 0.8097325
0.2122760 0.2457917 0.8102195
0.2119491 0.2567445 0.8098665
0.2121139 0.2584617 0.8100811
0.2121696 0.2590282 0.8101794
0.2122175 0.2595913 0.8102884
0.2122548 0.2601487 0.8103998
0.2121967 0.2611991 0.8106891
0.2122503 0.2617614 0.8107985
0.2122948 0.2623233 0.8109165
0.2123335 0.2628769 0.8110482
0.2130287 0.2463472 0.8095438
0.2129407 0.2468086 0.8094988
0.2128525 0.2472855 0.8094550
0.2127732 0.2477930 0.8094106
0.2126915 0.2483252 0.8093591
0.2126216 0.2488837 0.8093114
0.2125679 0.2494582 0.8092727
0.2125188 0.2500366 0.8092313
0.2124851 0.2506151 0.8091976
0.2124648 0.2511951 0.8091762
0.2124543 0.2517660 0.8091551
0.2124507 0.2523416 0.8091420
0.2124647 0.2529138 0.8091442
0.2124830 0.2534857 0.8091513
0.2125088 0.2540570 0.8091689
0.2125355 0.2546306 0.8091911
0.2125714 0.2552019 0.8092269
