# 3D Systems, Inc.
# New Model
0.1571497 0.2805455 0.8881381
0.1573221 0.2834756 0.8870834
0.1574623 0.2794016 0.8884946
0.1574244 0.2798664 0.8883498
0.1574368 0.2826650 0.8873796
0.1579145 0.2781094 0.8888984
0.1579154 0.2785539 0.8887775
0.1579290 0.2790174 0.8886594
0.1579840 0.2850246 0.8865012
0.1579574 0.2854479 0.8863457
0.1579246 0.2859288 0.8862553
0.1578751 0.2864282 0.8861598
0.1578528 0.2868777 0.8860832
0.1575975 0.2813414 0.8878290
0.1575862 0.2818274 0.8876740
0.1579239 0.2835621 0.8870116
0.1579256 0.2840352 0.8868548
0.1579236 0.2845046 0.8866794
0.1578149 0.2875781 0.8859936
0.1578051 0.2805282 0.8881602
0.1580963 0.2793798 0.8885429
0.1580615 0.2798349 0.8883927
0.1580690 0.2826564 0.8873626
0.1585284 0.2780877 0.8889542
0.1585246 0.2785228 0.8888371
0.1585379 0.2789766 0.8887258
0.1585233 0.2850642 0.8864617
0.1584997 0.2854676 0.8863086
0.1584653 0.2859302 0.8862147
0.1584177 0.2864145 0.8861296
0.1584064 0.2868546 0.8860475
0.1582407 0.2813390 0.8878398
0.1582360 0.2818142 0.8876801
0.1584630 0.2836294 0.8869745
0.1584744 0.2840828 0.8868190
0.1584797 0.2845370 0.8866405
0.1584122 0.2875605 0.8859603
0.1584567 0.2805249 0.8881836
0.1586994 0.2826578 0.8873655
0.1590958 0.2780498 0.8890259
0.1590923 0.2784781 0.8889028
0.1591132 0.2789288 0.8887964
0.1591059 0.2793299 0.8886332
0.1590852 0.2797211 0.8884921
0.1590378 0.2851120 0.8864247
0.1590255 0.2854931 0.8862862
0.1589978 0.2859425 0.8861881
0.1589570 0.2864144 0.8861084
0.1589566 0.2868453 0.8860247
0.1588817 0.2813499 0.8878518
0.1588795 0.2818177 0.8876898
0.1590493 0.2836737 0.8869488
0.1590634 0.2841117 0.8867851
0.1590697 0.2845579 0.8866080
0.1590224 0.2875467 0.8859419
0.1591011 0.2805328 0.8882054
0.1593342 0.2826643 0.8873608
0.1596780 0.2780247 0.8890833
0.1596759 0.2784597 0.8889597
0.1597048 0.2789069 0.8888410
0.1597016 0.2793013 0.8886884
0.1596684 0.2796657 0.8885523
0.1595833 0.2851321 0.8864050
0.1595700 0.2855040 0.8862746
0.1595505 0.2859461 0.8861702
0.1595242 0.2864116 0.8860935
0.1595319 0.2868355 0.8860074
0.1595224 0.2813630 0.8878690
0.1595230 0.2818238 0.8877053
0.1596355 0.2837180 0.8869252
0.1596518 0.2841428 0.8867686
0.1596581 0.2845751 0.8865879
0.1596344 0.2875359 0.8859360
0.1597424 0.2805456 0.8882301
0.1599695 0.2826766 0.8873696
0.1602669 0.2780087 0.8891425
0.1602660 0.2784474 0.8890159
0.1602892 0.2788841 0.8888995
0.1602858 0.2792673 0.8887541
0.1602438 0.2796206 0.8886142
0.1601228 0.2851504 0.8863960
0.1601125 0.2855124 0.8862702
0.1601006 0.2859513 0.8861686
0.1600894 0.2864131 0.8860887
0.1601037 0.2868308 0.8860071
0.1601635 0.2813796 0.8878917
0.1601664 0.2818339 0.8877274
0.1602292 0.2837633 0.8869097
0.1602454 0.2841740 0.8867618
0.1602500 0.2845935 0.8865793
0.1602449 0.2875289 0.8859439
0.1603796 0.2805626 0.8882611
0.1606040 0.2826908 0.8873847
0.1608421 0.2780030 0.8892007
0.1608432 0.2784463 0.8890710
0.1608599 0.2788754 0.8889568
0.1608561 0.2792491 0.8888185
0.1608073 0.2795938 0.8886742
0.1606717 0.2851588 0.8864063
0.1606603 0.2855144 0.8862703
0.1606560 0.2859520 0.8861788
0.1606623 0.2864136 0.8860959
0.1606808 0.2868260 0.8860209
0.1608030 0.2814006 0.8879198
0.1608070 0.2818501 0.8877539
0.1608177 0.2838180 0.8869164
0.1608381 0.2842112 0.8867676
0.1608460 0.2846134 0.8865847
0.1608596 0.2875174 0.8859680
0.1610191 0.2805839 0.8882873
0.1612326 0.2827050 0.8874094
0.1614502 0.2780119 0.8892586
0.1614503 0.2784568 0.8891222
0.1614594 0.2788796 0.8890100
0.1614650 0.2792542 0.8888754
0.1614260 0.2796026 0.8887213
0.1612014 0.2851741 0.8864173
0.1611941 0.2855285 0.8862933
0.1611948 0.2859650 0.8861990
0.1612103 0.2864251 0.8861156
0.1612351 0.2868392 0.8860439
0.1614417 0.2814200 0.8879522
0.1614512 0.2818705 0.8877880
0.1614029 0.2842255 0.8867922
0.1614210 0.2846216 0.8866085
0.1614616 0.2875156 0.8860084
0.1616659 0.2806078 0.8883230
0.1616350 0.2835465 0.8870786
0.1618629 0.2827288 0.8874485
0.1620662 0.2780209 0.8893249
0.1620623 0.2784739 0.8891835
0.1620587 0.2788966 0.8890744
0.1620636 0.2792824 0.8889284
0.1620308 0.2796430 0.8887601
0.1617610 0.2851891 0.8864454
0.1617555 0.2855416 0.8863283
0.1617602 0.2859746 0.8862338
0.1617842 0.2864342 0.8861503
0.1618176 0.2868463 0.8860792
0.1620788 0.2814476 0.8879937
0.1620907 0.2818956 0.8878246
0.1619714 0.2842295 0.8868263
0.1619976 0.2846335 0.8866405
0.1620608 0.2875137 0.8860600
0.1623119 0.2806414 0.8883728
0.1622506 0.2835737 0.8871125
0.1625227 0.2794568 0.8888995
0.1625400 0.2798758 0.8887036
0.1624912 0.2827594 0.8874850
0.1622992 0.2852139 0.8864842
0.1622966 0.2855660 0.8863760
0.1623038 0.2859992 0.8862846
0.1623359 0.2864599 0.8861973
0.1623732 0.2868731 0.8861254
0.1626775 0.2780285 0.8894016
0.1626779 0.2784934 0.8892534
0.1626692 0.2789172 0.8891275
0.1627137 0.2814852 0.8880478
0.1627295 0.2819297 0.8878722
0.1625571 0.2842413 0.8868628
0.1625861 0.2846543 0.8866823
0.1626539 0.2875132 0.8861252
0.1629552 0.2806771 0.8884221
0.1628695 0.2836038 0.8871657
0.1631611 0.2794990 0.8889480
0.1631808 0.2799304 0.8887658
0.1631211 0.2827917 0.8875328
0.1628361 0.2852324 0.8865380
0.1628433 0.2855826 0.8864488
0.1633120 0.2780374 0.8894713
0.1633208 0.2785134 0.8893121
0.1633049 0.2789458 0.8891871
0.1633481 0.2815265 0.8880981
0.1633674 0.2819752 0.8879144
0.1631529 0.2846686 0.8867422
0.1631972 0.2860507 0.8863884
0.1632446 0.2865517 0.8862877
0.1632423 0.2870023 0.8862299
0.1632501 0.2875148 0.8861968
0.1635919 0.2807200 0.8884730
0.1634757 0.2836442 0.8872189
0.1634896 0.2840809 0.8870467
0.1637999 0.2795437 0.8890021
0.1638217 0.2799852 0.8888223
0.1637458 0.2828300 0.8875876
0.1639448 0.2780525 0.8895368
0.1639488 0.2785365 0.8893820
0.1639393 0.2789831 0.8892472
0.1639817 0.2815735 0.8881547
0.1640016 0.2820316 0.8879704
0.1637252 0.2846994 0.8868113
0.1637471 0.2851776 0.8866844
0.1637595 0.2856141 0.8865725
0.1637786 0.2860746 0.8864809
0.1638281 0.2865699 0.8863756
0.1638273 0.2870105 0.8863178
0.1638374 0.2875171 0.8862829
0.1642362 0.2807693 0.8885268
0.1640748 0.2836786 0.8872957
0.1640913 0.2841190 0.8871182
0.1644551 0.2795881 0.8890499
0.1644762 0.2800404 0.8888787
0.1643621 0.2828727 0.8876576
0.1646002 0.2780682 0.8895991
0.1646015 0.2785566 0.8894443
0.1645966 0.2790172 0.8893061
0.1646110 0.2816168 0.8882187
0.1646340 0.2820833 0.8880299
0.1643048 0.2847301 0.8868847
0.1643210 0.2852152 0.8867573
0.1643404 0.2856530 0.8866498
0.1643641 0.2861042 0.8865733
0.1644103 0.2865932 0.8864753
0.1644079 0.2870267 0.8864172
0.1644214 0.2875268 0.8863797
0.1648752 0.2808238 0.8885932
0.1646827 0.2837056 0.8873637
0.1646998 0.2841526 0.8871956
0.1650979 0.2796316 0.8891087
0.1651156 0.2800938 0.8889414
0.1649798 0.2829161 0.8877391
0.1652550 0.2780882 0.8896689
0.1652512 0.2785787 0.8895139
0.1652475 0.2790482 0.8893659
0.1652387 0.2816580 0.8882821
0.1652637 0.2821351 0.8880950
0.1648635 0.2847547 0.8869811
0.1648765 0.2852469 0.8868505
0.1649039 0.2856924 0.8867379
0.1649296 0.2861411 0.8866650
0.1649774 0.2866196 0.8865894
0.1649784 0.2870436 0.8865144
0.1650007 0.2875378 0.8864803
0.1655151 0.2808775 0.8886534
0.1652659 0.2837378 0.8874656
0.1652829 0.2841910 0.8872903
0.1657209 0.2791952 0.8893591
0.1657471 0.2796844 0.8891705
0.1657701 0.2801599 0.8890039
0.1655846 0.2829616 0.8878277
0.1659198 0.2781092 0.8897368
0.1659165 0.2786098 0.8895883
0.1658602 0.2817061 0.8883609
0.1658876 0.2821917 0.8881722
0.1654633 0.2857356 0.8868456
0.1654958 0.2861833 0.8867603
0.1655397 0.2866556 0.8866874
0.1655465 0.2870719 0.8866166
0.1655676 0.2875650 0.8865911
0.1661499 0.2809345 0.8887227
0.1658834 0.2846927 0.8872101
0.1659076 0.2851686 0.8870820
0.1663646 0.2792385 0.8894231
0.1663934 0.2797455 0.8892520
0.1664258 0.2802293 0.8890706
0.1662090 0.2834960 0.8877349
0.1662401 0.2839935 0.8875572
0.1665867 0.2781302 0.8898125
0.1665928 0.2786392 0.8896507
0.1664725 0.2817624 0.8884593
0.1665055 0.2822504 0.8882574
0.1665429 0.2827488 0.8880830
0.1660361 0.2857873 0.8869610
0.1660627 0.2862322 0.8868800
0.1661054 0.2866937 0.8867823
0.1661161 0.2871124 0.8867300
0.1661383 0.2875943 0.8867046
0.1667823 0.2809945 0.8887995
0.1664616 0.2847348 0.8873278
0.1664890 0.2852124 0.8872027
0.1669542 0.2781863 0.8898515
0.1669802 0.2787412 0.8896662
0.1670072 0.2792823 0.8894977
0.1670390 0.2798008 0.8893278
0.1670759 0.2802958 0.8891441
0.1668144 0.2835424 0.8878305
0.1668468 0.2840455 0.8876563
0.1671599 0.2828128 0.8881756
0.1666598 0.2867286 0.8869066
0.1666694 0.2871455 0.8868673
0.1666934 0.2876208 0.8868365
0.1674089 0.2810538 0.8888865
0.1674566 0.2815717 0.8887010
0.1675079 0.2820910 0.8885204
0.1670657 0.2852512 0.8873225
0.1670890 0.2857432 0.8872088
0.1671115 0.2862519 0.8871171
0.1675855 0.2782120 0.8899296
0.1676143 0.2787755 0.8897440
0.1676449 0.2793235 0.8895691
0.1676791 0.2798514 0.8893977
0.1677211 0.2803607 0.8892138
0.1674095 0.2835870 0.8879367
0.1674421 0.2840989 0.8877678
0.1674829 0.2846076 0.8875909
0.1677706 0.2828715 0.8882755
0.1680306 0.2811124 0.8889819
0.1680790 0.2816375 0.8887871
0.1681311 0.2821674 0.8886117
0.1676613 0.2857862 0.8873441
0.1676865 0.2862987 0.8872507
0.1677056 0.2868096 0.8871439
0.1677325 0.2873439 0.8870901
0.1682144 0.2782387 0.8900136
0.1682413 0.2788147 0.8898431
0.1682773 0.2793672 0.8896509
0.1683145 0.2799051 0.8894763
0.1683573 0.2804298 0.8893036
0.1680714 0.2846685 0.8877220
0.1681078 0.2851989 0.8875898
0.1683783 0.2829263 0.8883722
0.1684257 0.2834575 0.8882044
0.1684837 0.2839956 0.8880273
0.1686491 0.2811629 0.8890733
0.1686967 0.2816993 0.8888820
0.1687507 0.2822359 0.8887024
0.1683022 0.2873794 0.8872284
0.1688408 0.2782628 0.8900918
0.1688687 0.2788462 0.8899231
0.1689046 0.2794103 0.8897430
0.1689456 0.2799545 0.8895583
0.1689896 0.2804897 0.8893832
0.1686986 0.2852473 0.8877136
0.1687331 0.2857880 0.8875930
0.1687741 0.2863574 0.8874861
0.1688091 0.2869482 0.8873915
0.1689832 0.2829771 0.8884830
0.1690317 0.2835107 0.8883038
0.1690856 0.2840556 0.8881365
0.1691434 0.2846175 0.8879759
0.1692674 0.2812057 0.8891645
0.1693128 0.2817522 0.8889757
0.1693671 0.2822971 0.8887944
0.1688778 0.2874165 0.8873628
0.1694658 0.2782889 0.8901766
0.1694944 0.2788772 0.8900073
0.1695287 0.2794495 0.8898330
0.1695703 0.2800046 0.8896480
0.1696149 0.2805497 0.8894668
0.1692889 0.2852902 0.8878419
0.1693191 0.2858335 0.8877259
0.1693583 0.2863964 0.8876125
0.1693915 0.2869787 0.8875316
0.1695877 0.2830156 0.8885851
0.1696334 0.2835618 0.8884184
0.1696851 0.2841105 0.8882496
0.1697416 0.2846720 0.8880910
0.1698822 0.2812440 0.8892592
0.1699262 0.2817997 0.8890737
0.1699794 0.2823526 0.8888888
0.1700906 0.2783148 0.8902605
0.1701179 0.2789068 0.8900922
0.1701509 0.2794852 0.8899199
0.1701911 0.2800495 0.8897367
0.1702364 0.2806025 0.8895503
0.1699724 0.2870098 0.8876646
0.1699965 0.2876001 0.8876152
0.1703345 0.2847247 0.8882142
0.1703841 0.2853058 0.8880800
0.1704310 0.2859052 0.8879628
0.1704909 0.2865169 0.8878515
0.1705417 0.2818390 0.8891703
0.1705909 0.2823993 0.8889823
0.1706466 0.2829578 0.8887987
0.1707058 0.2835252 0.8886286
0.1707692 0.2841042 0.8884684
0.1707104 0.2783465 0.8903449
0.1707396 0.2789392 0.8901788
0.1707737 0.2795175 0.8900043
0.1708121 0.2800860 0.8898206
0.1708547 0.2806460 0.8896320
0.1709025 0.2812049 0.8894459
0.1705683 0.2870407 0.8877836
0.1705889 0.2876269 0.8877400
0.1709808 0.2853467 0.8881905
0.1710210 0.2859447 0.8880757
0.1710691 0.2865517 0.8879704
0.1712568 0.2830000 0.8888845
0.1713086 0.2835729 0.8887116
0.1713625 0.2841578 0.8885525
0.1714182 0.2847646 0.8884007
0.1713998 0.2795485 0.8900834
0.1714365 0.2801182 0.8899003
0.1714758 0.2806819 0.8897107
0.1715177 0.2812478 0.8895230
0.1715673 0.2818119 0.8893374
0.1716257 0.2823810 0.8891543
0.1711789 0.2870653 0.8879023
0.1711975 0.2876503 0.8878523
0.1717075 0.2783644 0.8904931
0.1717377 0.2789338 0.8903293
0.1715912 0.2853794 0.8882949
0.1716244 0.2859775 0.8881810
0.1716605 0.2865826 0.8880833
0.1718728 0.2830363 0.8889720
0.1719158 0.2836136 0.8887958
0.1719596 0.2842019 0.8886359
0.1720050 0.2848064 0.8884822
0.1720281 0.2795798 0.8901615
0.1720620 0.2801483 0.8899776
0.1720977 0.2807139 0.8897861
0.1721338 0.2812834 0.8895916
0.1721745 0.2818553 0.8894043
0.1722232 0.2824313 0.8892192
0.1723321 0.2783903 0.8905803
0.1723607 0.2789580 0.8904095
0.1722512 0.2860012 0.8882735
0.1722737 0.2866062 0.8881823
0.1722922 0.2872250 0.8881158
0.1725334 0.2836402 0.8888627
0.1725670 0.2842300 0.8887010
0.1726027 0.2848341 0.8885433
0.1726395 0.2854570 0.8884145
0.1726930 0.2801752 0.8900431
0.1727247 0.2807394 0.8898523
0.1727541 0.2813086 0.8896573
0.1727841 0.2818840 0.8894664
0.1728210 0.2824631 0.8892779
0.1728598 0.2830474 0.8890891
0.1729543 0.2784169 0.8906645
0.1729804 0.2789800 0.8904858
0.1730036 0.2795478 0.8903034
0.1729166 0.2872408 0.8881974
0.1732113 0.2848553 0.8886004
0.1732398 0.2854803 0.8884711
0.1732699 0.2861211 0.8883682
0.1732965 0.2867701 0.8882817
0.1733312 0.2802049 0.8900991
0.1733564 0.2807595 0.8899041
0.1733743 0.2813234 0.8897083
0.1733886 0.2818977 0.8895188
0.1734089 0.2824741 0.8893260
0.1734273 0.2830614 0.8891342
0.1734461 0.2836585 0.8889489
0.1734643 0.2842762 0.8887721
0.1735797 0.2784385 0.8907351
0.1736026 0.2789937 0.8905569
0.1736199 0.2795530 0.8903706
0.1735616 0.2872471 0.8882687
0.1738221 0.2848703 0.8886400
0.1738389 0.2854993 0.8885080
0.1738597 0.2861422 0.8883983
0.1738821 0.2867919 0.8883117
0.1739713 0.2802325 0.8901398
0.1739925 0.2807771 0.8899431
0.1740040 0.2813325 0.8897470
0.1740085 0.2819011 0.8895539
0.1740155 0.2824765 0.8893595
0.1740176 0.2830706 0.8891614
0.1740212 0.2836762 0.8889755
0.1740263 0.2842997 0.8887992
0.1742048 0.2784648 0.8908031
0.1742279 0.2790085 0.8906159
0.1742406 0.2795563 0.8904238
0.1744452 0.2855126 0.8885319
0.1744581 0.2861583 0.8884236
0.1744756 0.2868115 0.8883469
0.1744935 0.2874725 0.8882966
0.1746138 0.2802580 0.8901682
0.1746309 0.2807915 0.8899684
0.1746349 0.2813370 0.8897679
0.1746283 0.2819017 0.8895752
0.1746208 0.2824759 0.8893784
0.1746046 0.2830784 0.8891772
0.1745903 0.2836957 0.8889932
0.1745821 0.2843220 0.8888085
0.1745767 0.2849739 0.8886500
0.1748341 0.2784920 0.8908527
0.1748552 0.2790242 0.8906636
0.1748643 0.2795603 0.8904687
0.1750513 0.2855180 0.8885197
0.1750563 0.2861683 0.8884184
0.1750682 0.2868265 0.8883441
0.1750832 0.2874896 0.8883025
0.1752647 0.2802766 0.8901852
0.1752733 0.2808009 0.8899836
0.1752670 0.2813365 0.8897762
0.1752482 0.2818949 0.8895781
0.1752264 0.2824658 0.8893766
0.1751932 0.2830707 0.8891665
0.1751660 0.2836947 0.8889807
0.1751478 0.2843231 0.8887901
0.1751308 0.2849744 0.8886311
0.1754683 0.2785149 0.8908886
0.1754826 0.2790354 0.8906967
0.1754837 0.2795599 0.8904969
0.1757325 0.2830946 0.8891229
0.1757114 0.2836715 0.8889554
0.1756882 0.2842626 0.8887744
0.1756688 0.2848795 0.8886258
0.1756581 0.2855212 0.8884923
0.1756569 0.2861763 0.8883997
0.1756636 0.2868421 0.8883330
0.1756761 0.2875089 0.8883020
0.1759119 0.2802863 0.8901827
0.1759130 0.2807984 0.8899745
0.1758984 0.2813243 0.8897623
0.1758701 0.2818756 0.8895574
0.1758368 0.2824458 0.8893547
0.1761077 0.2785285 0.8908966
0.1761148 0.2790351 0.8907016
0.1761072 0.2795478 0.8905010
0.1764247 0.2820008 0.8894551
0.1764044 0.2825303 0.8892650
0.1763734 0.2830785 0.8890762
0.1763371 0.2836562 0.8889102
0.1763005 0.2842500 0.8887354
0.1762671 0.2848737 0.8885824
0.1762468 0.2855259 0.8884536
0.1762375 0.2861901 0.8883691
0.1762396 0.2868638 0.8883072
0.1762519 0.2875358 0.8882776
0.1765617 0.2802846 0.8901554
0.1765517 0.2807826 0.8899441
0.1765260 0.2812992 0.8897323
0.1767431 0.2785305 0.8908931
0.1767465 0.2790240 0.8906936
0.1767342 0.2795260 0.8904933
0.1770755 0.2819863 0.8893932
0.1770451 0.2825081 0.8892013
0.1770023 0.2830517 0.8890110
0.1769535 0.2836341 0.8888451
0.1769066 0.2842341 0.8886778
0.1768591 0.2848672 0.8885252
0.1768323 0.2855301 0.8884037
0.1768168 0.2862053 0.8883303
0.1768155 0.2868831 0.8882692
0.1768293 0.2875598 0.8882550
0.1772086 0.2802684 0.8901161
0.1771867 0.2807545 0.8899036
0.1771479 0.2812616 0.8896894
0.1773800 0.2785229 0.8908820
0.1773747 0.2790032 0.8906788
0.1773528 0.2794931 0.8904720
0.1776493 0.2836529 0.8887229
0.1776114 0.2841849 0.8885707
0.1775703 0.2847574 0.8884461
0.1775327 0.2853479 0.8883373
0.1775102 0.2859589 0.8882648
0.1774909 0.2865800 0.8882057
0.1774805 0.2872097 0.8881803
0.1777169 0.2819547 0.8893106
0.1776733 0.2824711 0.8891166
0.1776149 0.2830082 0.8889144
0.1778474 0.2802339 0.8900558
0.1778126 0.2807084 0.8898402
0.1777615 0.2812053 0.8896195
0.1780118 0.2784961 0.8908460
0.1779965 0.2789631 0.8906383
0.1779626 0.2794397 0.8904231
0.1783181 0.2830816 0.8887457
0.1782804 0.2836054 0.8886009
0.1782321 0.2841476 0.8884516
0.1781844 0.2847257 0.8883252
0.1781423 0.2853254 0.8882148
0.1781224 0.2859449 0.8881587
0.1781030 0.2865727 0.8881052
0.1780960 0.2872082 0.8880862
0.1783882 0.2814135 0.8894074
0.1783432 0.2819003 0.8892065
0.1782839 0.2824132 0.8890081
0.1784814 0.2801863 0.8899905
0.1784289 0.2806452 0.8897602
0.1790229 0.2836430 0.8884096
0.1789918 0.2841288 0.8882748
0.1789548 0.2846524 0.8881561
0.1789287 0.2851710 0.8880691
0.1788897 0.2857087 0.8879962
0.1788717 0.2862724 0.8879704
0.1788521 0.2868494 0.8879602
0.1788358 0.2874331 0.8879663
0.1786441 0.2784614 0.8908011
0.1786138 0.2789169 0.8905900
0.1785668 0.2793780 0.8903689
0.1790306 0.2820241 0.8889966
0.1789907 0.2825146 0.8888036
0.1789397 0.2830284 0.8886176
0.1790184 0.2813494 0.8893099
0.1791542 0.2796589 0.8901275
0.1791006 0.2801099 0.8899018
0.1790350 0.2805727 0.8896884
0.1796553 0.2835849 0.8882488
0.1796120 0.2840697 0.8881092
0.1795673 0.2846012 0.8879935
0.1795360 0.2851305 0.8879200
0.1795015 0.2856805 0.8878584
0.1794848 0.2862538 0.8878317
0.1794709 0.2868359 0.8878329
0.1794634 0.2874229 0.8878496
0.1792682 0.2784067 0.8907401
0.1792210 0.2788396 0.8904999
0.1796581 0.2819633 0.8888476
0.1796011 0.2824450 0.8886517
0.1795426 0.2829577 0.8884751
0.1796308 0.2812636 0.8891884
0.1797732 0.2795721 0.8900175
0.1797068 0.2800233 0.8898059
0.1796261 0.2804854 0.8895988
0.1802593 0.2835171 0.8880877
0.1802024 0.2840105 0.8879445
0.1801547 0.2845471 0.8878324
0.1801146 0.2850938 0.8877593
0.1800842 0.2856571 0.8877059
0.1800666 0.2862430 0.8876740
0.1800584 0.2868326 0.8876809
0.1800576 0.2874262 0.8876970
0.1798789 0.2783321 0.8906548
0.1798129 0.2787592 0.8904219
0.1802710 0.2818847 0.8887032
0.1801947 0.2823603 0.8884960
0.1801307 0.2828823 0.8883394
0.1803760 0.2802802 0.8894885
0.1803041 0.2807089 0.8892655
0.1802277 0.2811707 0.8890749
0.1803794 0.2794733 0.8899102
0.1809002 0.2829517 0.8880545
0.1808378 0.2834454 0.8879205
0.1807775 0.2839496 0.8877906
0.1807241 0.2844966 0.8876765
0.1806800 0.2850610 0.8876059
0.1806526 0.2856409 0.8875587
0.1806350 0.2862419 0.8875282
0.1806322 0.2868410 0.8875385
0.1806382 0.2874399 0.8875677
0.1804784 0.2782287 0.8905455
0.1804027 0.2786695 0.8903431
0.1809424 0.2813436 0.8887494
0.1808592 0.2817867 0.8885410
0.1807804 0.2822714 0.8883524
0.1809879 0.2801684 0.8893543
0.1809061 0.2806082 0.8891560
0.1809755 0.2793660 0.8898053
0.1814763 0.2828643 0.8878887
0.1814084 0.2833632 0.8877554
0.1813449 0.2838870 0.8876311
0.1812831 0.2844418 0.8875099
0.1812401 0.2850300 0.8874471
0.1812162 0.2856291 0.8874048
0.1811997 0.2862471 0.8873699
0.1812049 0.2868550 0.8873979
0.1812164 0.2874576 0.8874423
0.1810670 0.2781328 0.8904580
0.1809734 0.2785669 0.8902560
0.1815354 0.2812345 0.8885932
0.1814482 0.2816872 0.8884023
0.1813546 0.2821747 0.8882031
0.1815893 0.2800545 0.8892269
0.1814884 0.2804886 0.8890204
0.1821927 0.2833788 0.8874640
0.1821391 0.2838436 0.8873468
0.1820819 0.2843387 0.8872578
0.1820340 0.2848550 0.8871773
0.1819975 0.2853776 0.8871511
0.1819825 0.2859023 0.8871568
0.1819599 0.2864424 0.8871678
0.1819516 0.2869904 0.8872128
0.1815536 0.2792498 0.8896926
0.1820401 0.2827612 0.8877001
0.1816318 0.2780244 0.8903588
0.1815175 0.2784414 0.8901344
0.1821230 0.2811203 0.8884507
0.1820164 0.2815721 0.8882340
0.1819143 0.2820691 0.8880451
0.1828204 0.2847060 0.8869437
0.1827834 0.2851573 0.8869365
0.1827583 0.2855943 0.8869517
0.1821705 0.2799257 0.8890883
0.1820551 0.2803618 0.8888826
0.1827448 0.2832831 0.8872599
0.1826924 0.2837663 0.8871688
0.1826339 0.2842745 0.8870862
0.1825268 0.2864381 0.8870251
0.1825217 0.2869943 0.8870705
0.1821087 0.2791164 0.8895631
0.1827789 0.2817127 0.8878872
0.1826855 0.2821685 0.8877028
0.1825877 0.2826510 0.8875119
0.1821754 0.2778891 0.8902202
0.1820566 0.2783198 0.8900403
0.1829139 0.2801259 0.8886812
0.1827962 0.2805444 0.8884767
0.1826847 0.2809810 0.8882753
0.1833544 0.2846356 0.8867700
0.1833203 0.2850952 0.8867822
0.1832952 0.2855472 0.8868034
0.1828491 0.2793499 0.8891438
0.1832963 0.2831859 0.8870737
0.1832462 0.2836865 0.8869949
0.1831885 0.2842090 0.8869203
0.1830870 0.2864469 0.8868646
0.1830831 0.2870117 0.8869113
0.1829026 0.2781229 0.8898379
0.1827780 0.2785474 0.8896256
0.1833383 0.2815828 0.8877009
0.1832413 0.2820505 0.8875281
0.1831389 0.2825463 0.8873488
0.1834780 0.2799755 0.8885124
0.1833639 0.2804127 0.8883306
0.1832372 0.2808459 0.8881173
0.1839494 0.2840855 0.8866812
0.1839022 0.2845690 0.8866148
0.1838647 0.2850446 0.8866248
0.1838417 0.2855107 0.8866620
0.1838072 0.2860182 0.8866671
0.1837797 0.2865281 0.8866966
0.1834056 0.2792022 0.8889933
0.1839175 0.2825965 0.8870283
0.1838393 0.2830871 0.8868997
0.1837947 0.2836109 0.8868277
0.1834472 0.2779697 0.8896780
0.1833198 0.2784049 0.8894959
0.1839953 0.2809996 0.8877075
0.1838874 0.2814484 0.8875284
0.1837930 0.2819375 0.8873653
0.1846128 0.2843467 0.8864076
0.1845858 0.2848167 0.8863813
0.1845397 0.2852092 0.8864318
0.1840377 0.2798295 0.8883659
0.1839203 0.2802763 0.8881837
0.1845974 0.2830658 0.8866370
0.1845554 0.2835355 0.8865818
0.1845045 0.2840066 0.8865141
0.1843664 0.2860118 0.8865164
0.1843342 0.2865247 0.8865616
0.1840823 0.2786144 0.8890389
0.1839531 0.2790588 0.8888512
0.1846493 0.2815636 0.8871428
0.1845620 0.2820164 0.8870216
0.1844652 0.2824873 0.8868646
0.1848025 0.2800018 0.8879309
0.1846765 0.2804277 0.8877544
0.1845474 0.2808576 0.8875464
0.1851712 0.2842886 0.8862439
0.1851327 0.2847629 0.8862241
0.1850867 0.2851666 0.8862751
0.1847196 0.2792438 0.8884022
0.1851487 0.2829606 0.8864787
0.1851092 0.2834476 0.8864297
0.1850543 0.2839394 0.8863582
0.1849226 0.2860036 0.8863965
0.1848967 0.2865274 0.8864475
0.1846284 0.2784726 0.8889022
0.1852015 0.2814269 0.8869824
0.1851074 0.2818926 0.8868545
0.1850116 0.2823782 0.8867064
0.1853521 0.2798480 0.8877775
0.1852242 0.2802825 0.8875980
0.1850931 0.2807218 0.8873817
0.1857590 0.2837509 0.8861404
0.1857197 0.2842403 0.8860977
0.1856749 0.2847170 0.8860990
0.1856310 0.2851291 0.8861612
0.1852668 0.2790991 0.8882611
0.1857610 0.2823686 0.8864444
0.1856886 0.2828671 0.8863222
0.1856392 0.2833794 0.8862195
0.1854748 0.2860012 0.8862837
0.1854552 0.2865336 0.8863435
0.1851681 0.2783339 0.8887674
0.1858480 0.2808408 0.8869940
0.1857427 0.2812979 0.8868390
0.1856466 0.2817745 0.8867013
0.1858945 0.2796975 0.8876239
0.1857654 0.2801417 0.8874412
0.1863993 0.2827994 0.8860846
0.1863457 0.2832372 0.8860394
0.1862952 0.2836826 0.8860161
0.1862455 0.2841726 0.8859943
0.1861923 0.2846448 0.8860099
0.1861595 0.2850879 0.8860657
0.1858088 0.2789588 0.8881176
0.1864639 0.2813558 0.8865209
0.1863874 0.2818113 0.8864207
0.1863037 0.2822730 0.8862674
0.1860301 0.2859913 0.8861863
0.1860086 0.2865288 0.8862551
0.1857016 0.2781901 0.8886230
0.1866453 0.2798380 0.8871986
0.1865182 0.2802729 0.8870324
0.1863955 0.2807151 0.8868560
0.1865721 0.2791270 0.8876732
0.1869307 0.2827005 0.8859668
0.1868764 0.2831460 0.8859327
0.1868274 0.2836086 0.8858899
0.1867792 0.2841034 0.8858887
0.1867218 0.2845784 0.8859144
0.1866828 0.2850305 0.8859630
0.1864845 0.2783711 0.8881658
0.1869942 0.2812393 0.8863424
0.1869105 0.2817007 0.8862023
0.1868401 0.2821801 0.8860955
0.1865951 0.2859830 0.8861039
0.1865693 0.2865219 0.8861811
0.1871785 0.2797021 0.8870557
0.1870539 0.2801429 0.8868851
0.1869311 0.2805841 0.8866918
0.1871058 0.2789861 0.8875318
0.1875362 0.2821569 0.8859068
0.1874690 0.2826166 0.8858390
0.1874231 0.2830703 0.8858033
0.1873758 0.2835488 0.8857664
0.1873215 0.2840421 0.8857835
0.1872524 0.2845167 0.8858318
0.1872113 0.2849838 0.8858820
0.1870253 0.2782311 0.8880228
0.1876440 0.2806926 0.8864044
0.1875302 0.2811284 0.8862005
0.1874509 0.2815972 0.8860627
0.1871755 0.2859804 0.8860277
0.1871516 0.2865220 0.8861276
0.1878395 0.2791608 0.8871156
0.1877116 0.2795802 0.8869246
0.1875844 0.2800081 0.8867170
0.1882135 0.2811801 0.8859711
0.1881325 0.2816368 0.8858267
0.1880791 0.2820652 0.8857807
0.1880215 0.2825411 0.8857184
0.1879804 0.2830020 0.8856987
0.1879232 0.2834806 0.8856776
0.1878606 0.2839755 0.8857097
0.1877917 0.2844622 0.8857511
0.1877467 0.2849408 0.8858009
0.1884003 0.2797371 0.8865708
0.1882850 0.2801537 0.8864211
0.1881834 0.2805813 0.8862444
0.1877596 0.2859754 0.8859628
0.1877377 0.2865161 0.8860766
0.1877184 0.2870531 0.8862059
0.1883669 0.2790371 0.8869961
0.1887403 0.2810826 0.8858418
0.1886656 0.2815445 0.8857439
0.1886271 0.2819889 0.8856832
0.1885693 0.2824690 0.8856346
0.1885276 0.2829300 0.8856269
0.1884650 0.2834099 0.8856167
0.1884057 0.2839153 0.8856436
0.1883356 0.2844090 0.8856853
0.1882825 0.2849018 0.8857389
0.1889225 0.2796297 0.8864691
0.1888134 0.2800399 0.8862716
0.1887263 0.2804800 0.8861122
0.1883488 0.2859681 0.8859192
0.1883265 0.2865124 0.8860418
0.1883010 0.2870508 0.8861764
0.1889018 0.2789182 0.8868735
0.1893616 0.2805845 0.8858685
0.1892730 0.2810056 0.8857575
0.1892041 0.2814664 0.8856672
0.1891748 0.2819150 0.8855942
0.1891230 0.2823998 0.8855632
0.1890829 0.2828610 0.8855643
0.1890219 0.2833483 0.8855644
0.1889523 0.2838508 0.8855879
0.1888785 0.2843534 0.8856279
0.1888230 0.2848600 0.8856868
0.1894561 0.2795343 0.8863591
0.1893543 0.2799438 0.8861612
0.1889460 0.2859543 0.8858935
0.1889175 0.2864979 0.8860220
0.1888866 0.2870387 0.8861681
0.1900536 0.2796722 0.8861189
0.1899809 0.2800775 0.8859212
0.1899069 0.2805101 0.8857874
0.1898239 0.2809271 0.8856832
0.1897577 0.2813882 0.8855998
0.1897445 0.2818496 0.8855149
0.1896893 0.2823288 0.8854914
0.1896431 0.2827891 0.8855051
0.1895791 0.2832805 0.8855161
0.1895114 0.2837937 0.8855438
0.1894355 0.2843031 0.8855850
0.1893832 0.2848196 0.8856618
0.1895540 0.2859378 0.8858850
0.1895198 0.2864817 0.8860147
0.1894840 0.2870226 0.8861674
0.1905681 0.2795892 0.8860393
0.1905095 0.2800068 0.8858530
0.1904487 0.2804383 0.8857142
0.1903865 0.2808629 0.8855947
0.1903233 0.2813214 0.8855141
0.1903084 0.2817815 0.8854531
0.1902510 0.2822586 0.8854478
0.1902108 0.2827305 0.8854467
0.1901536 0.2832372 0.8854472
0.1900941 0.2837583 0.8854669
0.1902296 0.2848126 0.8856140
0.1901949 0.2853702 0.8857306
0.1901577 0.2859166 0.8858768
0.1907671 0.2816499 0.8853883
0.1907165 0.2819955 0.8853323
0.1904367 0.2871259 0.8862251
0.1910983 0.2795275 0.8859667
0.1910490 0.2799405 0.8857815
0.1910044 0.2803715 0.8856198
0.1909580 0.2808039 0.8855033
0.1908930 0.2812620 0.8854523
0.1907799 0.2826697 0.8854045
0.1907270 0.2831879 0.8853978
0.1906604 0.2837016 0.8854436
0.1908458 0.2847923 0.8856125
0.1908056 0.2853466 0.8857339
0.1913973 0.2808163 0.8854342
0.1913217 0.2811799 0.8854186
0.1912901 0.2815738 0.8853206
0.1912535 0.2819096 0.8853173
0.1910975 0.2865507 0.8860862
0.1910596 0.2871067 0.8862451
0.1916397 0.2794636 0.8858906
0.1916040 0.2798720 0.8857033
0.1915583 0.2803102 0.8855704
0.1913560 0.2826197 0.8853449
0.1913001 0.2831327 0.8853852
0.1912325 0.2836494 0.8854417
0.1914653 0.2847697 0.8856199
0.1914225 0.2853203 0.8857513
0.1919737 0.2803307 0.8855110
0.1919370 0.2807603 0.8853944
0.1918604 0.2811202 0.8853773
0.1918348 0.2815008 0.8852883
0.1917223 0.2865334 0.8861007
0.1916816 0.2870847 0.8862728
0.1921987 0.2793954 0.8858001
0.1921642 0.2798161 0.8856500
0.1919837 0.2820917 0.8853488
0.1919441 0.2825758 0.8853236
0.1918893 0.2830865 0.8853707
0.1921231 0.2841911 0.8855278
0.1920877 0.2847468 0.8856357
0.1920395 0.2852922 0.8857682
0.1925253 0.2802838 0.8854751
0.1924940 0.2807052 0.8853587
0.1923458 0.2865079 0.8861345
0.1927686 0.2793425 0.8857563
0.1927416 0.2797663 0.8856017
0.1926328 0.2811031 0.8853323
0.1926154 0.2815490 0.8853092
0.1925679 0.2820404 0.8853161
0.1925386 0.2825314 0.8852992
0.1924874 0.2830532 0.8853337
0.1926770 0.2877341 0.8865496
0.1927453 0.2841660 0.8855456
0.1930938 0.2802350 0.8854400
0.1930833 0.2806682 0.8853373
0.1930471 0.2853819 0.8858463
0.1930118 0.2859337 0.8860059
0.1933644 0.2792986 0.8857143
0.1933357 0.2797185 0.8855642
0.1932410 0.2810653 0.8853133
0.1932282 0.2815166 0.8852918
0.1931855 0.2820047 0.8852961
0.1931598 0.2825005 0.8852860
0.1931088 0.2830184 0.8853240
0.1933354 0.2871760 0.8864128
0.1932980 0.2877144 0.8865859
0.1933783 0.2841451 0.8855555
0.1936705 0.2801872 0.8854112
0.1936719 0.2806157 0.8853159
0.1936745 0.2853675 0.8858694
0.1936400 0.2859144 0.8860296
0.1939499 0.2792533 0.8856823
0.1939264 0.2796763 0.8855341
0.1938505 0.2810270 0.8853009
0.1938498 0.2814826 0.8852618
0.1938174 0.2819806 0.8852805
0.1937911 0.2824737 0.8852680
0.1937459 0.2829915 0.8853169
0.1939535 0.2871642 0.8864433
0.1939190 0.2876973 0.8866228
0.1940150 0.2841260 0.8855629
0.1942653 0.2801496 0.8853774
0.1942771 0.2805761 0.8852923
0.1943023 0.2853523 0.8858953
0.1942701 0.2858935 0.8860584
0.1945481 0.2792074 0.8856435
0.1945316 0.2796418 0.8855070
0.1944693 0.2809925 0.8852817
0.1944735 0.2814582 0.8851949
0.1944385 0.2819494 0.8852490
0.1945726 0.2871480 0.8864760
0.1945424 0.2876788 0.8866569
0.1947057 0.2830132 0.8853263
0.1946839 0.2835654 0.8854613
0.1946578 0.2841071 0.8855803
0.1948814 0.2801205 0.8853555
0.1948960 0.2805444 0.8852806
0.1951582 0.2791736 0.8856177
0.1951461 0.2796136 0.8854865
0.1951067 0.2809731 0.8852428
0.1950995 0.2814339 0.8851885
0.1950833 0.2819408 0.8852136
0.1952259 0.2860631 0.8861502
0.1952081 0.2866063 0.8863242
0.1951889 0.2871368 0.8865005
0.1953415 0.2830073 0.8853269
0.1953248 0.2835601 0.8854520
0.1953034 0.2840972 0.8855775
0.1954999 0.2800930 0.8853418
0.1955174 0.2805257 0.8852762
0.1957832 0.2791508 0.8855902
0.1957740 0.2795954 0.8854700
0.1957496 0.2809592 0.8852051
0.1957408 0.2814225 0.8851721
0.1957333 0.2819315 0.8852055
0.1958291 0.2860641 0.8861598
0.1958206 0.2866055 0.8863339
0.1958088 0.2871307 0.8865182
0.1959802 0.2830041 0.8853215
0.1959677 0.2835556 0.8854453
0.1962136 0.2847846 0.8857707
0.1964241 0.2791231 0.8855642
0.1964180 0.2795726 0.8854435
0.1964156 0.2800156 0.8853300
0.1964137 0.2804746 0.8852618
0.1964082 0.2809462 0.8851911
0.1963900 0.2814136 0.8851618
0.1963892 0.2819254 0.8851989
0.1964372 0.2860604 0.8861662
0.1964345 0.2865977 0.8863481
0.1964310 0.2871210 0.8865388
0.1966173 0.2830002 0.8853128
0.1966130 0.2835505 0.8854459
0.1968386 0.2847812 0.8857706
0.1970715 0.2791003 0.8855556
0.1970650 0.2795541 0.8854301
0.1970643 0.2799981 0.8853153
0.1970596 0.2804565 0.8852397
0.1970633 0.2809359 0.8851761
0.1970431 0.2814115 0.8851385
0.1970507 0.2819289 0.8851740
0.1970286 0.2860594 0.8861642
0.1970380 0.2865961 0.8863543
0.1972572 0.2830029 0.8852959
0.1972598 0.2835545 0.8854229
0.1972478 0.2878458 0.8868028
0.1974598 0.2847811 0.8857618
0.1977114 0.2790762 0.8855453
0.1977045 0.2795330 0.8854165
0.1977026 0.2799836 0.8852985
0.1977011 0.2804471 0.8852159
0.1977120 0.2809324 0.8851597
0.1976911 0.2814162 0.8851263
0.1977057 0.2819308 0.8851593
0.1976317 0.2860630 0.8861538
0.1976486 0.2866007 0.8863472
0.1976681 0.2871277 0.8865384
0.1978953 0.2830072 0.8852768
0.1979051 0.2835623 0.8854017
0.1979183 0.2841000 0.8855371
0.1981005 0.2853349 0.8859144
0.1981232 0.2858686 0.8860900
0.1983535 0.2790576 0.8855390
0.1983478 0.2795146 0.8854052
0.1983481 0.2799717 0.8852938
0.1983438 0.2804434 0.8851992
0.1983589 0.2809359 0.8851350
0.1983417 0.2814257 0.8851059
0.1983623 0.2819395 0.8851449
0.1982879 0.2871380 0.8865264
0.1985326 0.2830170 0.8852584
0.1985494 0.2835727 0.8853919
0.1985699 0.2841156 0.8855251
0.1987297 0.2853481 0.8858925
0.1987596 0.2858846 0.8860707
0.1989942 0.2790443 0.8855310
0.1989874 0.2795020 0.8853975
0.1989879 0.2799613 0.8852869
0.1989827 0.2804407 0.8851826
0.1990013 0.2809386 0.8851056
0.1989912 0.2814366 0.8850837
0.1990194 0.2819516 0.8851346
0.1990361 0.2824520 0.8851468
0.1990550 0.2829772 0.8852121
0.1992179 0.2841347 0.8854998
0.1990032 0.2878697 0.8867836
0.1993567 0.2853614 0.8858690
0.1993934 0.2859017 0.8860488
0.1996331 0.2790274 0.8855310
0.1996280 0.2794885 0.8853918
0.1996307 0.2799510 0.8852774
0.1996197 0.2804374 0.8851653
0.1996398 0.2809405 0.8850766
0.1996393 0.2814464 0.8850711
0.1996667 0.2819708 0.8851089
0.1996852 0.2824797 0.8851092
0.1997115 0.2830067 0.8851778
0.1995207 0.2871694 0.8864778
0.1998591 0.2841543 0.8854752
0.1998966 0.2846935 0.8856141
0.1999411 0.2852244 0.8857715
0.2000648 0.2864611 0.8861907
0.2002717 0.2790140 0.8855185
0.2002662 0.2794780 0.8853740
0.2002690 0.2799452 0.8852633
0.2002629 0.2804369 0.8851564
0.2002828 0.2809412 0.8850647
0.2002924 0.2814546 0.8850741
0.2003109 0.2819876 0.8850918
0.2003295 0.2825063 0.8850844
0.2003621 0.2830367 0.8851514
0.2001865 0.2877081 0.8866578
0.2004944 0.2841787 0.8854437
0.2005336 0.2847188 0.8855904
0.2005785 0.2852521 0.8857454
0.2006904 0.2864887 0.8861533
0.2009077 0.2790005 0.8855008
0.2009013 0.2794668 0.8853505
0.2009047 0.2799411 0.8852443
0.2009022 0.2804354 0.8851437
0.2009199 0.2809450 0.8850455
0.2009290 0.2814726 0.8850482
0.2009484 0.2820099 0.8850535
0.2009646 0.2825360 0.8850584
0.2010060 0.2830641 0.8851468
0.2010460 0.2835994 0.8852545
0.2008085 0.2877314 0.8866293
0.2011635 0.2847446 0.8855591
0.2012081 0.2852820 0.8857095
0.2013117 0.2865198 0.8861048
0.2015324 0.2789819 0.8854631
0.2015254 0.2794513 0.8853111
0.2015260 0.2799327 0.8852046
0.2015291 0.2804290 0.8851058
0.2015507 0.2809490 0.8850252
0.2015574 0.2814886 0.8850141
0.2015772 0.2820254 0.8850068
0.2015912 0.2825648 0.8850276
0.2016343 0.2830945 0.8851231
0.2016763 0.2836356 0.8852051
0.2014320 0.2877573 0.8865985
0.2017878 0.2847718 0.8855209
0.2018316 0.2853112 0.8856717
0.2018783 0.2858261 0.8858438
0.2019871 0.2870612 0.8862693
0.2021639 0.2789718 0.8854444
0.2021565 0.2794437 0.8852922
0.2021544 0.2799296 0.8851788
0.2021610 0.2804267 0.8850780
0.2021756 0.2809487 0.8849843
0.2021810 0.2815025 0.8849621
0.2021982 0.2820449 0.8849485
0.2022196 0.2825907 0.8849986
0.2022580 0.2831238 0.8850928
0.2022986 0.2836707 0.8851606
0.2023329 0.2841753 0.8853080
0.2023772 0.2846810 0.8854369
0.2024942 0.2858541 0.8858046
0.2026090 0.2870861 0.8862343
0.2027991 0.2789616 0.8854204
0.2027917 0.2794370 0.8852726
0.2027867 0.2799287 0.8851564
0.2027962 0.2804266 0.8850587
0.2028094 0.2809518 0.8849626
0.2028084 0.2815211 0.8849127
0.2028221 0.2820628 0.8849017
0.2028441 0.2826141 0.8849627
0.2028803 0.2831500 0.8850327
0.2029134 0.2837072 0.8851200
0.2029395 0.2842158 0.8852703
0.2029792 0.2847161 0.8854091
0.2030997 0.2858919 0.8857262
0.2032304 0.2813854 0.8848891
0.2032696 0.2818163 0.8848713
0.2032314 0.2871137 0.8861931
0.2034283 0.2789516 0.8854041
0.2034198 0.2794299 0.8852512
0.2034157 0.2799263 0.8851384
0.2034232 0.2804266 0.8850358
0.2034322 0.2809561 0.8849323
0.2034638 0.2826364 0.8849265
0.2034959 0.2831753 0.8849937
0.2035272 0.2837363 0.8850775
0.2035478 0.2842465 0.8852367
0.2035811 0.2847472 0.8853774
0.2037159 0.2859192 0.8856888
0.2037510 0.2864275 0.8858732
0.2037829 0.2869144 0.8860745
0.2038537 0.2814130 0.8848634
0.2038800 0.2818450 0.8848485
0.2040468 0.2794253 0.8852328
0.2040444 0.2799267 0.8851238
0.2040518 0.2804318 0.8850206
0.2040587 0.2809619 0.8849080
0.2040900 0.2826517 0.8848994
0.2041153 0.2831953 0.8849614
0.2041419 0.2837608 0.8850362
0.2041575 0.2842767 0.8851811
0.2041826 0.2847845 0.8853078
0.2042160 0.2852880 0.8854586
0.2042797 0.2787666 0.8854400
0.2043596 0.2864470 0.8858324
0.2043802 0.2869259 0.8860449
0.2044798 0.2814407 0.8848391
0.2045027 0.2818628 0.8848237
0.2046774 0.2794207 0.8852197
0.2046762 0.2799271 0.8851143
0.2046828 0.2804362 0.8850101
0.2046869 0.2809670 0.8848881
0.2047136 0.2826692 0.8848647
0.2047336 0.2832162 0.8849276
0.2047548 0.2837883 0.8849933
0.2047644 0.2843030 0.8851257
0.2047846 0.2848074 0.8852673
0.2048071 0.2853126 0.8854068
0.2049138 0.2787625 0.8854313
0.2049690 0.2864626 0.8858059
0.2049821 0.2869409 0.8860190
0.2050885 0.2814696 0.8848217
0.2051045 0.2818954 0.8848096
0.2051257 0.2823487 0.8848187
0.2051689 0.2828569 0.8848412
0.2053047 0.2794175 0.8852094
0.2053037 0.2799285 0.8851020
0.2053103 0.2804398 0.8849944
0.2053138 0.2809707 0.8848732
0.2053681 0.2838111 0.8849503
0.2053767 0.2843263 0.8850853
0.2053874 0.2848248 0.8852383
0.2054010 0.2853316 0.8853818
0.2055483 0.2787603 0.8854252
0.2055815 0.2864753 0.8857822
0.2055866 0.2869486 0.8860029
0.2057060 0.2814848 0.8847986
0.2057151 0.2819122 0.8847927
0.2057335 0.2823707 0.8848061
0.2057735 0.2828871 0.8848212
0.2059320 0.2794153 0.8852025
0.2059318 0.2799306 0.8850929
0.2059385 0.2804437 0.8849866
0.2059412 0.2809761 0.8848647
0.2059857 0.2838222 0.8849252
0.2059902 0.2843423 0.8850591
0.2059955 0.2848388 0.8852154
0.2060038 0.2853420 0.8853624
0.2061813 0.2787583 0.8854167
0.2062011 0.2864843 0.8857647
0.2061989 0.2869508 0.8859923
0.2063287 0.2814981 0.8847806
0.2063304 0.2819267 0.8847810
0.2063455 0.2823904 0.8847985
0.2063812 0.2829153 0.8848058
0.2065604 0.2794189 0.8852057
0.2065619 0.2799331 0.8850893
0.2065680 0.2804479 0.8849800
0.2065699 0.2809814 0.8848615
0.2066056 0.2838345 0.8849041
0.2066089 0.2843580 0.8850398
0.2066069 0.2848521 0.8851942
0.2066038 0.2853467 0.8853486
0.2068149 0.2787587 0.8854164
0.2068193 0.2864838 0.8857541
0.2068093 0.2869429 0.8859872
0.2069503 0.2815119 0.8847857
0.2069424 0.2819411 0.8847826
0.2069564 0.2824097 0.8847998
0.2069849 0.2829442 0.8847940
0.2071913 0.2794218 0.8852081
0.2071950 0.2799365 0.8850952
0.2071983 0.2804523 0.8849829
0.2071990 0.2809855 0.8848548
0.2072251 0.2838472 0.8848873
0.2072273 0.2843726 0.8850266
0.2072175 0.2848639 0.8851839
0.2072095 0.2853550 0.8853380
0.2074484 0.2787611 0.8854212
0.2074379 0.2864783 0.8857481
0.2074205 0.2869309 0.8859837
0.2075756 0.2815235 0.8847844
0.2075692 0.2819440 0.8847925
0.2075802 0.2824188 0.8847977
0.2076027 0.2829607 0.8847878
0.2078222 0.2794274 0.8852131
0.2078254 0.2799420 0.8851073
0.2078314 0.2804572 0.8849940
0.2078320 0.2809914 0.8848558
0.2078487 0.2838554 0.8848772
0.2078466 0.2843801 0.8850175
0.2078329 0.2848643 0.8851818
0.2078222 0.2853522 0.8853406
0.2080809 0.2787653 0.8854285
0.2080604 0.2864710 0.8857552
0.2080395 0.2869193 0.8859890
0.2081992 0.2815343 0.8848062
0.2081976 0.2819520 0.8847933
0.2084482 0.2794432 0.8852323
0.2084544 0.2799559 0.8851259
0.2084622 0.2804702 0.8850141
0.2084663 0.2810031 0.8848736
0.2084758 0.2827103 0.8847826
0.2084831 0.2832874 0.8848265
0.2084725 0.2838541 0.8848850
0.2084658 0.2843793 0.8850212
0.2084473 0.2848585 0.8851872
0.2084317 0.2853438 0.8853469
0.2087131 0.2787776 0.8854470
0.2086893 0.2864646 0.8857649
0.2086674 0.2869088 0.8859968
0.2088221 0.2815433 0.8848181
0.2088200 0.2819596 0.8848170
0.2090747 0.2794589 0.8852572
0.2090847 0.2799697 0.8851493
0.2090932 0.2804821 0.8850381
0.2090989 0.2810124 0.8848981
0.2091055 0.2827158 0.8848005
0.2091115 0.2832920 0.8848341
0.2090988 0.2838535 0.8849006
0.2090941 0.2843810 0.8850301
0.2090729 0.2848556 0.8851966
0.2090514 0.2853325 0.8853615
0.2093430 0.2787913 0.8854698
0.2093162 0.2864493 0.8857836
0.2092950 0.2868891 0.8860116
0.2094455 0.2815467 0.8848457
0.2094410 0.2819638 0.8848453
0.2096971 0.2794769 0.8852895
0.2097093 0.2799847 0.8851774
0.2097182 0.2804947 0.8850622
0.2097266 0.2810238 0.8849263
0.2097353 0.2827192 0.8848234
0.2097418 0.2832957 0.8848482
0.2097277 0.2838500 0.8849202
0.2097228 0.2843778 0.8850436
0.2097001 0.2848473 0.8852164
0.2096793 0.2853221 0.8853813
0.2099733 0.2788087 0.8855001
0.2099499 0.2864345 0.8858023
0.2099305 0.2868704 0.8860297
0.2103153 0.2794955 0.8853202
0.2103301 0.2800038 0.8852160
0.2103427 0.2805064 0.8850912
0.2103529 0.2810372 0.8849598
0.2103553 0.2815930 0.8848996
0.2103603 0.2821393 0.8848979
0.2103651 0.2827221 0.8848567
0.2103722 0.2832998 0.8848734
0.2103561 0.2838468 0.8849508
0.2103531 0.2843732 0.8850658
0.2103306 0.2848376 0.8852397
0.2103101 0.2853104 0.8854057
0.2106016 0.2788321 0.8855376
0.2105855 0.2864175 0.8858265
0.2105679 0.2868508 0.8860533
0.2109363 0.2795177 0.8853711
0.2109517 0.2800247 0.8852644
0.2109665 0.2805208 0.8851355
0.2109782 0.2810509 0.8850034
0.2109811 0.2816014 0.8849427
0.2109873 0.2821458 0.8849368
0.2109925 0.2827269 0.8848877
0.2110022 0.2833021 0.8849039
0.2109853 0.2838407 0.8849870
0.2109855 0.2843662 0.8850955
0.2109654 0.2848251 0.8852713
0.2109471 0.2852959 0.8854446
0.2112259 0.2788602 0.8855835
0.2112238 0.2863979 0.8858618
0.2112090 0.2868270 0.8860874
0.2115525 0.2795473 0.8854362
0.2115729 0.2800514 0.8853249
0.2115913 0.2805431 0.8851873
0.2116017 0.2810727 0.8850517
0.2116020 0.2816159 0.8850029
0.2116105 0.2821549 0.8849823
0.2116168 0.2827347 0.8849266
0.2116286 0.2833054 0.8849418
0.2116110 0.2838345 0.8850329
0.2116189 0.2843548 0.8851294
0.2116019 0.2848091 0.8853082
0.2115825 0.2852823 0.8854804
0.2118474 0.2788936 0.8856401
0.2118628 0.2863769 0.8858988
0.2118516 0.2868011 0.8861288
0.2121709 0.2795745 0.8854840
0.2121944 0.2800728 0.8853653
0.2122106 0.2805679 0.8852367
0.2122207 0.2810943 0.8851099
0.2122213 0.2816295 0.8850728
0.2122318 0.2821657 0.8850383
0.2122404 0.2827410 0.8849797
0.2122498 0.2833124 0.8849879
0.2122334 0.2838310 0.8850823
0.2122466 0.2843482 0.8851702
0.2122341 0.2847962 0.8853509
0.2122185 0.2852666 0.8855268
0.2124636 0.2789346 0.8857094
0.2124987 0.2863540 0.8859398
0.2124931 0.2867794 0.8861607
0.2127841 0.2796125 0.8855490
0.2128101 0.2801076 0.8854282
0.2128258 0.2806005 0.8852990
0.2128371 0.2811198 0.8851751
0.2128398 0.2816434 0.8851421
0.2128485 0.2821798 0.8851095
0.2128622 0.2827481 0.8850446
0.2128702 0.2833197 0.8850420
0.2128540 0.2838282 0.8851431
0.2128730 0.2843410 0.8852202
0.2128682 0.2847813 0.8853995
0.2130774 0.2789773 0.8857901
0.2131330 0.2858753 0.8857902
0.2134065 0.2870125 0.8863495
0.2133979 0.2796545 0.8856197
0.2134230 0.2801456 0.8854956
0.2134328 0.2806342 0.8853695
0.2134438 0.2811484 0.8852524
0.2134469 0.2816649 0.8852119
0.2134539 0.2821959 0.8851862
0.2134729 0.2827521 0.8851160
0.2134780 0.2833243 0.8851054
0.2134627 0.2838208 0.8852109
0.2134877 0.2843298 0.8852772
0.2134860 0.2847637 0.8854528
0.2136851 0.2790288 0.8858854
0.2137586 0.2858529 0.8858517
0.2137593 0.2863066 0.8860237
0.2137526 0.2867338 0.8862440
0.2139910 0.2796970 0.8856988
0.2140154 0.2801833 0.8855767
0.2140269 0.2806692 0.8854505
0.2140412 0.2811780 0.8853345
0.2140445 0.2816871 0.8852927
0.2140562 0.2822102 0.8852672
0.2140737 0.2827591 0.8852016
0.2140812 0.2833304 0.8851769
0.2140680 0.2838142 0.8852865
0.2140902 0.2843196 0.8853394
0.2140968 0.2847458 0.8855128
0.2142908 0.2790785 0.8859677
0.2143824 0.2858249 0.8859172
0.2143803 0.2862808 0.8860842
0.2143710 0.2867107 0.8863009
0.2146140 0.2802228 0.8856660
0.2146270 0.2807065 0.8855380
0.2146451 0.2812082 0.8854181
0.2146425 0.2817096 0.8853780
0.2146544 0.2822235 0.8853576
0.2146696 0.2827678 0.8853001
0.2146750 0.2833374 0.8852656
0.2146678 0.2838107 0.8853810
0.2146920 0.2843075 0.8854215
0.2147068 0.2847307 0.8855846
0.2148908 0.2791339 0.8860564
0.2149338 0.2796224 0.8858910
0.2150018 0.2858003 0.8859811
0.2149987 0.2862590 0.8861457
0.2149882 0.2866930 0.8863579
0.2151972 0.2802657 0.8857623
0.2152145 0.2807406 0.8856283
0.2152298 0.2812374 0.8855171
0.2152286 0.2817283 0.8854762
0.2152442 0.2822351 0.8854556
0.2152576 0.2827732 0.8853981
0.2152577 0.2833360 0.8853708
0.2152550 0.2837948 0.8854893
0.2152758 0.2842883 0.8855237
0.2152872 0.2847163 0.8856799
0.2154850 0.2792000 0.8861509
0.2155301 0.2796819 0.8859895
0.2156147 0.2857735 0.8860540
0.2156228 0.2862281 0.8862119
0.2156162 0.2866668 0.8864104
0.2157563 0.2803127 0.8858654
0.2157828 0.2807856 0.8857298
0.2157980 0.2812766 0.8856226
0.2157934 0.2817561 0.8855776
0.2158150 0.2822533 0.8855570
0.2158253 0.2827803 0.8855042
0.2158283 0.2833313 0.8854802
0.2158291 0.2837873 0.8855879
0.2158411 0.2842783 0.8856215
0.2158481 0.2847058 0.8857705
0.2161094 0.2797468 0.8861058
0.2161940 0.2857451 0.8861616
0.2162041 0.2861983 0.8863103
0.2161960 0.2866415 0.8865002
0.2164510 0.2786158 0.8866347
0.2165048 0.2791095 0.8864569
0.2163571 0.2813138 0.8857492
0.2163542 0.2817787 0.8856999
0.2163737 0.2822670 0.8856828
0.2163788 0.2827823 0.8856400
0.2163858 0.2833248 0.8856161
0.2163903 0.2837776 0.8857146
0.2166925 0.2798130 0.8862199
0.2167299 0.2802954 0.8860843
0.2167600 0.2808043 0.8859446
0.2168104 0.2847129 0.8859636
0.2167989 0.2852191 0.8861054
0.2167882 0.2857233 0.8862460
0.2167969 0.2861759 0.8863894
0.2167891 0.2866466 0.8865467
0.2170459 0.2786979 0.8867547
0.2171028 0.2791825 0.8865732
0.2168973 0.2813503 0.8858762
0.2168925 0.2818021 0.8858280
0.2169131 0.2822790 0.8858153
0.2169284 0.2827913 0.8857695
0.2169394 0.2833259 0.8857385
0.2169414 0.2837760 0.8858293
0.2172560 0.2798836 0.8863569
0.2172920 0.2803570 0.8862226
0.2173249 0.2808562 0.8860776
0.2173784 0.2846818 0.8860936
0.2173643 0.2851783 0.8862387
0.2173512 0.2856873 0.8863623
0.2173558 0.2861409 0.8864980
0.2173413 0.2866184 0.8866571
0.2176326 0.2787842 0.8868802
0.2176897 0.2792606 0.8867005
0.2174436 0.2818330 0.8859788
0.2174626 0.2822981 0.8859524
0.2174698 0.2827967 0.8859120
0.2174729 0.2833176 0.8858817
0.2174870 0.2837668 0.8859576
0.2178197 0.2799576 0.8865060
0.2178543 0.2804241 0.8863745
0.2178859 0.2809058 0.8862133
0.2179131 0.2814072 0.8861599
0.2179332 0.2846524 0.8862266
0.2179188 0.2851533 0.8863474
0.2178946 0.2856711 0.8864740
0.2182142 0.2788698 0.8870080
0.2182660 0.2793442 0.8868414
0.2183139 0.2867531 0.8869420
0.2183931 0.2804799 0.8865219
0.2184161 0.2809561 0.8863982
0.2184485 0.2814480 0.8863397
0.2184784 0.2819549 0.8863064
0.2184960 0.2824938 0.8862395
0.2185089 0.2830581 0.8861852
0.2185025 0.2835778 0.8862478
0.2184909 0.2841505 0.8862479
0.2184650 0.2846346 0.8863628
0.2184496 0.2851343 0.8864837
0.2187791 0.2789592 0.8871559
0.2188322 0.2794243 0.8869804
0.2188710 0.2799182 0.8868537
0.2189040 0.2862016 0.8869061
0.2188764 0.2867078 0.8870714
0.2189378 0.2805390 0.8866786
0.2189580 0.2810012 0.8865612
0.2189875 0.2814829 0.8865045
0.2190142 0.2819777 0.8864615
0.2190308 0.2825052 0.8864041
0.2190358 0.2830555 0.8863554
0.2190277 0.2835649 0.8864125
0.2190154 0.2841365 0.8864139
0.2189881 0.2846109 0.8865315
0.2189668 0.2851083 0.8866454
0.2193453 0.2790474 0.8873063
0.2193891 0.2795113 0.8871503
0.2194311 0.2799930 0.8870143
0.2194502 0.2861698 0.8870510
0.2194144 0.2866959 0.8871888
0.2195448 0.2819992 0.8866304
0.2195584 0.2825129 0.8865837
0.2195566 0.2830491 0.8865393
0.2195503 0.2835549 0.8865925
0.2199231 0.2791434 0.8874680
0.2199733 0.2796006 0.8873009
0.2200095 0.2800748 0.8871641
0.2200430 0.2805600 0.8870428
0.2200883 0.2810731 0.8869288
0.2201104 0.2816197 0.8868617
0.2201094 0.2845065 0.8868454
0.2200674 0.2850359 0.8869996
0.2200363 0.2856119 0.8870744
0.2200121 0.2861287 0.8872016
0.2204716 0.2872252 0.8876866
0.2205487 0.2801422 0.8873339
0.2205704 0.2806183 0.8872310
0.2206133 0.2811186 0.8871183
0.2206350 0.2816477 0.8870392
0.2206563 0.2821872 0.8869991
0.2206661 0.2827604 0.8869632
0.2206716 0.2833441 0.8869413
0.2206583 0.2839157 0.8869842
0.2206367 0.2844735 0.8870220
0.2210163 0.2790548 0.8878726
0.2210712 0.2795433 0.8877005
0.2211699 0.2854998 0.8874495
0.2211193 0.2860740 0.8875698
0.2210727 0.2866537 0.8876832
0.2210303 0.2871721 0.8878480
0.2210941 0.2801984 0.8874995
0.2211100 0.2806705 0.8874078
0.2211428 0.2811483 0.8873042
0.2211541 0.2816708 0.8872432
0.2211692 0.2821889 0.8872086
0.2211761 0.2827555 0.8871787
0.2211769 0.2833306 0.8871576
0.2211637 0.2838933 0.8871863
0.2211392 0.2844386 0.8872248
0.2215887 0.2791398 0.8880421
0.2216299 0.2796244 0.8878832
0.2216962 0.2854564 0.8876381
0.2216501 0.2860319 0.8877372
0.2216017 0.2866060 0.8878609
0.2215661 0.2871423 0.8879941
