# 3D Systems, Inc.
# New Model
0.2059907 0.2277806 0.8301100
0.2061198 0.2509511 0.8302884
0.2064789 0.2311089 0.8289161
0.2064113 0.2316632 0.8288067
0.2063506 0.2322108 0.8286947
0.2062947 0.2327546 0.8285819
0.2060127 0.2409418 0.8279897
0.2060414 0.2415276 0.8280318
0.2060787 0.2421115 0.8280804
0.2061231 0.2426964 0.8281395
0.2061691 0.2432841 0.8282000
0.2062224 0.2438724 0.8282706
0.2062824 0.2444600 0.8283515
0.2063415 0.2450426 0.8284405
0.2064088 0.2456277 0.8285346
0.2064787 0.2462021 0.8286387
0.2065470 0.2467638 0.8287449
0.2066191 0.2473156 0.8288584
0.2066938 0.2478647 0.8289749
0.2060248 0.2521079 0.8307637
0.2061183 0.2526246 0.8308925
0.2062110 0.2531357 0.8310134
0.2071172 0.2247237 0.8302178
0.2070579 0.2252761 0.8301298
0.2069854 0.2258533 0.8300348
0.2069108 0.2264425 0.8299319
0.2068260 0.2270398 0.8298283
0.2067402 0.2276309 0.8297188
0.2066557 0.2282239 0.8296074
0.2065741 0.2288094 0.8294974
0.2064971 0.2293831 0.8293858
0.2064242 0.2299462 0.8292690
0.2063583 0.2304990 0.8291509
0.2065226 0.2488803 0.8293720
0.2066046 0.2494207 0.8294970
0.2066873 0.2499486 0.8296293
0.2067686 0.2504655 0.8297635
0.2051026 0.2555887 0.8323373
0.2068464 0.2332487 0.8282086
0.2068065 0.2337901 0.8281095
0.2067706 0.2343333 0.8280157
0.2067416 0.2348758 0.8279312
0.2067114 0.2354237 0.8278485
0.2066884 0.2359748 0.8277756
0.2066706 0.2365343 0.8277202
0.2066575 0.2370956 0.8276730
0.2066508 0.2376600 0.8276362
0.2066519 0.2382314 0.8276157
0.2066572 0.2388086 0.8275995
0.2066706 0.2393861 0.8275945
0.2066942 0.2399641 0.8276016
0.2069604 0.2231098 0.8306230
0.2069067 0.2236804 0.8305465
0.2068494 0.2242556 0.8304688
0.2066734 0.2515776 0.8302125
0.2067667 0.2520930 0.8303446
0.2069589 0.2310161 0.8287085
0.2068964 0.2315718 0.8285927
0.2068416 0.2321243 0.8284792
0.2067931 0.2326750 0.8283683
0.2064722 0.2409808 0.8277705
0.2064937 0.2415690 0.8278153
0.2065258 0.2421541 0.8278648
0.2065644 0.2427385 0.8279222
0.2066095 0.2433224 0.8279869
0.2066601 0.2439070 0.8280590
0.2067175 0.2444913 0.8281389
0.2067768 0.2450732 0.8282260
0.2068428 0.2456546 0.8283211
0.2069105 0.2462294 0.8284211
0.2069792 0.2467960 0.8285256
0.2070512 0.2473545 0.8286361
0.2071270 0.2479063 0.8287536
0.2057995 0.2550250 0.8318194
0.2066532 0.2532665 0.8308028
0.2076329 0.2235760 0.8301632
0.2075854 0.2241194 0.8300815
0.2075297 0.2246822 0.8299975
0.2074700 0.2252426 0.8299077
0.2074008 0.2258209 0.8298121
0.2073302 0.2264056 0.8297093
0.2072527 0.2269965 0.8296052
0.2071771 0.2275830 0.8294996
0.2071015 0.2281674 0.8293891
0.2070288 0.2287423 0.8292766
0.2069603 0.2293091 0.8291612
0.2068983 0.2298675 0.8290440
0.2068410 0.2304176 0.8289252
0.2069679 0.2489457 0.8291534
0.2070515 0.2494948 0.8292792
0.2071350 0.2500332 0.8294106
0.2072203 0.2505628 0.8295451
0.2075024 0.2314996 0.8283266
0.2074427 0.2320643 0.8282143
0.2073927 0.2326220 0.8281060
0.2073465 0.2331752 0.8280005
0.2073098 0.2337251 0.8278988
0.2072747 0.2342760 0.8278011
0.2072440 0.2348269 0.8277093
0.2072194 0.2353846 0.8276297
0.2071966 0.2359491 0.8275554
0.2071758 0.2365190 0.8274939
0.2071623 0.2370956 0.8274478
0.2071515 0.2376739 0.8274099
0.2071482 0.2382564 0.8273879
0.2071469 0.2388404 0.8273699
0.2071553 0.2394248 0.8273710
0.2071700 0.2400087 0.8273775
0.2071935 0.2405938 0.8273980
0.2072199 0.2411811 0.8274245
0.2072539 0.2417672 0.8274629
0.2072936 0.2423531 0.8275099
0.2073365 0.2429380 0.8275655
0.2073868 0.2435270 0.8276283
0.2074398 0.2441065 0.8276988
0.2064876 0.2544615 0.8312691
0.2065763 0.2549639 0.8313686
0.2073820 0.2230531 0.8304050
0.2071228 0.2516895 0.8299936
0.2072176 0.2522138 0.8301293
0.2076541 0.2292084 0.8288376
0.2075763 0.2297908 0.8287267
0.2075089 0.2303655 0.8286116
0.2074462 0.2309315 0.8284943
0.2072145 0.2451055 0.8280093
0.2072787 0.2456852 0.8281029
0.2073460 0.2462612 0.8282025
0.2074160 0.2468316 0.8283071
0.2074884 0.2473954 0.8284171
0.2075634 0.2479518 0.8285340
0.2070900 0.2533881 0.8305936
0.2080544 0.2235240 0.8299535
0.2080050 0.2240754 0.8298689
0.2079501 0.2246419 0.8297817
0.2078914 0.2252102 0.8296898
0.2078250 0.2257885 0.8295888
0.2077592 0.2263727 0.8294867
0.2076907 0.2269582 0.8293830
0.2076228 0.2275393 0.8292745
0.2075575 0.2281146 0.8291630
0.2074972 0.2286840 0.8290495
0.2074195 0.2490180 0.8289312
0.2075037 0.2495753 0.8290570
0.2075888 0.2501204 0.8291893
0.2076737 0.2506597 0.8293216
0.2077604 0.2511934 0.8294536
0.2078494 0.2517208 0.8295858
0.2079904 0.2314173 0.8281209
0.2079386 0.2319871 0.8280094
0.2078933 0.2325490 0.8278979
0.2078509 0.2331062 0.8277876
0.2078174 0.2336633 0.8276844
0.2077839 0.2342209 0.8275833
0.2077555 0.2347799 0.8274909
0.2077321 0.2353455 0.8274089
0.2077081 0.2359187 0.8273335
0.2076859 0.2364984 0.8272672
0.2076687 0.2370849 0.8272200
0.2076524 0.2376744 0.8271819
0.2076416 0.2382659 0.8271598
0.2076332 0.2388569 0.8271454
0.2076314 0.2394496 0.8271436
0.2076392 0.2400397 0.8271545
0.2076550 0.2406276 0.8271758
0.2076757 0.2412170 0.8272056
0.2077048 0.2418039 0.8272446
0.2077411 0.2423898 0.8272936
0.2077822 0.2429732 0.8273504
0.2078278 0.2435586 0.8274124
0.2078781 0.2441374 0.8274819
0.2079330 0.2447132 0.8275610
0.2079905 0.2452891 0.8276460
0.2080507 0.2458582 0.8277390
0.2081112 0.2464195 0.8278394
0.2081760 0.2469721 0.8279443
0.2082407 0.2475195 0.8280558
0.2083019 0.2480517 0.8281681
0.2068957 0.2545892 0.8310657
0.2069800 0.2550915 0.8311635
0.2077485 0.2528614 0.8300282
0.2082623 0.2279549 0.8288408
0.2081890 0.2285497 0.8287302
0.2081183 0.2291374 0.8286213
0.2080521 0.2297171 0.8285103
0.2079947 0.2302906 0.8283954
0.2079435 0.2308575 0.8282804
0.2081589 0.2491081 0.8285472
0.2082337 0.2496471 0.8286751
0.2075983 0.2540304 0.8304860
0.2076772 0.2545552 0.8305858
0.2084870 0.2234698 0.8297365
0.2084373 0.2240271 0.8296464
0.2083844 0.2245977 0.8295553
0.2083270 0.2251750 0.8294600
0.2082684 0.2257585 0.8293623
0.2082064 0.2263436 0.8292595
0.2081478 0.2269251 0.8291546
0.2080895 0.2275032 0.8290413
0.2081266 0.2507551 0.8290912
0.2082124 0.2512949 0.8292243
0.2083003 0.2518310 0.8293551
0.2083899 0.2523642 0.8294820
0.2084844 0.2313460 0.8279156
0.2084382 0.2319168 0.8277997
0.2083982 0.2324807 0.8276868
0.2083617 0.2330429 0.8275785
0.2083313 0.2336044 0.8274733
0.2083015 0.2341661 0.8273696
0.2082747 0.2347309 0.8272747
0.2082525 0.2353032 0.8271914
0.2082290 0.2358839 0.8271138
0.2082049 0.2364702 0.8270437
0.2081820 0.2370628 0.8269955
0.2081590 0.2376602 0.8269565
0.2081390 0.2382585 0.8269316
0.2081218 0.2388566 0.8269165
0.2081096 0.2394591 0.8269151
0.2081098 0.2400558 0.8269303
0.2081181 0.2406470 0.8269534
0.2081326 0.2412416 0.8269827
0.2081555 0.2418320 0.8270208
0.2081885 0.2424214 0.8270729
0.2082254 0.2430072 0.8271301
0.2082667 0.2435917 0.8271911
0.2083155 0.2441730 0.8272614
0.2083684 0.2447498 0.8273400
0.2084260 0.2453253 0.8274261
0.2084859 0.2458956 0.8275180
0.2085456 0.2464609 0.8276152
0.2086110 0.2470180 0.8277187
0.2086773 0.2475703 0.8278300
0.2087413 0.2481119 0.8279420
0.2082676 0.2535101 0.8299143
0.2083523 0.2540448 0.8300194
0.2084407 0.2545817 0.8301186
0.2087243 0.2279108 0.8286304
0.2086592 0.2284983 0.8285188
0.2085987 0.2290796 0.8284071
0.2085436 0.2296559 0.8282937
0.2084959 0.2302275 0.8281777
0.2084532 0.2307930 0.8280604
0.2086090 0.2491852 0.8283218
0.2086830 0.2497308 0.8284461
0.2087967 0.2363105 0.8268014
0.2087922 0.2368711 0.8267396
0.2087892 0.2374369 0.8266865
0.2087887 0.2380097 0.8266460
0.2087919 0.2385869 0.8266162
0.2087969 0.2391644 0.8265973
0.2088075 0.2397459 0.8265923
0.2088208 0.2403287 0.8265974
0.2088403 0.2409070 0.8266122
0.2088670 0.2414861 0.8266394
0.2088975 0.2420652 0.8266768
0.2089337 0.2426396 0.8267252
0.2089725 0.2432182 0.8267783
0.2090132 0.2437928 0.8268368
0.2090613 0.2443560 0.8269086
0.2089379 0.2234110 0.8295248
0.2088886 0.2239789 0.8294318
0.2088384 0.2245578 0.8293363
0.2087844 0.2251469 0.8292375
0.2087303 0.2257347 0.8291322
0.2086750 0.2263217 0.8290246
0.2086264 0.2269017 0.8289139
0.2085784 0.2274806 0.8287980
0.2085817 0.2508489 0.8288570
0.2086639 0.2513931 0.8289910
0.2087455 0.2519355 0.8291204
0.2088282 0.2524773 0.8292454
0.2089871 0.2312774 0.8277062
0.2089472 0.2318505 0.8275903
0.2089115 0.2324173 0.8274763
0.2088802 0.2329820 0.8273656
0.2088529 0.2335460 0.8272583
0.2088275 0.2341115 0.8271564
0.2088031 0.2346795 0.8270595
0.2087788 0.2352568 0.8269716
0.2087539 0.2358401 0.8268942
0.2088697 0.2453686 0.8272022
0.2089290 0.2459402 0.8272958
0.2089870 0.2465094 0.8273912
0.2090486 0.2470702 0.8274939
0.2091123 0.2476260 0.8276037
0.2091740 0.2481743 0.8277146
0.2086931 0.2536210 0.8296808
0.2087711 0.2541615 0.8297895
0.2088481 0.2547013 0.8298860
0.2096198 0.2233515 0.8292205
0.2095776 0.2238851 0.8291290
0.2095318 0.2244320 0.8290378
0.2094838 0.2249826 0.8289414
0.2094293 0.2255464 0.8288430
0.2093732 0.2261228 0.8287405
0.2093154 0.2267085 0.8286364
0.2092581 0.2272927 0.8285276
0.2092013 0.2278746 0.8284164
0.2091480 0.2284556 0.8283043
0.2090983 0.2290329 0.8281900
0.2090530 0.2296054 0.8280730
0.2090143 0.2301752 0.8279561
0.2089788 0.2307395 0.8278370
0.2090656 0.2492688 0.8280895
0.2091374 0.2498185 0.8282112
0.2092087 0.2503661 0.8283353
0.2092867 0.2509122 0.8284649
0.2093656 0.2514591 0.8285948
0.2093453 0.2351600 0.8267476
0.2093308 0.2357195 0.8266590
0.2093154 0.2362856 0.8265793
0.2093060 0.2368536 0.8265164
0.2092979 0.2374268 0.8264666
0.2092911 0.2380044 0.8264254
0.2092856 0.2385849 0.8263943
0.2092825 0.2391678 0.8263733
0.2092861 0.2397526 0.8263699
0.2092926 0.2403383 0.8263735
0.2093050 0.2409237 0.8263881
0.2093240 0.2415081 0.8264133
0.2093504 0.2420901 0.8264503
0.2093835 0.2426685 0.8265012
0.2094199 0.2432481 0.8265560
0.2094582 0.2438247 0.8266142
0.2095046 0.2443915 0.8266856
0.2095524 0.2449576 0.8267654
0.2096015 0.2455216 0.8268522
0.2096498 0.2460759 0.8269447
0.2092666 0.2525835 0.8289986
0.2093446 0.2531303 0.8291169
0.2094229 0.2536778 0.8292276
0.2095039 0.2542273 0.8293302
0.2102202 0.2238245 0.8288537
0.2101817 0.2243219 0.8287679
0.2101376 0.2248361 0.8286766
0.2095422 0.2306415 0.8276188
0.2095028 0.2312182 0.8275018
0.2094692 0.2317919 0.8273837
0.2094390 0.2323594 0.8272668
0.2094117 0.2329247 0.8271542
0.2093860 0.2334883 0.8270462
0.2093613 0.2340539 0.8269436
0.2093360 0.2346232 0.8268479
0.2095076 0.2471320 0.8272686
0.2095693 0.2476922 0.8273760
0.2096286 0.2482470 0.8274836
0.2096926 0.2487949 0.8276014
0.2097570 0.2493447 0.8277224
0.2098242 0.2498971 0.8278448
0.2100848 0.2232914 0.8290210
0.2099020 0.2255196 0.8286375
0.2098506 0.2261002 0.8285320
0.2097994 0.2266847 0.8284239
0.2097491 0.2272665 0.8283137
0.2097017 0.2278474 0.8282007
0.2096570 0.2284238 0.8280864
0.2096161 0.2289981 0.8279718
0.2095776 0.2295668 0.8278526
0.2095437 0.2301338 0.8277357
0.2097449 0.2510040 0.8282264
0.2098205 0.2515541 0.8283535
0.2098986 0.2521015 0.8284772
0.2098729 0.2351162 0.8265330
0.2098558 0.2356806 0.8264451
0.2098376 0.2362497 0.8263657
0.2098203 0.2368222 0.8262977
0.2098047 0.2373999 0.8262455
0.2097894 0.2379819 0.8262044
0.2097743 0.2385661 0.8261712
0.2097633 0.2391562 0.8261522
0.2097585 0.2397487 0.8261449
0.2097608 0.2403398 0.8261486
0.2097680 0.2409322 0.8261607
0.2097836 0.2415248 0.8261888
0.2098069 0.2421141 0.8262261
0.2098370 0.2426985 0.8262750
0.2098720 0.2432806 0.8263309
0.2099089 0.2438611 0.8263900
0.2099542 0.2444328 0.8264624
0.2100011 0.2450026 0.8265402
0.2100494 0.2455702 0.8266237
0.2100996 0.2461294 0.8267159
0.2097786 0.2532285 0.8288734
0.2098484 0.2537816 0.8289779
0.2099184 0.2543362 0.8290739
0.2106886 0.2237844 0.8286700
0.2106490 0.2242918 0.8285816
0.2106035 0.2248092 0.8284887
0.2100686 0.2305853 0.8274117
0.2100348 0.2311622 0.8272925
0.2100052 0.2317359 0.8271744
0.2099775 0.2323032 0.8270589
0.2099499 0.2328678 0.8269459
0.2099215 0.2334294 0.8268380
0.2098922 0.2339932 0.8267343
0.2098610 0.2345623 0.8266393
0.2099746 0.2471990 0.8270376
0.2100353 0.2477631 0.8271440
0.2100951 0.2483213 0.8272544
0.2101570 0.2488745 0.8273702
0.2102177 0.2494288 0.8274834
0.2102836 0.2499826 0.8276039
0.2104364 0.2378239 0.8259260
0.2104387 0.2383855 0.8258791
0.2104435 0.2389455 0.8258463
0.2104489 0.2395068 0.8258260
0.2104543 0.2400745 0.8258169
0.2104661 0.2406436 0.8258169
0.2104840 0.2412106 0.8258358
0.2105029 0.2417805 0.8258600
0.2105271 0.2423450 0.8258984
0.2105540 0.2429115 0.8259430
0.2105841 0.2434799 0.8259980
0.2106177 0.2440348 0.8260601
0.2106556 0.2445891 0.8261309
0.2106946 0.2451436 0.8262107
0.2105644 0.2232352 0.8288318
0.2103882 0.2255007 0.8284289
0.2103431 0.2260877 0.8283211
0.2102993 0.2266708 0.8282067
0.2102583 0.2272507 0.8280961
0.2102182 0.2278296 0.8279824
0.2101807 0.2284028 0.8278656
0.2101473 0.2289742 0.8277499
0.2101154 0.2295392 0.8276316
0.2100852 0.2301026 0.8275136
0.2102032 0.2510919 0.8279833
0.2102716 0.2516452 0.8281037
0.2103455 0.2521975 0.8282269
0.2104045 0.2350682 0.8263179
0.2103826 0.2356339 0.8262310
0.2103588 0.2362034 0.8261539
0.2103320 0.2367783 0.8260843
0.2103056 0.2373585 0.8260270
0.2105568 0.2461869 0.8264905
0.2106072 0.2467479 0.8265871
0.2106584 0.2473024 0.8266908
0.2102112 0.2533194 0.8286263
0.2102736 0.2538761 0.8287280
0.2103337 0.2544343 0.8288203
0.2111648 0.2237396 0.8284913
0.2111247 0.2242528 0.8283979
0.2110813 0.2247745 0.8283048
0.2110313 0.2253050 0.8282095
0.2109845 0.2258644 0.8281076
0.2109325 0.2264422 0.8280026
0.2108769 0.2270230 0.8278936
0.2108260 0.2276081 0.8277836
0.2107745 0.2281985 0.8276720
0.2107260 0.2287880 0.8275607
0.2106809 0.2293756 0.8274455
0.2106421 0.2299617 0.8273289
0.2106072 0.2305419 0.8272089
0.2105752 0.2311170 0.8270897
0.2105442 0.2316871 0.8269704
0.2105143 0.2322510 0.8268550
0.2104843 0.2328131 0.8267446
0.2104524 0.2333717 0.8266382
0.2104163 0.2339335 0.8265328
0.2103790 0.2345010 0.8264362
0.2105693 0.2483994 0.8270178
0.2106268 0.2489560 0.8271326
0.2106857 0.2495110 0.8272464
0.2107482 0.2500655 0.8273657
0.2108134 0.2506216 0.8274868
0.2108823 0.2511802 0.8276103
0.2109605 0.2366898 0.8258314
0.2109529 0.2372471 0.8257658
0.2109449 0.2378041 0.8257089
0.2109374 0.2383670 0.8256613
0.2109327 0.2389306 0.8256272
0.2109290 0.2394992 0.8256048
0.2109283 0.2400726 0.8255945
0.2109342 0.2406478 0.8255943
0.2109463 0.2412231 0.8256108
0.2109620 0.2418001 0.8256351
0.2109849 0.2423716 0.8256740
0.2110114 0.2429413 0.8257228
0.2110395 0.2435102 0.8257775
0.2110721 0.2440704 0.8258395
0.2111092 0.2446281 0.8259117
0.2111472 0.2451847 0.8259916
0.2111848 0.2457374 0.8260761
0.2107912 0.2522871 0.8279732
0.2108556 0.2528462 0.8280817
0.2109203 0.2534106 0.8281811
0.2109854 0.2539718 0.8282749
0.2110524 0.2545389 0.8283600
0.2109602 0.2344517 0.8262117
0.2109337 0.2350136 0.8261146
0.2109051 0.2355785 0.8260262
0.2108727 0.2361482 0.8259498
0.2110789 0.2468120 0.8263604
0.2111280 0.2473711 0.8264608
0.2111770 0.2479274 0.8265647
0.2116553 0.2236965 0.8283230
0.2116158 0.2242145 0.8282270
0.2115748 0.2247412 0.8281284
0.2115285 0.2252829 0.8280287
0.2114853 0.2258478 0.8279229
0.2114364 0.2264248 0.8278127
0.2113894 0.2270059 0.8277016
0.2113458 0.2275910 0.8275896
0.2113018 0.2281769 0.8274774
0.2112587 0.2287617 0.8273621
0.2112187 0.2293450 0.8272461
0.2111820 0.2299270 0.8271278
0.2111480 0.2305039 0.8270081
0.2111147 0.2310749 0.8268903
0.2110819 0.2316408 0.8267737
0.2110482 0.2322000 0.8266595
0.2110135 0.2327579 0.8265498
0.2109767 0.2333119 0.8264416
0.2109366 0.2338716 0.8263388
0.2111023 0.2490367 0.8268916
0.2111590 0.2495910 0.8270085
0.2112184 0.2501456 0.8271252
0.2112784 0.2507051 0.8272402
0.2113422 0.2512664 0.8273565
0.2114101 0.2518277 0.8274710
0.2114826 0.2366455 0.8256177
0.2114634 0.2372046 0.8255454
0.2114470 0.2377670 0.8254886
0.2114325 0.2383343 0.8254432
0.2114195 0.2389044 0.8254074
0.2114102 0.2394807 0.8253840
0.2114054 0.2400619 0.8253726
0.2114075 0.2406454 0.8253724
0.2114169 0.2412301 0.8253877
0.2114323 0.2418141 0.8254126
0.2114560 0.2423936 0.8254538
0.2114814 0.2429704 0.8254997
0.2115102 0.2435450 0.8255546
0.2115422 0.2441127 0.8256159
0.2115785 0.2446752 0.8256882
0.2116149 0.2452357 0.8257656
0.2116538 0.2457932 0.8258500
0.2112960 0.2529284 0.8278308
0.2113546 0.2534925 0.8279296
0.2114118 0.2540597 0.8280184
0.2114670 0.2546275 0.8280985
0.2114906 0.2343920 0.8260130
0.2114566 0.2349528 0.8259167
0.2114205 0.2355167 0.8258278
0.2113775 0.2360847 0.8257474
0.2115570 0.2468793 0.8261309
0.2116073 0.2474414 0.8262327
0.2116559 0.2480011 0.8263347
0.2121022 0.2398466 0.8250680
0.2121046 0.2403997 0.8250604
0.2121078 0.2409528 0.8250592
0.2121155 0.2415058 0.8250743
0.2121280 0.2420551 0.8251029
0.2121446 0.2426054 0.8251401
0.2121654 0.2431571 0.8251904
0.2121619 0.2236451 0.8281571
0.2121227 0.2241715 0.8280574
0.2120820 0.2247093 0.8279545
0.2120361 0.2252609 0.8278495
0.2119948 0.2258306 0.8277393
0.2119527 0.2264105 0.8276271
0.2119117 0.2269923 0.8275146
0.2118731 0.2275769 0.8274018
0.2118344 0.2281596 0.8272871
0.2117965 0.2287411 0.8271722
0.2117598 0.2293203 0.8270557
0.2117238 0.2298975 0.8269368
0.2116893 0.2304692 0.8268202
0.2116530 0.2310343 0.8267014
0.2116175 0.2315942 0.8265858
0.2115806 0.2321479 0.8264698
0.2115417 0.2326999 0.8263563
0.2115016 0.2332498 0.8262490
0.2114577 0.2338065 0.8261481
0.2115822 0.2491135 0.8266538
0.2116334 0.2496682 0.8267689
0.2116881 0.2502225 0.8268824
0.2117450 0.2507817 0.8269976
0.2118022 0.2513445 0.8271067
0.2118630 0.2519095 0.8272137
0.2119977 0.2365924 0.8254073
0.2119725 0.2371548 0.8253389
0.2119477 0.2377208 0.8252789
0.2119250 0.2382925 0.8252297
0.2119056 0.2388706 0.8251920
0.2118921 0.2394570 0.8251680
0.2120145 0.2441595 0.8253884
0.2120507 0.2447275 0.8254603
0.2120883 0.2452923 0.8255400
0.2121273 0.2458539 0.8256235
0.2117367 0.2530011 0.8275715
0.2117843 0.2535677 0.8276654
0.2118351 0.2541389 0.8277533
0.2118799 0.2547087 0.8278304
0.2120138 0.2343269 0.8258211
0.2119721 0.2348856 0.8257262
0.2119275 0.2354471 0.8256369
0.2118767 0.2360117 0.8255527
0.2120462 0.2469499 0.8258989
0.2120930 0.2475143 0.8259987
0.2121385 0.2480759 0.8261006
0.2121859 0.2486340 0.8262053
0.2122387 0.2491928 0.8263154
0.2126171 0.2381798 0.8249389
0.2126035 0.2387245 0.8248982
0.2125902 0.2392707 0.8248673
0.2125813 0.2398252 0.8248496
0.2125762 0.2403874 0.8248391
0.2125770 0.2409510 0.8248406
0.2125833 0.2415131 0.8248561
0.2125960 0.2420721 0.8248866
0.2126129 0.2426301 0.8249255
0.2126321 0.2431883 0.8249736
0.2126529 0.2437436 0.8250283
0.2126789 0.2442947 0.8250907
0.2127063 0.2448453 0.8251629
0.2126736 0.2235981 0.8279971
0.2126335 0.2241328 0.8278945
0.2125935 0.2246804 0.8277840
0.2125533 0.2252427 0.8276771
0.2125165 0.2258188 0.8275654
0.2124798 0.2264008 0.8274509
0.2124437 0.2269820 0.8273363
0.2124083 0.2275650 0.8272216
0.2123735 0.2281450 0.8271066
0.2123375 0.2287231 0.8269890
0.2123011 0.2292974 0.8268715
0.2122640 0.2298687 0.8267533
0.2122272 0.2304342 0.8266352
0.2121895 0.2309942 0.8265183
0.2121511 0.2315475 0.8264007
0.2121120 0.2320949 0.8262857
0.2120692 0.2326404 0.8261744
0.2120242 0.2331831 0.8260685
0.2119760 0.2337347 0.8259678
0.2121626 0.2502979 0.8266315
0.2122124 0.2508564 0.8267465
0.2122649 0.2514174 0.8268581
0.2123181 0.2519842 0.8269616
0.2123712 0.2525523 0.8270594
0.2124267 0.2531216 0.8271553
0.2124752 0.2536971 0.8272343
0.2125257 0.2542707 0.8273116
0.2125380 0.2359744 0.8252866
0.2125057 0.2365334 0.8252068
0.2124725 0.2370973 0.8251351
0.2124409 0.2376676 0.8250732
0.2126084 0.2459168 0.8254001
0.2126501 0.2464786 0.8254931
0.2126923 0.2470368 0.8255891
0.2127338 0.2475951 0.8256862
0.2132314 0.2235384 0.8278358
0.2132014 0.2240397 0.8277358
0.2131710 0.2245451 0.8276322
0.2125781 0.2337055 0.8257433
0.2125304 0.2342564 0.8256357
0.2124820 0.2348122 0.8255387
0.2124306 0.2353724 0.8254466
0.2126725 0.2487066 0.8259768
0.2127204 0.2492666 0.8260818
0.2127704 0.2498301 0.8261848
0.2128238 0.2503978 0.8262903
0.2128806 0.2509684 0.8263967
0.2131053 0.2381331 0.8247351
0.2130855 0.2386838 0.8246904
0.2130681 0.2392397 0.8246573
0.2130567 0.2398041 0.8246356
0.2130514 0.2403757 0.8246266
0.2130511 0.2409485 0.8246270
0.2130582 0.2415198 0.8246417
0.2130713 0.2420891 0.8246699
0.2130880 0.2426560 0.8247073
0.2131101 0.2432203 0.8247570
0.2131324 0.2437824 0.8248109
0.2131591 0.2443406 0.8248733
0.2131901 0.2448959 0.8249466
0.2130829 0.2252282 0.8275124
0.2130498 0.2258091 0.8273977
0.2130170 0.2263949 0.8272827
0.2129836 0.2269751 0.8271661
0.2129497 0.2275564 0.8270481
0.2129165 0.2281335 0.8269310
0.2128796 0.2287068 0.8268112
0.2128419 0.2292751 0.8266946
0.2128026 0.2298397 0.8265775
0.2127637 0.2303988 0.8264591
0.2127231 0.2309524 0.8263425
0.2126821 0.2314985 0.8262265
0.2126390 0.2320376 0.8261128
0.2125919 0.2325759 0.8260026
0.2125427 0.2331117 0.8258965
0.2127750 0.2520504 0.8267102
0.2128200 0.2526213 0.8268009
0.2128684 0.2531917 0.8268914
0.2129100 0.2537680 0.8269669
0.2129520 0.2543424 0.8270397
0.2130464 0.2359068 0.8250906
0.2130072 0.2364665 0.8250135
0.2129674 0.2370338 0.8249401
0.2129299 0.2376101 0.8248750
0.2130976 0.2459781 0.8251771
0.2131402 0.2465428 0.8252700
0.2131816 0.2471064 0.8253616
0.2132260 0.2476671 0.8254583
0.2137448 0.2396098 0.8243446
0.2137301 0.2401385 0.8243313
0.2137208 0.2406768 0.8243281
0.2137185 0.2412145 0.8243370
0.2137185 0.2417521 0.8243560
0.2137280 0.2422839 0.8243907
0.2137398 0.2428214 0.8244285
0.2137367 0.2235021 0.8276885
0.2137095 0.2240078 0.8275877
0.2136813 0.2245177 0.8274855
0.2130978 0.2336328 0.8255630
0.2130455 0.2341796 0.8254561
0.2129915 0.2347336 0.8253577
0.2129356 0.2352901 0.8252652
0.2131563 0.2487763 0.8257438
0.2132014 0.2493364 0.8258484
0.2132492 0.2498974 0.8259522
0.2132980 0.2504646 0.8260508
0.2133510 0.2510338 0.8261525
0.2136256 0.2375301 0.8245948
0.2135959 0.2380819 0.8245356
0.2135710 0.2386406 0.8244885
0.2135513 0.2392095 0.8244515
0.2136165 0.2438257 0.8245942
0.2136442 0.2443896 0.8246581
0.2136750 0.2449507 0.8247298
0.2136240 0.2252157 0.8273546
0.2135932 0.2258008 0.8272381
0.2135626 0.2263906 0.8271180
0.2135323 0.2269705 0.8270005
0.2134991 0.2275500 0.8268800
0.2134649 0.2281232 0.8267615
0.2134259 0.2286912 0.8266439
0.2133851 0.2292525 0.8265269
0.2133429 0.2298100 0.8264109
0.2133023 0.2303624 0.8262926
0.2132588 0.2309085 0.8261748
0.2132138 0.2314462 0.8260585
0.2131663 0.2319763 0.8259452
0.2131153 0.2325063 0.8258338
0.2130602 0.2330322 0.8257196
0.2132326 0.2521093 0.8264556
0.2132734 0.2526825 0.8265463
0.2133124 0.2532556 0.8266278
0.2133473 0.2538331 0.8266989
0.2133805 0.2544084 0.8267671
0.2136504 0.2347349 0.8251066
0.2136016 0.2352820 0.8250065
0.2135534 0.2358343 0.8249143
0.2135036 0.2363933 0.8248286
0.2134567 0.2369658 0.8247507
0.2135941 0.2460400 0.8249557
0.2136334 0.2466077 0.8250449
0.2136742 0.2471734 0.8251379
0.2137147 0.2477376 0.8252302
0.2137591 0.2483008 0.8253273
0.2138058 0.2488669 0.8254232
0.2143335 0.2374871 0.8243059
0.2143042 0.2380066 0.8242460
0.2142790 0.2385271 0.8241971
0.2142534 0.2390479 0.8241615
0.2142329 0.2395784 0.8241337
0.2142160 0.2401169 0.8241198
0.2142048 0.2406662 0.8241174
0.2142017 0.2412154 0.8241271
0.2142011 0.2417629 0.8241472
0.2142107 0.2423052 0.8241812
0.2142219 0.2428511 0.8242183
0.2142378 0.2434002 0.8242616
0.2142510 0.2234718 0.8275603
0.2142257 0.2239808 0.8274584
0.2141994 0.2244955 0.8273558
0.2141675 0.2250158 0.8272509
0.2137264 0.2324788 0.8256266
0.2136715 0.2330180 0.8255029
0.2136174 0.2335583 0.8253927
0.2135594 0.2341033 0.8252875
0.2137292 0.2499611 0.8257112
0.2137722 0.2505254 0.8258089
0.2138193 0.2510940 0.8259072
0.2138625 0.2516695 0.8259926
0.2139026 0.2522463 0.8260697
0.2139461 0.2528217 0.8261495
0.2139873 0.2533983 0.8262253
0.2140238 0.2539788 0.8262879
0.2140591 0.2545631 0.8263445
0.2142004 0.2363765 0.8245451
0.2141591 0.2369183 0.8244679
0.2141357 0.2444412 0.8244413
0.2141657 0.2450071 0.8245124
0.2141974 0.2455729 0.8245884
0.2141554 0.2257953 0.8270882
0.2141306 0.2263909 0.8269638
0.2141014 0.2269702 0.8268424
0.2140679 0.2275471 0.8267210
0.2140288 0.2281136 0.8266003
0.2139841 0.2286732 0.8264822
0.2139380 0.2292253 0.8263647
0.2138923 0.2297746 0.8262482
0.2138497 0.2303197 0.8261290
0.2138031 0.2308570 0.8260103
0.2137529 0.2313886 0.8258951
0.2136979 0.2319129 0.8257806
0.2142153 0.2341185 0.8250378
0.2141617 0.2346619 0.8249334
0.2141070 0.2352080 0.8248318
0.2140496 0.2357591 0.8247310
0.2141352 0.2466665 0.8248255
0.2141716 0.2472354 0.8249160
0.2142103 0.2478013 0.8250083
0.2142495 0.2483671 0.8251008
0.2142937 0.2489332 0.8251970
0.2143408 0.2495033 0.8252951
0.2143900 0.2500791 0.8253884
0.2144383 0.2506586 0.8254746
0.2144874 0.2512354 0.8255608
0.2148352 0.2374239 0.8241075
0.2147992 0.2379477 0.8240476
0.2147681 0.2384763 0.8239976
0.2147404 0.2390083 0.8239633
0.2147167 0.2395503 0.8239306
0.2147014 0.2401006 0.8239166
0.2146896 0.2406581 0.8239112
0.2146864 0.2412156 0.8239193
0.2146878 0.2417725 0.8239388
0.2146959 0.2423245 0.8239716
0.2147057 0.2428794 0.8240096
0.2147203 0.2434355 0.8240558
0.2147950 0.2234311 0.8274327
0.2147676 0.2239478 0.8273308
0.2147380 0.2244696 0.8272261
0.2147054 0.2249973 0.8271205
0.2146768 0.2255521 0.8270073
0.2146507 0.2261206 0.8268889
0.2146269 0.2267023 0.8267618
0.2146069 0.2272934 0.8266330
0.2145823 0.2278804 0.8265003
0.2145583 0.2284698 0.8263668
0.2144559 0.2302125 0.8259697
0.2144113 0.2307764 0.8258410
0.2143622 0.2313315 0.8257140
0.2143082 0.2318750 0.8255855
0.2142511 0.2324115 0.8254594
0.2141929 0.2329453 0.8253431
0.2141326 0.2334793 0.8252343
0.2143658 0.2523035 0.8258231
0.2144011 0.2528800 0.8258954
0.2144321 0.2534595 0.8259576
0.2144623 0.2540409 0.8260132
0.2144877 0.2546243 0.8260601
0.2146947 0.2363047 0.8243596
0.2146483 0.2368505 0.8242824
0.2146345 0.2444932 0.8242268
0.2146638 0.2450610 0.8242993
0.2146939 0.2456289 0.8243733
0.2144977 0.2291869 0.8262120
0.2144517 0.2297288 0.8260927
0.2147302 0.2340435 0.8248748
0.2146677 0.2345835 0.8247636
0.2146075 0.2351277 0.8246575
0.2145476 0.2356809 0.8245565
0.2146470 0.2467252 0.8245986
0.2146782 0.2472942 0.8246900
0.2147106 0.2478612 0.8247801
0.2147449 0.2484269 0.8248721
0.2147835 0.2489943 0.8249664
0.2148250 0.2495649 0.8250599
0.2148701 0.2501392 0.8251528
0.2149136 0.2507179 0.8252362
0.2149583 0.2512959 0.8253183
0.2154034 0.2363144 0.8240847
0.2153660 0.2368355 0.8240028
0.2153261 0.2373566 0.8239301
0.2152868 0.2378867 0.8238642
0.2152508 0.2384246 0.8238087
0.2152213 0.2389712 0.8237693
0.2151986 0.2395267 0.8237351
0.2151855 0.2400883 0.8237184
0.2151761 0.2406559 0.8237107
0.2151746 0.2412234 0.8237175
0.2151763 0.2417890 0.8237348
0.2151843 0.2423496 0.8237673
0.2151944 0.2429112 0.8238079
0.2152077 0.2434732 0.8238541
0.2152271 0.2440319 0.8239086
0.2152506 0.2445906 0.8239712
0.2153310 0.2233884 0.8273185
0.2153011 0.2239100 0.8272159
0.2152732 0.2244411 0.8271083
0.2152436 0.2249779 0.8270001
0.2152202 0.2255407 0.8268803
0.2151969 0.2261131 0.8267576
0.2151768 0.2266976 0.8266282
0.2151589 0.2272887 0.8264968
0.2151367 0.2278746 0.8263613
0.2151130 0.2284615 0.8262247
0.2150039 0.2301777 0.8258247
0.2149562 0.2307320 0.8256935
0.2149018 0.2312767 0.8255611
0.2148418 0.2318099 0.8254274
0.2147794 0.2323396 0.8253052
0.2147139 0.2328660 0.8251887
0.2146457 0.2333929 0.8250781
0.2148223 0.2523543 0.8255660
0.2148504 0.2529318 0.8256330
0.2148757 0.2535115 0.8256923
0.2148969 0.2540924 0.8257416
0.2149150 0.2546732 0.8257833
0.2152488 0.2356905 0.8242888
0.2151995 0.2456854 0.8241578
0.2152304 0.2462536 0.8242418
0.2152632 0.2468240 0.8243246
0.2150742 0.2291434 0.8260682
0.2150282 0.2296778 0.8259456
0.2154327 0.2323659 0.8250904
0.2153730 0.2329012 0.8249593
0.2153081 0.2334323 0.8248342
0.2152407 0.2339641 0.8247163
0.2151699 0.2345015 0.8245997
0.2151033 0.2350455 0.8244918
0.2152152 0.2479128 0.8245446
0.2152462 0.2484768 0.8246407
0.2152770 0.2490459 0.8247311
0.2153135 0.2496161 0.8248259
0.2153489 0.2501907 0.8249117
0.2153846 0.2507699 0.8249903
0.2154204 0.2513506 0.8250641
0.2154541 0.2519313 0.8251311
0.2154871 0.2525125 0.8251931
0.2155193 0.2530951 0.8252514
0.2155422 0.2536804 0.8252880
0.2155752 0.2542706 0.8253314
0.2159625 0.2357255 0.8240111
0.2159099 0.2362424 0.8239109
0.2158605 0.2367635 0.8238214
0.2158166 0.2372921 0.8237508
0.2157734 0.2378304 0.8236795
0.2157357 0.2383792 0.8236210
0.2157070 0.2389412 0.8235763
0.2156775 0.2418119 0.8235293
0.2156869 0.2423800 0.8235600
0.2156989 0.2429473 0.8236030
0.2157110 0.2435133 0.8236486
0.2157282 0.2440778 0.8237040
0.2157486 0.2446418 0.8237664
0.2157742 0.2452098 0.8238357
0.2158776 0.2233493 0.8272088
0.2158449 0.2238762 0.8271072
0.2158181 0.2244152 0.8269960
0.2157888 0.2249596 0.8268827
0.2157710 0.2255301 0.8267605
0.2157508 0.2261065 0.8266360
0.2157345 0.2266931 0.8265050
0.2157188 0.2272829 0.8263719
0.2156978 0.2278659 0.8262316
0.2156739 0.2284479 0.8260937
0.2156423 0.2290202 0.8259579
0.2156025 0.2295831 0.8258207
0.2155572 0.2301344 0.8256860
0.2155046 0.2306780 0.8255519
0.2154430 0.2312110 0.8254142
0.2153779 0.2317376 0.8252848
0.2158741 0.2345539 0.8243358
0.2158082 0.2350786 0.8242283
0.2157420 0.2463068 0.8240258
0.2157697 0.2468790 0.8241068
0.2158005 0.2474500 0.8241910
0.2158349 0.2480232 0.8242744
0.2158752 0.2485984 0.8243593
0.2160267 0.2317722 0.8250853
0.2159672 0.2323037 0.8249474
0.2159012 0.2328289 0.8248132
0.2158282 0.2333530 0.8246873
0.2157527 0.2338794 0.8245649
0.2158060 0.2496595 0.8245892
0.2158343 0.2502329 0.8246724
0.2158624 0.2508123 0.8247453
0.2158893 0.2513953 0.8248107
0.2159170 0.2519777 0.8248743
0.2159441 0.2525596 0.8249349
0.2159713 0.2531437 0.8249899
0.2159879 0.2537299 0.8250223
0.2160071 0.2543183 0.8250533
0.2164655 0.2356551 0.8238437
0.2164079 0.2361720 0.8237455
0.2163495 0.2366953 0.8236521
0.2163029 0.2372337 0.8235804
0.2162554 0.2377796 0.8234998
0.2162168 0.2383402 0.8234372
0.2161887 0.2389185 0.8233797
0.2161859 0.2418437 0.8233256
0.2161979 0.2424173 0.8233569
0.2162114 0.2429888 0.8233977
0.2162234 0.2435578 0.8234409
0.2162391 0.2441255 0.8234970
0.2162571 0.2446923 0.8235594
0.2162805 0.2452623 0.8236290
0.2164349 0.2233079 0.8271037
0.2164008 0.2238393 0.8269992
0.2163765 0.2243858 0.8268868
0.2163503 0.2249390 0.8267720
0.2163350 0.2255153 0.8266492
0.2163173 0.2260952 0.8265206
0.2163036 0.2266835 0.8263861
0.2162889 0.2272728 0.8262527
0.2162676 0.2278532 0.8261071
0.2162402 0.2284281 0.8259671
0.2162053 0.2289918 0.8258301
0.2161630 0.2295438 0.8256916
0.2161144 0.2300837 0.8255530
0.2160580 0.2306182 0.8254201
0.2159922 0.2311437 0.8252809
0.2163787 0.2344734 0.8241832
0.2163063 0.2350011 0.8240744
0.2162605 0.2463563 0.8238104
0.2162832 0.2469291 0.8238883
0.2163098 0.2475013 0.8239725
0.2163376 0.2480760 0.8240521
0.2163718 0.2486522 0.8241360
0.2164066 0.2492330 0.8242152
0.2164442 0.2498154 0.8242909
0.2164811 0.2504015 0.8243592
0.2165690 0.2317144 0.8249525
0.2165056 0.2322344 0.8248131
0.2164322 0.2327473 0.8246720
0.2163520 0.2332629 0.8245421
0.2162694 0.2337888 0.8244226
0.2163603 0.2514361 0.8245551
0.2163833 0.2520185 0.8246171
0.2164026 0.2525999 0.8246711
0.2164195 0.2531821 0.8247184
0.2164293 0.2537656 0.8247509
0.2164378 0.2543505 0.8247776
0.2170884 0.2345712 0.8239278
0.2170256 0.2350733 0.8238077
0.2169616 0.2355849 0.8236918
0.2169015 0.2361013 0.8235918
0.2168351 0.2366280 0.8234871
0.2167421 0.2436064 0.8232338
0.2167579 0.2441769 0.8232908
0.2167736 0.2447461 0.8233504
0.2167952 0.2453182 0.8234196
0.2169847 0.2232661 0.8270049
0.2169536 0.2238045 0.8268978
0.2169318 0.2243568 0.8267840
0.2169109 0.2249190 0.8266702
0.2168988 0.2255000 0.8265453
0.2168843 0.2260828 0.8264155
0.2168739 0.2266725 0.8262783
0.2168613 0.2272607 0.8261445
0.2168408 0.2278365 0.8259948
0.2168128 0.2284029 0.8258548
0.2167763 0.2289576 0.8257174
0.2167325 0.2294986 0.8255751
0.2166821 0.2300270 0.8254350
0.2166250 0.2305530 0.8253007
0.2165555 0.2310657 0.8251618
0.2169628 0.2338780 0.8241653
0.2167804 0.2463999 0.8235858
0.2167993 0.2469731 0.8236618
0.2168228 0.2475462 0.8237492
0.2168457 0.2481213 0.8238304
0.2168728 0.2486980 0.8239098
0.2169015 0.2492778 0.8239845
0.2169314 0.2498589 0.8240549
0.2169595 0.2504430 0.8241155
0.2172226 0.2306106 0.8251318
0.2171753 0.2311353 0.8249765
0.2171170 0.2316498 0.8248285
0.2170481 0.2321550 0.8246789
0.2169708 0.2326581 0.8245391
0.2168866 0.2331653 0.8244076
0.2168398 0.2514762 0.8242989
0.2168551 0.2520576 0.8243567
0.2168654 0.2526362 0.8244042
0.2168711 0.2532147 0.8244437
0.2168728 0.2537951 0.8244733
0.2168709 0.2543752 0.8244972
0.2176487 0.2340182 0.8239141
0.2175878 0.2345033 0.8237821
0.2175210 0.2350036 0.8236596
0.2172684 0.2436547 0.8230308
0.2172835 0.2442271 0.8230863
0.2172994 0.2447977 0.8231464
0.2173198 0.2453713 0.8232168
0.2173419 0.2459483 0.8232840
0.2173679 0.2465262 0.8233545
0.2173955 0.2471069 0.8234201
0.2174312 0.2476835 0.8234981
0.2174654 0.2482677 0.8235671
0.2175375 0.2232279 0.8269095
0.2175099 0.2237726 0.8267998
0.2174924 0.2243319 0.8266888
0.2174767 0.2249016 0.8265752
0.2174677 0.2254863 0.8264478
0.2174569 0.2260712 0.8263169
0.2174496 0.2266611 0.8261771
0.2174392 0.2272464 0.8260414
0.2174205 0.2278162 0.8258902
0.2173937 0.2283734 0.8257528
0.2173558 0.2289181 0.8256126
0.2173126 0.2294480 0.8254693
0.2172633 0.2299660 0.8253296
0.2176944 0.2322990 0.8244649
0.2176283 0.2327967 0.8243145
0.2175568 0.2332921 0.8241678
0.2173984 0.2493167 0.8237515
0.2174207 0.2498981 0.8238157
0.2174423 0.2504811 0.8238734
0.2174626 0.2510660 0.8239250
0.2174800 0.2516503 0.8239674
0.2174961 0.2522334 0.8240080
0.2175153 0.2528232 0.8240418
0.2175234 0.2534152 0.8240552
0.2175367 0.2540101 0.8240688
0.2175345 0.2546031 0.8240650
0.2178200 0.2300411 0.8251786
0.2177813 0.2305664 0.8250207
0.2177342 0.2310778 0.8248642
0.2176732 0.2315760 0.8247053
0.2181549 0.2339547 0.8237797
0.2180928 0.2344338 0.8236477
0.2180245 0.2349310 0.8235204
0.2178259 0.2448418 0.8229426
0.2178445 0.2454154 0.8230125
0.2178639 0.2459923 0.8230780
0.2178850 0.2465739 0.8231409
0.2179102 0.2471563 0.8232076
0.2179415 0.2477355 0.8232799
0.2179725 0.2483192 0.8233453
0.2180035 0.2489036 0.8234062
0.2180336 0.2494894 0.8234649
0.2180632 0.2500756 0.8235170
0.2180889 0.2506615 0.8235591
0.2181008 0.2231951 0.8268154
0.2180782 0.2237481 0.8267080
0.2180633 0.2243119 0.8265972
0.2180506 0.2248856 0.8264833
0.2180444 0.2254730 0.8263558
0.2180359 0.2260588 0.8262237
0.2180316 0.2266485 0.8260834
0.2180235 0.2272299 0.8259450
0.2180071 0.2277924 0.8257943
0.2179828 0.2283389 0.8256545
0.2179463 0.2288731 0.8255135
0.2179050 0.2293930 0.8253675
0.2182256 0.2322410 0.8243495
0.2181592 0.2327226 0.8241897
0.2180892 0.2332107 0.8240430
0.2179483 0.2516860 0.8237101
0.2179595 0.2522688 0.8237474
0.2179680 0.2528536 0.8237761
0.2179717 0.2534402 0.8237942
0.2179711 0.2540276 0.8238016
0.2179616 0.2546141 0.8237967
0.2183823 0.2300043 0.8250773
0.2183466 0.2305170 0.8249187
0.2183007 0.2310146 0.8247570
0.2182433 0.2315007 0.8245971
0.2187222 0.2334175 0.8238037
0.2186675 0.2338887 0.8236574
0.2186057 0.2343616 0.8235185
0.2185403 0.2348561 0.8233880
0.2183524 0.2448772 0.8227386
0.2183672 0.2454517 0.8228023
0.2183832 0.2460282 0.8228651
0.2184021 0.2466106 0.8229287
0.2184236 0.2471942 0.8229943
0.2184502 0.2477755 0.8230646
0.2184761 0.2483592 0.8231267
0.2185024 0.2489431 0.8231844
0.2185251 0.2495287 0.8232334
0.2185458 0.2501136 0.8232758
0.2185670 0.2506985 0.8233166
0.2186706 0.2231664 0.8267226
0.2186500 0.2237248 0.8266179
0.2186368 0.2242940 0.8265082
0.2186267 0.2248714 0.8263955
0.2186233 0.2254605 0.8262678
0.2186114 0.2272123 0.8258572
0.2185982 0.2277666 0.8257062
0.2185782 0.2283025 0.8255661
0.2185464 0.2288237 0.8254194
0.2185093 0.2293337 0.8252696
0.2187626 0.2321699 0.8242315
0.2187048 0.2326456 0.8240750
0.2184166 0.2517206 0.8234513
0.2184190 0.2523013 0.8234806
0.2184172 0.2528799 0.8235052
0.2184096 0.2534595 0.8235186
0.2183997 0.2540391 0.8235263
0.2183846 0.2546190 0.8235223
0.2188967 0.2262467 0.8260537
0.2188627 0.2267466 0.8259327
0.2189518 0.2299619 0.8249822
0.2189209 0.2304625 0.8248236
0.2188762 0.2309433 0.8246482
0.2188245 0.2314193 0.8244913
0.2192436 0.2333525 0.8236909
0.2191936 0.2338175 0.8235418
0.2191360 0.2342887 0.8233991
0.2188776 0.2449032 0.8225394
0.2188906 0.2454753 0.8226043
0.2189028 0.2460509 0.8226624
0.2189179 0.2466350 0.8227206
0.2189357 0.2472199 0.8227802
0.2189571 0.2478054 0.8228457
0.2189777 0.2483921 0.8229028
0.2189976 0.2489775 0.8229542
0.2190160 0.2495634 0.8229991
0.2190311 0.2501485 0.8230351
0.2190467 0.2507333 0.8230706
0.2190544 0.2513173 0.8230895
0.2190645 0.2519031 0.8231126
0.2192474 0.2231387 0.8266311
0.2192279 0.2237030 0.8265292
0.2192164 0.2242778 0.8264216
0.2192076 0.2248583 0.8263117
0.2191777 0.2282625 0.8254822
0.2191508 0.2287745 0.8253327
0.2191196 0.2292718 0.8251759
0.2193636 0.2316375 0.8242979
0.2193169 0.2320994 0.8241245
0.2192649 0.2325670 0.8239680
0.2188577 0.2528982 0.8232435
0.2188417 0.2534697 0.8232509
0.2188244 0.2540404 0.8232536
0.2188028 0.2546099 0.8232479
0.2195110 0.2256622 0.8260952
0.2195104 0.2262147 0.8259736
0.2194862 0.2267010 0.8258537
0.2194632 0.2271905 0.8257394
0.2194394 0.2276727 0.8256084
0.2195307 0.2299182 0.8248929
0.2194998 0.2304031 0.8247255
0.2194584 0.2308731 0.8245548
0.2198613 0.2323801 0.8239079
0.2198256 0.2328380 0.8237448
0.2197810 0.2332871 0.8235812
0.2193984 0.2437968 0.8222411
0.2194019 0.2443615 0.8222844
0.2194045 0.2449207 0.8223334
0.2194132 0.2454898 0.8224005
0.2194198 0.2460631 0.8224578
0.2194295 0.2466485 0.8225113
0.2194429 0.2472337 0.8225680
0.2194584 0.2478243 0.8226272
0.2194729 0.2484160 0.8226766
0.2194879 0.2490042 0.8227228
0.2195003 0.2495925 0.8227603
0.2195119 0.2501785 0.8227937
0.2195211 0.2507656 0.8228207
0.2195256 0.2513506 0.8228389
0.2195302 0.2519357 0.8228570
0.2195259 0.2525222 0.8228580
0.2195192 0.2531104 0.8228516
0.2195151 0.2537040 0.8228435
0.2194979 0.2542945 0.8228201
0.2198285 0.2231093 0.8265420
0.2198113 0.2236798 0.8264487
0.2198008 0.2242587 0.8263430
0.2197924 0.2248421 0.8262350
0.2197730 0.2282237 0.8254029
0.2197496 0.2287251 0.8252504
0.2197209 0.2292135 0.8250925
0.2199223 0.2315720 0.8241897
0.2201046 0.2256418 0.8260205
0.2201055 0.2261884 0.8259010
0.2200846 0.2266644 0.8257820
0.2200644 0.2271451 0.8256688
0.2200429 0.2276217 0.8255346
0.2201132 0.2298719 0.8248085
0.2200846 0.2303435 0.8246333
0.2200508 0.2308031 0.8244675
0.2203974 0.2323339 0.8238159
0.2203650 0.2327767 0.8236450
0.2203264 0.2332194 0.8234791
0.2199379 0.2438134 0.8220453
0.2199351 0.2443722 0.8220846
0.2199302 0.2449247 0.8221303
0.2199322 0.2454928 0.8221932
0.2199313 0.2460659 0.8222450
0.2199350 0.2466520 0.8222959
0.2199425 0.2472373 0.8223525
0.2199533 0.2478331 0.8224070
0.2199644 0.2484312 0.8224528
0.2199754 0.2490238 0.8224954
0.2199837 0.2496171 0.8225281
0.2199886 0.2502066 0.8225527
0.2199907 0.2507966 0.8225722
0.2199909 0.2513827 0.8225879
0.2199890 0.2519665 0.8225995
0.2199808 0.2525490 0.8226009
0.2199667 0.2531297 0.8225929
0.2199496 0.2537114 0.8225825
0.2199227 0.2542893 0.8225557
0.2204099 0.2230837 0.8264533
0.2203951 0.2236588 0.8263622
0.2203862 0.2242419 0.8262626
0.2203708 0.2281837 0.8253341
0.2203529 0.2286743 0.8251804
0.2203274 0.2291516 0.8250160
0.2204928 0.2315137 0.8241033
0.2206868 0.2250838 0.8260667
0.2206934 0.2256348 0.8259465
0.2206955 0.2261716 0.8258266
0.2206770 0.2266315 0.8257124
0.2206644 0.2270980 0.8256021
0.2206457 0.2275689 0.8254706
0.2207006 0.2298256 0.8247304
0.2206773 0.2302871 0.8245571
0.2206486 0.2307392 0.8243937
0.2209456 0.2322819 0.8237285
0.2209186 0.2327158 0.8235519
0.2208845 0.2331508 0.8233823
0.2204592 0.2449338 0.8219273
0.2204551 0.2455000 0.8219869
0.2204482 0.2460705 0.8220368
0.2204465 0.2478389 0.8221915
0.2204522 0.2484442 0.8222318
0.2204575 0.2490416 0.8222692
0.2204612 0.2496408 0.8222961
0.2204637 0.2502340 0.8223175
0.2204612 0.2508277 0.8223302
0.2204548 0.2514147 0.8223388
0.2204470 0.2519960 0.8223453
0.2204329 0.2525737 0.8223438
0.2204097 0.2531457 0.8223307
0.2203818 0.2537146 0.8223209
0.2203461 0.2542779 0.8222901
0.2210017 0.2230605 0.8263610
0.2209472 0.2286267 0.8251099
0.2209259 0.2290924 0.8249468
0.2210720 0.2314583 0.8240231
0.2212494 0.2239465 0.8261922
0.2212584 0.2245315 0.8260943
0.2212685 0.2250841 0.8259895
0.2212761 0.2256285 0.8258739
0.2212720 0.2261507 0.8257529
0.2212559 0.2265987 0.8256497
0.2212459 0.2270569 0.8255414
0.2212294 0.2275208 0.8254116
0.2212055 0.2280010 0.8252749
0.2212888 0.2297798 0.8246535
0.2212715 0.2302320 0.8244816
0.2212453 0.2306735 0.8243164
0.2215039 0.2322287 0.8236445
0.2214805 0.2326565 0.8234657
0.2208784 0.2525954 0.8220857
0.2208476 0.2531587 0.8220691
0.2208080 0.2537111 0.8220582
0.2207668 0.2542543 0.8220262
0.2215971 0.2230429 0.8262673
0.2215429 0.2285844 0.8250427
0.2215285 0.2290384 0.8248806
0.2216563 0.2314025 0.8239493
0.2218185 0.2239563 0.8260985
0.2218269 0.2245377 0.8260112
0.2218410 0.2250845 0.8259145
0.2218489 0.2256219 0.8258039
0.2218414 0.2261308 0.8256890
0.2218320 0.2265708 0.8255890
0.2218251 0.2270217 0.8254863
0.2218148 0.2274736 0.8253551
0.2217966 0.2279453 0.8252175
0.2218821 0.2297360 0.8245843
0.2218696 0.2301817 0.8244192
0.2218487 0.2306140 0.8242533
0.2220668 0.2321753 0.8235656
0.2220501 0.2325980 0.8233894
0.2213212 0.2526200 0.8218279
0.2212817 0.2531726 0.8218111
0.2212278 0.2537085 0.8217956
0.2211812 0.2542344 0.8217624
0.2221986 0.2230292 0.8261697
0.2221357 0.2285416 0.8249785
0.2221215 0.2289907 0.8248224
0.2222435 0.2313484 0.8238803
0.2223840 0.2239709 0.8260181
0.2223918 0.2245462 0.8259343
0.2224087 0.2250852 0.8258372
0.2224120 0.2256177 0.8257303
0.2224039 0.2261199 0.8256245
0.2224020 0.2265534 0.8255268
0.2223990 0.2269973 0.8254281
0.2223943 0.2274394 0.8252990
0.2223802 0.2279005 0.8251569
0.2224753 0.2296948 0.8245223
0.2224639 0.2301338 0.8243569
0.2224462 0.2305568 0.8241873
0.2226413 0.2321248 0.8234928
0.2226270 0.2325416 0.8233145
0.2227860 0.2230263 0.8260686
0.2227211 0.2285070 0.8249142
0.2227063 0.2289518 0.8247645
0.2228305 0.2312969 0.8238152
0.2229450 0.2239815 0.8259312
0.2229518 0.2245541 0.8258531
0.2229694 0.2250880 0.8257630
0.2229702 0.2256174 0.8256576
0.2229626 0.2261153 0.8255580
0.2229669 0.2265407 0.8254668
0.2229641 0.2269774 0.8253699
0.2229602 0.2274122 0.8252431
0.2229454 0.2278676 0.8250986
0.2230643 0.2296545 0.8244629
0.2230500 0.2300864 0.8242951
0.2230328 0.2304995 0.8241180
0.2232223 0.2320747 0.8234241
0.2232083 0.2324876 0.8232461
0.2231917 0.2329039 0.8230717
0.2233761 0.2230266 0.8259723
0.2233178 0.2280240 0.8250277
0.2233055 0.2284750 0.8248587
0.2232909 0.2289140 0.8247118
0.2234191 0.2312444 0.8237532
0.2235206 0.2239913 0.8258498
0.2235295 0.2245596 0.8257777
0.2235491 0.2250867 0.8256930
0.2235491 0.2256100 0.8255913
0.2235404 0.2261022 0.8254955
0.2235473 0.2265196 0.8254074
0.2235388 0.2269514 0.8253055
0.2235299 0.2273844 0.8251859
0.2236565 0.2296132 0.8244013
0.2236434 0.2300419 0.8242347
0.2236259 0.2304495 0.8240568
0.2238070 0.2320246 0.8233563
0.2237928 0.2324337 0.8231768
0.2237784 0.2328475 0.8230008
0.2239050 0.2279932 0.8249727
0.2238923 0.2284388 0.8248040
0.2238764 0.2288729 0.8246590
0.2240069 0.2311956 0.8236929
0.2240905 0.2234288 0.8258204
0.2240938 0.2240020 0.8257626
0.2241036 0.2245665 0.8256980
0.2241225 0.2250861 0.8256209
0.2241204 0.2256031 0.8255243
0.2241100 0.2260899 0.8254347
0.2241201 0.2264976 0.8253512
0.2241124 0.2269224 0.8252472
0.2241038 0.2273525 0.8251329
0.2242486 0.2295754 0.8243444
0.2242376 0.2299985 0.8241736
0.2242227 0.2304029 0.8240013
0.2243892 0.2319773 0.8232926
0.2243777 0.2323847 0.8231122
0.2244886 0.2279654 0.8249188
0.2244768 0.2284102 0.8247519
0.2244587 0.2288362 0.8246027
0.2245941 0.2311482 0.8236332
0.2246557 0.2234485 0.8257266
0.2246597 0.2240183 0.8256738
0.2246712 0.2245773 0.8256168
0.2246923 0.2250879 0.8255482
0.2246890 0.2255975 0.8254555
0.2246780 0.2260796 0.8253728
0.2246888 0.2264777 0.8252935
0.2246787 0.2268982 0.8251925
0.2246689 0.2273251 0.8250827
0.2248387 0.2295405 0.8242898
0.2248252 0.2299582 0.8241136
0.2248103 0.2303587 0.8239516
0.2249758 0.2319340 0.8232340
0.2249626 0.2323387 0.8230515
0.2251208 0.2230525 0.8256726
0.2250688 0.2279359 0.8248668
0.2250552 0.2283784 0.8247002
0.2250363 0.2288024 0.8245508
0.2252178 0.2302866 0.8239343
0.2251994 0.2307005 0.8237578
0.2251801 0.2311043 0.8235792
0.2252217 0.2240373 0.8255855
0.2252345 0.2245912 0.8255336
0.2252561 0.2250926 0.8254740
0.2252512 0.2255945 0.8253866
0.2252384 0.2260705 0.8253101
0.2252518 0.2264608 0.8252400
0.2252436 0.2268747 0.8251384
0.2252323 0.2273026 0.8250275
0.2254296 0.2295077 0.8242381
0.2255640 0.2318910 0.8231776
0.2255467 0.2322947 0.8229955
0.2256955 0.2230729 0.8255687
0.2256989 0.2236486 0.8255429
0.2256998 0.2242227 0.8254993
0.2256428 0.2279050 0.8248112
0.2256306 0.2283463 0.8246500
0.2256140 0.2287701 0.8245045
0.2258096 0.2302478 0.8238843
0.2257869 0.2306592 0.8237083
0.2257647 0.2310642 0.8235321
0.2258194 0.2250977 0.8253955
0.2258134 0.2255949 0.8253153
0.2257981 0.2260656 0.8252454
0.2258126 0.2264449 0.8251720
0.2258074 0.2268574 0.8250774
0.2258040 0.2272843 0.8249674
0.2260146 0.2294727 0.8241895
0.2261726 0.2314464 0.8233166
0.2261522 0.2318490 0.8231273
0.2261298 0.2322514 0.8229442
0.2262633 0.2230991 0.8254634
0.2262720 0.2236709 0.8254441
0.2262782 0.2242387 0.8254101
0.2262182 0.2278759 0.8247526
0.2262026 0.2283175 0.8245989
0.2261864 0.2287400 0.8244596
0.2263994 0.2302075 0.8238381
0.2263729 0.2306181 0.8236621
0.2263771 0.2251073 0.8253177
0.2263705 0.2255978 0.8252429
0.2263501 0.2260592 0.8251805
0.2263684 0.2264279 0.8251131
0.2263626 0.2268370 0.8250220
0.2263707 0.2272596 0.8249138
0.2267968 0.2226957 0.8253627
0.2266418 0.2285516 0.8244710
0.2266222 0.2290030 0.8242965
0.2266000 0.2294377 0.8241394
0.2267636 0.2314018 0.8232610
0.2267393 0.2318056 0.8230785
0.2267115 0.2322083 0.8228980
0.2268400 0.2236979 0.8253469
0.2268515 0.2242586 0.8253187
0.2268507 0.2248220 0.8252743
0.2268511 0.2253798 0.8252132
0.2268507 0.2259218 0.8251454
0.2268513 0.2264424 0.8250536
0.2267933 0.2278504 0.8247077
0.2269878 0.2301669 0.8237942
0.2269561 0.2305759 0.8236193
0.2269048 0.2268121 0.8249620
0.2269308 0.2272338 0.8248616
0.2273725 0.2227219 0.8252427
0.2272261 0.2285181 0.8244129
0.2272054 0.2289692 0.8242494
0.2271852 0.2294094 0.8241065
0.2273951 0.2237309 0.8252443
0.2274136 0.2242846 0.8252256
0.2274170 0.2248416 0.8251867
0.2274165 0.2253903 0.8251330
0.2274189 0.2259241 0.8250733
0.2274242 0.2264330 0.8249878
0.2274127 0.2269133 0.8248580
0.2273913 0.2273653 0.8247580
0.2273533 0.2278238 0.8246621
0.2279325 0.2227552 0.8251204
0.2278099 0.2284836 0.8243545
0.2277858 0.2289340 0.8242021
0.2277695 0.2293769 0.8240700
0.2279523 0.2237681 0.8251405
0.2279696 0.2243175 0.8251296
0.2279757 0.2248671 0.8250956
0.2279708 0.2268927 0.8247876
0.2279562 0.2273333 0.8246985
0.2279091 0.2277975 0.8246196
0.2279343 0.2256333 0.8250374
0.2278571 0.2260378 0.8249930
0.2278911 0.2263714 0.8249298
0.1203500 0.2551860 0.8586870
0.1203481 0.2556317 0.8586480
0.1203627 0.2561274 0.8586255
0.1203832 0.2565965 0.8586061
0.1203904 0.2571003 0.8586029
0.1211693 0.2555185 0.8583189
0.1211810 0.2559249 0.8582810
0.1208145 0.2566389 0.8584188
0.1208223 0.2571648 0.8584221
0.1208496 0.2576880 0.8584364
0.1216181 0.2555022 0.8581542
0.1216153 0.2559347 0.8581161
0.1212594 0.2566829 0.8582318
0.1212688 0.2572254 0.8582382
0.1212940 0.2577612 0.8582489
0.1220822 0.2554941 0.8579755
0.1220686 0.2559448 0.8579425
0.1220776 0.2563887 0.8579297
0.1220641 0.2568591 0.8579180
0.1220812 0.2573583 0.8579289
0.1217872 0.2583653 0.8581056
0.1218170 0.2589132 0.8581518
0.1227168 0.2554145 0.8577552
0.1225221 0.2559532 0.8577745
0.1225237 0.2564141 0.8577537
0.1225134 0.2569024 0.8577495
0.1225330 0.2574108 0.8577630
0.1225500 0.2579209 0.8577837
0.1225804 0.2584286 0.8578225
0.1223345 0.2595471 0.8580396
0.1223724 0.2601078 0.8581021
0.1231898 0.2554043 0.8575949
0.1229817 0.2559630 0.8576067
0.1229835 0.2564408 0.8575912
