# 3D Systems, Inc.
# New Model
0.0459572 0.2094201 0.8949197
0.0459610 0.2100482 0.8948310
0.0460450 0.1935917 0.8965731
0.0460270 0.1942240 0.8965083
0.0459935 0.1980484 0.8960998
0.0460025 0.1986859 0.8960291
0.0460119 0.1993232 0.8959654
0.0460227 0.1999605 0.8959002
0.0460339 0.2005976 0.8958390
0.0460459 0.2012356 0.8957787
0.0460558 0.2018763 0.8957227
0.0460378 0.1923957 0.8966964
0.0460398 0.1930337 0.8966346
0.0460677 0.1949551 0.8964370
0.0460862 0.1955973 0.8963674
0.0461097 0.1962419 0.8962881
0.0461315 0.1968854 0.8962189
0.0461533 0.1975207 0.8961574
0.0464694 0.2024282 0.8957484
0.0464803 0.2030601 0.8956973
0.0464927 0.2036908 0.8956425
0.0465082 0.2043232 0.8955859
0.0465233 0.2049588 0.8955209
0.0465400 0.2055979 0.8954510
0.0465551 0.2062353 0.8953793
0.0465670 0.2068796 0.8953092
0.0465773 0.2075233 0.8952323
0.0465864 0.2081637 0.8951497
0.0465943 0.2087980 0.8950626
0.0466014 0.2094281 0.8949726
0.0466076 0.2100558 0.8948774
0.0466992 0.1935740 0.8965861
0.0466801 0.1942096 0.8965365
0.0466356 0.1986947 0.8961216
0.0466432 0.1993354 0.8960622
0.0466522 0.1999756 0.8960021
0.0466624 0.2006139 0.8959430
0.0466736 0.2012515 0.8958827
0.0466838 0.2018900 0.8958277
0.0466774 0.1924019 0.8966905
0.0466807 0.1930444 0.8966390
0.0467079 0.1949759 0.8964701
0.0467237 0.1956217 0.8964172
0.0467443 0.1962674 0.8963476
0.0467631 0.1969116 0.8962944
0.0467825 0.1975487 0.8962445
0.0468016 0.1981820 0.8961899
0.0470751 0.2024480 0.8958532
0.0470875 0.2030791 0.8957993
0.0471013 0.2037081 0.8957435
0.0471185 0.2043393 0.8956843
0.0471358 0.2049733 0.8956220
0.0471554 0.2056112 0.8955540
0.0471756 0.2062455 0.8954657
0.0471905 0.2068905 0.8953929
0.0472055 0.2075350 0.8953111
0.0472192 0.2081756 0.8952224
0.0472312 0.2088097 0.8951314
0.0472422 0.2094389 0.8950344
0.0472514 0.2100656 0.8949339
0.0473865 0.1922871 0.8966869
0.0473476 0.1935576 0.8966097
0.0473276 0.1941944 0.8965710
0.0473069 0.1948358 0.8965252
0.0472891 0.1954779 0.8964787
0.0472779 0.1961201 0.8964307
0.0472654 0.1987013 0.8962199
0.0472711 0.1993458 0.8961668
0.0472792 0.1999889 0.8961076
0.0472885 0.2006289 0.8960519
0.0472995 0.2012675 0.8959939
0.0473106 0.2019059 0.8959392
0.0473250 0.1930564 0.8966439
0.0474080 0.1969325 0.8963755
0.0474277 0.1975692 0.8963303
0.0474465 0.1982018 0.8962831
0.0477064 0.2037263 0.8958475
0.0477241 0.2043548 0.8957861
0.0477427 0.2049867 0.8957218
0.0477657 0.2056237 0.8956510
0.0477878 0.2062582 0.8955739
0.0478071 0.2069037 0.8954945
0.0478278 0.2075478 0.8953978
0.0478456 0.2081898 0.8953061
0.0478624 0.2088244 0.8952103
0.0478779 0.2094532 0.8951075
0.0478912 0.2100788 0.8950003
0.0480290 0.1922701 0.8967067
0.0480119 0.1929053 0.8966707
0.0479914 0.1935413 0.8966451
0.0479717 0.1941783 0.8966147
0.0479496 0.1948207 0.8965800
0.0479297 0.1954642 0.8965419
0.0479160 0.1961086 0.8965062
0.0479019 0.2000013 0.8962163
0.0479099 0.2006436 0.8961621
0.0479200 0.2012838 0.8961068
0.0479314 0.2019229 0.8960527
0.0479451 0.2025595 0.8959948
0.0479593 0.2031972 0.8959359
0.0480536 0.1969523 0.8964525
0.0480711 0.1975880 0.8964156
0.0480884 0.1982204 0.8963765
0.0481077 0.1988545 0.8963351
0.0481251 0.1994825 0.8962921
0.0484447 0.2075647 0.8955049
0.0484676 0.2082061 0.8953951
0.0484889 0.2088417 0.8952946
0.0485086 0.2094706 0.8951882
0.0485265 0.2100947 0.8950745
0.0486667 0.1922519 0.8967243
0.0486503 0.1928873 0.8967047
0.0486321 0.1935231 0.8966848
0.0486139 0.1941596 0.8966541
0.0485917 0.1948021 0.8966241
0.0485695 0.1954469 0.8966042
0.0485541 0.1960926 0.8965783
0.0485291 0.2006579 0.8962760
0.0485379 0.2013003 0.8962213
0.0485488 0.2019408 0.8961669
0.0485630 0.2025763 0.8961098
0.0485781 0.2032126 0.8960500
0.0485938 0.2038512 0.8959874
0.0486097 0.2044906 0.8959212
0.0486262 0.2051310 0.8958492
0.0486402 0.2057704 0.8957723
0.0486546 0.2064058 0.8956908
0.0486671 0.2070366 0.8956054
0.0486947 0.1969673 0.8965354
0.0487090 0.1976025 0.8965065
0.0487241 0.1982351 0.8964747
0.0487411 0.1988687 0.8964396
0.0487573 0.1994975 0.8964015
0.0487737 0.2001271 0.8963608
0.0490581 0.2075811 0.8956021
0.0490841 0.2082254 0.8955002
0.0491100 0.2088610 0.8953871
0.0491346 0.2094905 0.8952748
0.0491575 0.2101137 0.8951546
0.0492970 0.1922327 0.8967364
0.0492816 0.1928678 0.8967265
0.0492641 0.1935046 0.8967200
0.0492453 0.1941419 0.8967074
0.0492232 0.1947847 0.8966847
0.0491990 0.1954306 0.8966832
0.0491823 0.1960775 0.8966665
0.0491462 0.2006719 0.8963922
0.0491533 0.2013171 0.8963389
0.0491644 0.2019585 0.8962852
0.0491784 0.2025935 0.8962282
0.0491936 0.2032290 0.8961690
0.0492100 0.2038661 0.8961057
0.0492272 0.2045034 0.8960378
0.0492456 0.2051419 0.8959651
0.0492632 0.2057803 0.8958871
0.0492813 0.2064162 0.8958027
0.0492993 0.2070486 0.8957166
0.0493375 0.1969749 0.8966248
0.0493479 0.1976109 0.8966019
0.0493596 0.1982453 0.8965767
0.0493731 0.1988800 0.8965474
0.0493866 0.1995113 0.8965141
0.0494008 0.2001428 0.8964772
0.0496907 0.2082409 0.8956025
0.0497205 0.2088815 0.8954919
0.0497508 0.2095123 0.8953692
0.0497793 0.2101363 0.8952446
0.0499129 0.1922175 0.8967564
0.0498986 0.1928510 0.8967572
0.0498825 0.1934876 0.8967603
0.0498644 0.1941245 0.8967578
0.0498413 0.1947649 0.8967596
0.0498182 0.1954098 0.8967517
0.0497806 0.2019771 0.8964057
0.0497925 0.2026114 0.8963498
0.0498064 0.2032461 0.8962904
0.0498224 0.2038816 0.8962264
0.0498397 0.2045172 0.8961586
0.0498594 0.2051542 0.8960852
0.0498803 0.2057920 0.8960063
0.0499019 0.2064289 0.8959209
0.0499247 0.2070640 0.8958333
0.0499467 0.2076921 0.8957373
0.0499696 0.1963358 0.8967300
0.0499786 0.1969786 0.8967189
0.0499857 0.1976169 0.8967040
0.0499941 0.1982537 0.8966856
0.0500041 0.1988904 0.8966624
0.0500145 0.1995240 0.8966325
0.0500254 0.2001579 0.8965980
0.0500381 0.2007935 0.8965594
0.0500526 0.2014280 0.8965137
0.0503959 0.2101612 0.8953410
0.0505250 0.1922003 0.8967917
0.0505119 0.1928319 0.8968018
0.0504979 0.1934684 0.8968120
0.0504804 0.1941047 0.8968264
0.0504586 0.1947420 0.8968244
0.0504356 0.1953858 0.8968274
0.0504001 0.2019961 0.8965322
0.0504090 0.2026294 0.8964761
0.0504202 0.2032631 0.8964166
0.0504340 0.2038974 0.8963534
0.0504506 0.2045312 0.8962841
0.0504697 0.2051672 0.8962111
0.0504926 0.2058043 0.8961320
0.0505160 0.2064423 0.8960450
0.0505416 0.2070798 0.8959543
0.0505676 0.2077101 0.8958547
0.0505929 0.2083320 0.8957489
0.0506167 0.2089474 0.8956382
0.0506399 0.2095581 0.8955168
0.0506074 0.1963344 0.8968262
0.0506127 0.1969782 0.8968211
0.0506165 0.1976189 0.8968134
0.0506219 0.1982585 0.8968001
0.0506289 0.1988979 0.8967812
0.0506369 0.1995345 0.8967534
0.0506452 0.2001714 0.8967214
0.0506554 0.2008087 0.8966848
0.0506675 0.2014445 0.8966404
0.0510051 0.2101881 0.8954444
0.0511288 0.1921804 0.8968336
0.0511169 0.1928068 0.8968563
0.0511032 0.1934418 0.8968788
0.0510854 0.1940761 0.8968894
0.0510641 0.1947107 0.8968974
0.0510410 0.1953541 0.8969087
0.0510180 0.2020213 0.8966646
0.0510240 0.2026520 0.8966102
0.0510326 0.2032834 0.8965513
0.0510446 0.2039150 0.8964876
0.0510602 0.2045463 0.8964179
0.0510786 0.2051804 0.8963433
0.0511020 0.2058159 0.8962630
0.0511255 0.2064550 0.8961754
0.0511524 0.2070956 0.8960825
0.0511808 0.2077287 0.8959811
0.0512102 0.2083539 0.8958715
0.0512386 0.2089725 0.8957601
0.0512684 0.2095828 0.8956311
0.0512414 0.1963270 0.8969304
0.0512428 0.1969725 0.8969322
0.0512438 0.1976163 0.8969312
0.0512466 0.1982596 0.8969216
0.0512509 0.1989027 0.8969059
0.0512569 0.1995438 0.8968802
0.0512635 0.2001845 0.8968507
0.0512719 0.2008242 0.8968159
0.0512827 0.2014624 0.8967727
0.0517265 0.1921634 0.8968927
0.0517129 0.1927852 0.8969180
0.0516981 0.1934157 0.8969396
0.0516807 0.1940476 0.8969613
0.0516579 0.1946818 0.8969795
0.0517286 0.2064662 0.8963103
0.0517561 0.2071102 0.8962167
0.0517865 0.2077465 0.8961125
0.0518192 0.2083762 0.8960006
0.0518529 0.2089981 0.8958838
0.0518871 0.2096116 0.8957573
0.0519209 0.2102172 0.8956210
0.0518714 0.1956708 0.8970309
0.0518680 0.1963143 0.8970454
0.0518662 0.1969624 0.8970522
0.0518651 0.1976101 0.8970550
0.0518683 0.1989060 0.8970366
0.0518731 0.1995530 0.8970137
0.0518795 0.2001987 0.8969863
0.0518876 0.2008422 0.8969527
0.0518980 0.2014836 0.8969094
0.0519106 0.2021222 0.8968592
0.0519253 0.2027609 0.8968065
0.0519427 0.2034004 0.8967482
0.0519623 0.2040429 0.8966861
0.0519836 0.2046854 0.8966172
0.0520066 0.2053274 0.8965414
0.0520295 0.2059714 0.8964579
0.0521441 0.1984724 0.8971057
0.0523235 0.1921429 0.8969656
0.0523083 0.1927615 0.8969955
0.0522892 0.1933872 0.8970239
0.0522710 0.1940181 0.8970505
0.0524214 0.2083989 0.8961361
0.0524576 0.2090254 0.8960166
0.0524954 0.2096421 0.8958888
0.0525346 0.2102501 0.8957507
0.0524998 0.1950123 0.8971226
0.0524925 0.1956558 0.8971476
0.0524855 0.1963004 0.8971694
0.0524989 0.2008585 0.8970969
0.0525094 0.2015032 0.8970549
0.0525217 0.2021432 0.8970043
0.0525349 0.2027813 0.8969514
0.0525507 0.2034199 0.8968922
0.0525684 0.2040603 0.8968303
0.0525887 0.2047016 0.8967615
0.0526117 0.2053430 0.8966852
0.0526357 0.2059865 0.8966019
0.0526649 0.2066217 0.8965139
0.0526972 0.2072494 0.8964201
0.0527310 0.2078654 0.8963177
0.0527713 0.1972487 0.8972421
0.0527699 0.1978641 0.8972476
0.0527705 0.1984776 0.8972457
0.0527733 0.1990937 0.8972353
0.0527779 0.1997103 0.8972126
0.0527801 0.2003369 0.8971868
0.0529197 0.1921173 0.8970402
0.0528997 0.1927332 0.8970778
0.0528787 0.1933575 0.8971150
0.0528596 0.1939877 0.8971484
0.0531413 0.2102841 0.8958801
0.0531152 0.1949910 0.8972425
0.0531051 0.1956361 0.8972759
0.0530967 0.1962830 0.8972987
0.0531337 0.2021650 0.8971526
0.0531456 0.2028019 0.8970994
0.0531595 0.2034392 0.8970405
0.0531752 0.2040774 0.8969780
0.0531937 0.2047171 0.8969082
0.0532154 0.2053578 0.8968321
0.0532396 0.2060007 0.8967490
0.0532679 0.2066384 0.8966606
0.0533007 0.2072698 0.8965659
0.0533354 0.2078902 0.8964632
0.0533741 0.2084980 0.8963546
0.0534135 0.2090955 0.8962366
0.0534538 0.2096848 0.8961077
0.0533919 0.1972396 0.8973846
0.0533874 0.1978597 0.8973932
0.0533856 0.1984785 0.8973923
0.0533845 0.1990975 0.8973836
0.0533878 0.1997194 0.8973626
0.0533893 0.2003502 0.8973374
0.0533929 0.2009801 0.8973041
0.0534018 0.2016136 0.8972631
0.0535125 0.1920879 0.8971203
0.0534881 0.1927020 0.8971632
0.0534627 0.1933259 0.8972054
0.0537414 0.2103181 0.8960087
0.0537366 0.1943271 0.8973187
0.0537210 0.1949647 0.8973626
0.0537095 0.1956133 0.8974016
0.0536994 0.1962637 0.8974291
0.0537436 0.2021882 0.8973036
0.0537554 0.2028238 0.8972516
0.0537693 0.2034589 0.8971928
0.0537837 0.2040945 0.8971305
0.0538003 0.2047316 0.8970608
0.0538199 0.2053709 0.8969847
0.0538429 0.2060124 0.8969019
0.0538698 0.2066520 0.8968128
0.0539020 0.2072875 0.8967178
0.0539370 0.2079128 0.8966141
0.0539765 0.2085265 0.8965031
0.0540189 0.2091292 0.8963821
0.0540633 0.2097210 0.8962494
0.0540118 0.1972255 0.8975281
0.0540065 0.1978504 0.8975415
0.0540033 0.1984757 0.8975442
0.0540012 0.1991023 0.8975368
0.0540035 0.1997306 0.8975158
0.0540054 0.2003650 0.8974917
0.0540086 0.2009987 0.8974599
0.0540165 0.2016346 0.8974187
0.0543979 0.1923975 0.8972837
0.0543767 0.1930310 0.8973458
0.0543561 0.1936653 0.8974008
0.0543374 0.1942985 0.8974489
0.0543199 0.1949362 0.8974908
0.0543089 0.1955898 0.8975335
0.0543632 0.2028472 0.8974053
0.0543779 0.2034794 0.8973494
0.0543918 0.2041115 0.8972867
0.0544069 0.2047456 0.8972175
0.0544250 0.2053831 0.8971413
0.0544464 0.2060225 0.8970589
0.0544709 0.2066638 0.8969697
0.0545011 0.2073032 0.8968735
0.0545353 0.2079342 0.8967692
0.0545742 0.2085551 0.8966574
0.0546176 0.2091646 0.8965347
0.0546649 0.2097596 0.8963960
0.0547111 0.2103410 0.8962532
0.0546263 0.1965787 0.8976592
0.0546192 0.1972115 0.8976824
0.0546137 0.1978423 0.8976978
0.0546111 0.1984742 0.8977005
0.0546095 0.1991076 0.8976949
0.0546125 0.1997417 0.8976746
0.0546157 0.2003789 0.8976516
0.0546198 0.2010156 0.8976214
0.0546283 0.2016527 0.8975796
0.0546396 0.2022932 0.8975296
0.0550015 0.1923703 0.8974034
0.0549738 0.1929991 0.8974725
0.0549499 0.1936318 0.8975274
0.0549696 0.2028741 0.8975670
0.0549865 0.2035012 0.8975091
0.0550006 0.2041279 0.8974473
0.0550146 0.2047579 0.8973787
0.0550306 0.2053929 0.8973029
0.0550495 0.2060281 0.8972206
0.0550711 0.2066699 0.8971304
0.0553092 0.2103809 0.8963992
0.0552720 0.1946581 0.8976894
0.0552545 0.1952900 0.8977392
0.0552393 0.1959218 0.8977840
0.0552288 0.1965572 0.8978169
0.0552208 0.1971961 0.8978417
0.0552153 0.1978350 0.8978578
0.0552130 0.1984756 0.8978614
0.0552129 0.1991169 0.8978571
0.0552215 0.2003977 0.8978166
0.0552278 0.2010364 0.8977847
0.0552368 0.2016738 0.8977437
0.0552479 0.2023149 0.8976928
0.0554499 0.2074899 0.8971066
0.0554951 0.2081002 0.8970066
0.0555453 0.2086891 0.8969015
0.0555910 0.2092559 0.8967851
0.0556445 0.2098152 0.8966468
0.0555376 0.1998638 0.8979280
0.0556015 0.1923386 0.8975250
0.0555699 0.1929649 0.8975894
0.0555421 0.1935963 0.8976465
0.0555572 0.2022797 0.8977801
0.0555750 0.2029029 0.8977275
0.0555930 0.2035252 0.8976711
0.0556086 0.2041448 0.8976102
0.0556231 0.2047689 0.8975422
0.0556382 0.2053998 0.8974669
0.0556539 0.2060297 0.8973854
0.0556726 0.2066710 0.8972961
0.0559002 0.2104230 0.8965536
0.0558730 0.1946261 0.8978356
0.0558528 0.1952587 0.8978919
0.0558370 0.1958947 0.8979370
0.0558245 0.1965360 0.8979707
0.0558157 0.1971823 0.8979987
0.0558106 0.1978304 0.8980158
0.0558089 0.1984813 0.8980214
0.0558104 0.1991315 0.8980197
0.0558233 0.2004222 0.8979805
0.0558322 0.2010627 0.8979486
0.0558426 0.2017000 0.8979077
0.0560414 0.2075120 0.8972681
0.0560849 0.2081272 0.8971674
0.0561342 0.2087229 0.8970602
0.0561804 0.2092935 0.8969398
0.0562340 0.2098559 0.8968005
0.0561499 0.1998719 0.8980985
0.0562020 0.1923015 0.8976434
0.0561643 0.2023205 0.8979469
0.0561829 0.2029388 0.8978941
0.0562015 0.2035559 0.8978352
0.0562185 0.2041664 0.8977761
0.0562329 0.2047812 0.8977092
0.0562466 0.2054049 0.8976349
0.0562596 0.2060272 0.8975548
0.0565150 0.1933321 0.8978591
0.0564886 0.1939607 0.8979294
0.0564642 0.1945894 0.8979890
0.0564421 0.1952239 0.8980475
0.0564248 0.1958661 0.8980973
0.0564202 0.2004539 0.8981486
0.0564319 0.2010956 0.8981159
0.0564446 0.2017323 0.8980741
0.0565966 0.2068917 0.8975266
0.0566360 0.2075286 0.8974327
0.0566774 0.2081490 0.8973309
0.0567250 0.2087518 0.8972218
0.0567716 0.2093288 0.8970961
0.0568275 0.2098930 0.8969490
0.0567944 0.1968302 0.8982597
0.0567825 0.1974358 0.8982883
0.0567719 0.1980445 0.8983044
0.0567640 0.1986531 0.8983047
0.0567547 0.1992676 0.8982982
0.0567517 0.1998854 0.8982728
0.0571740 0.1920467 0.8978149
0.0571434 0.1926733 0.8979094
0.0571126 0.1932975 0.8979867
0.0570834 0.1939238 0.8980613
0.0570274 0.2011361 0.8982880
0.0570437 0.2017729 0.8982448
0.0570597 0.2024069 0.8981961
0.0570754 0.2030373 0.8981419
0.0570910 0.2036709 0.8980814
0.0571069 0.2043099 0.8980150
0.0571254 0.2049518 0.8979422
0.0571446 0.2055996 0.8978657
0.0571677 0.2062503 0.8977820
0.0571949 0.2068936 0.8976963
0.0572287 0.2075335 0.8976012
0.0572671 0.2081599 0.8974932
0.0573106 0.2087714 0.8973829
0.0573555 0.2093581 0.8972545
0.0574111 0.2099271 0.8971030
0.0574319 0.1949692 0.8982757
0.0574116 0.1955827 0.8983362
0.0573946 0.1961965 0.8983871
0.0573828 0.1968106 0.8984284
0.0573712 0.1974258 0.8984616
0.0573619 0.1980444 0.8984783
0.0573566 0.1986638 0.8984761
0.0573493 0.1992855 0.8984715
0.0573492 0.1999089 0.8984460
0.0573498 0.2005341 0.8984160
0.0573756 0.2030337 0.8982307
0.0574007 0.2036325 0.8981769
0.0574241 0.2042211 0.8981184
0.0577769 0.1920170 0.8979429
0.0577428 0.1926358 0.8980366
0.0577081 0.1932571 0.8981161
0.0576750 0.1938810 0.8981960
0.0576148 0.2011840 0.8984557
0.0576355 0.2018192 0.8984138
0.0576551 0.2024490 0.8983671
0.0577299 0.2049641 0.8981155
0.0577492 0.2056058 0.8980380
0.0577711 0.2062510 0.8979550
0.0577958 0.2068949 0.8978672
0.0578258 0.2075373 0.8977703
0.0578612 0.2081690 0.8976588
0.0579007 0.2087882 0.8975453
0.0579441 0.2093858 0.8974121
0.0579973 0.2099608 0.8972545
0.0580220 0.1949356 0.8984266
0.0579994 0.1955501 0.8984951
0.0579800 0.1961677 0.8985551
0.0579666 0.1967902 0.8985994
0.0579553 0.1974163 0.8986364
0.0579484 0.1980464 0.8986512
0.0579453 0.1986769 0.8986523
0.0579431 0.1993076 0.8986462
0.0579473 0.1999375 0.8986217
0.0579527 0.2005657 0.8985913
0.0579321 0.2030795 0.8983862
0.0579627 0.2036696 0.8983345
0.0579913 0.2042483 0.8982789
0.0583837 0.1919828 0.8980616
0.0583453 0.1925946 0.8981596
0.0583058 0.1932140 0.8982438
0.0582683 0.1938360 0.8983311
0.0581902 0.2012330 0.8986262
0.0582151 0.2018661 0.8985828
0.0582390 0.2024912 0.8985331
0.0583287 0.2049753 0.8982867
0.0583494 0.2056089 0.8982097
0.0583717 0.2062468 0.8981270
0.0583958 0.2068887 0.8980376
0.0584234 0.2075325 0.8979403
0.0584569 0.2081699 0.8978283
0.0584939 0.2087971 0.8977102
0.0586095 0.1948967 0.8985825
0.0585843 0.1955138 0.8986568
0.0585621 0.1961380 0.8987222
0.0585247 0.1986970 0.8988312
0.0585309 0.1993366 0.8988173
0.0585391 0.1999731 0.8987953
0.0585478 0.2006057 0.8987700
0.0589031 0.2094914 0.8976587
0.0589576 0.2100159 0.8975196
0.0589955 0.1919439 0.8981763
0.0589526 0.1925490 0.8982809
0.0587653 0.2012846 0.8987942
0.0587926 0.2019149 0.8987511
0.0588181 0.2025348 0.8987028
0.0588442 0.2031476 0.8986490
0.0588710 0.2037566 0.8985907
0.0588969 0.2043706 0.8985269
0.0589206 0.2049879 0.8984569
0.0589434 0.2056128 0.8983806
0.0589669 0.2062435 0.8982973
0.0589911 0.2068825 0.8982081
0.0590181 0.2075268 0.8981092
0.0590518 0.2081691 0.8979962
0.0592574 0.1936303 0.8985438
0.0592261 0.1942400 0.8986447
0.0591944 0.1948530 0.8987378
0.0591350 0.2006469 0.8989438
0.0594523 0.2089646 0.8979359
0.0594918 0.2095210 0.8978107
0.0595429 0.2100550 0.8976766
0.0406670 0.2143856 0.8940869
0.0406575 0.2149813 0.8940205
0.0406534 0.2155684 0.8939546
0.0406525 0.2161587 0.8938987
0.0406567 0.2167634 0.8938540
0.0406616 0.2173697 0.8938155
0.0406647 0.2179840 0.8937889
0.0406664 0.2185973 0.8937592
0.0406685 0.2192142 0.8937513
0.0406732 0.2198323 0.8937427
0.0407506 0.2125288 0.8943119
0.0407463 0.2131409 0.8942362
0.0407459 0.2137547 0.8941593
0.0407544 0.2208418 0.8937426
0.0407465 0.2214806 0.8937524
0.0407392 0.2221157 0.8937666
0.0407338 0.2227490 0.8937793
0.0407103 0.2291025 0.8935346
0.0407910 0.2106384 0.8945282
0.0407894 0.2112481 0.8944588
0.0407898 0.2118546 0.8943911
0.0407200 0.2237315 0.8938033
0.0407059 0.2243386 0.8938112
0.0406966 0.2249401 0.8938121
0.0406846 0.2255355 0.8937949
0.0406798 0.2261440 0.8937696
0.0406781 0.2267508 0.8937408
0.0406777 0.2273462 0.8937057
0.0406815 0.2279440 0.8936602
0.0406795 0.2285325 0.8935998
0.0413000 0.2143741 0.8940895
0.0412896 0.2149697 0.8940211
0.0412884 0.2155598 0.8939527
0.0412907 0.2161525 0.8938932
0.0412977 0.2167581 0.8938455
0.0413043 0.2173664 0.8938053
0.0413072 0.2179837 0.8937742
0.0413115 0.2185993 0.8937392
0.0413929 0.2125267 0.8943208
0.0413888 0.2131398 0.8942419
0.0413888 0.2137547 0.8941627
0.0414102 0.2195515 0.8937000
0.0414007 0.2201958 0.8936967
0.0413922 0.2208392 0.8936973
0.0413837 0.2214797 0.8937038
0.0413753 0.2221157 0.8937116
0.0413694 0.2227504 0.8937200
0.0413364 0.2284748 0.8935195
0.0413324 0.2290965 0.8934623
0.0414345 0.2106383 0.8945441
0.0414335 0.2112490 0.8944728
0.0414357 0.2118573 0.8944031
0.0413226 0.2237153 0.8937435
0.0413044 0.2243259 0.8937461
0.0412941 0.2249300 0.8937411
0.0412805 0.2255300 0.8937116
0.0412762 0.2261427 0.8936847
0.0412770 0.2267520 0.8936562
0.0412759 0.2273497 0.8936228
0.0412746 0.2279465 0.8935803
0.0419317 0.2143602 0.8940914
0.0419225 0.2149577 0.8940208
0.0419232 0.2155521 0.8939491
0.0419277 0.2161484 0.8938858
0.0419365 0.2167560 0.8938351
0.0419445 0.2173661 0.8937907
0.0419481 0.2179853 0.8937549
0.0420330 0.2125215 0.8943292
0.0420304 0.2131369 0.8942473
0.0420317 0.2137537 0.8941668
0.0420604 0.2188925 0.8936861
0.0420532 0.2195462 0.8936703
0.0420419 0.2201920 0.8936629
0.0420322 0.2208369 0.8936614
0.0420231 0.2214799 0.8936645
0.0420134 0.2221177 0.8936685
0.0420063 0.2227548 0.8936709
0.0419973 0.2240341 0.8936670
0.0419929 0.2246727 0.8936562
0.0419821 0.2259470 0.8936192
0.0419760 0.2265828 0.8935878
0.0419700 0.2272150 0.8935512
0.0419636 0.2278433 0.8935088
0.0419569 0.2284679 0.8934591
0.0419511 0.2290915 0.8934037
0.0420802 0.2106388 0.8945617
0.0420810 0.2112511 0.8944881
0.0420854 0.2118615 0.8944143
0.0419264 0.2236965 0.8936737
0.0418716 0.2255244 0.8936505
0.0426744 0.2125179 0.8943400
0.0426727 0.2131352 0.8942565
0.0426746 0.2137533 0.8941715
0.0426792 0.2143744 0.8940884
0.0426866 0.2150020 0.8940097
0.0426956 0.2156369 0.8939301
0.0427054 0.2162844 0.8938563
0.0427098 0.2169373 0.8937972
0.0427130 0.2175872 0.8937462
0.0427078 0.2182356 0.8936987
0.0427028 0.2188858 0.8936627
0.0426947 0.2195398 0.8936404
0.0426812 0.2201865 0.8936251
0.0426689 0.2208323 0.8936142
0.0426576 0.2214773 0.8936079
0.0426443 0.2221158 0.8936054
0.0426336 0.2227541 0.8936002
0.0426189 0.2240339 0.8935858
0.0426110 0.2246721 0.8935711
0.0425947 0.2259446 0.8935300
0.0425871 0.2265786 0.8934985
0.0425795 0.2272101 0.8934579
0.0425711 0.2278380 0.8934145
0.0425631 0.2284624 0.8933680
0.0425563 0.2290881 0.8933188
0.0427252 0.2106414 0.8945833
0.0427276 0.2112555 0.8945075
0.0427338 0.2118677 0.8944278
0.0425157 0.2236727 0.8935884
0.0424466 0.2255192 0.8935634
0.0433189 0.2125141 0.8943521
0.0433171 0.2131334 0.8942652
0.0433184 0.2137531 0.8941764
0.0433221 0.2143753 0.8940897
0.0433284 0.2150034 0.8940065
0.0433361 0.2156381 0.8939234
0.0433443 0.2162829 0.8938479
0.0433476 0.2169334 0.8937830
0.0433493 0.2175803 0.8937254
0.0433427 0.2182278 0.8936771
0.0433358 0.2188760 0.8936284
0.0433265 0.2195284 0.8935963
0.0433111 0.2201752 0.8935702
0.0432968 0.2208215 0.8935504
0.0432831 0.2214673 0.8935366
0.0432669 0.2221071 0.8935268
0.0432538 0.2227476 0.8935185
0.0432419 0.2233868 0.8935072
0.0432325 0.2240287 0.8934934
0.0432205 0.2246669 0.8934630
0.0432087 0.2253049 0.8934397
0.0431975 0.2259400 0.8934116
0.0431879 0.2265743 0.8933823
0.0431798 0.2272050 0.8933483
0.0431715 0.2278319 0.8933099
0.0431627 0.2284565 0.8932623
0.0431562 0.2290837 0.8932109
0.0433719 0.2106450 0.8946039
0.0433742 0.2112625 0.8945258
0.0433793 0.2118783 0.8944424
0.0439614 0.2289505 0.8931015
0.0439671 0.2118868 0.8944580
0.0439636 0.2125100 0.8943668
0.0439626 0.2131312 0.8942767
0.0439636 0.2137527 0.8941858
0.0439665 0.2143756 0.8940945
0.0439713 0.2150041 0.8940074
0.0439771 0.2156378 0.8939160
0.0439828 0.2162806 0.8938374
0.0439843 0.2169290 0.8937658
0.0439838 0.2175729 0.8937004
0.0439748 0.2182181 0.8936430
0.0439650 0.2188645 0.8935910
0.0439525 0.2195142 0.8935443
0.0439349 0.2201608 0.8935141
0.0439171 0.2208068 0.8934851
0.0438994 0.2214527 0.8934620
0.0438786 0.2220937 0.8934396
0.0438598 0.2227356 0.8934196
0.0438436 0.2233771 0.8934022
0.0438312 0.2240191 0.8933830
0.0438163 0.2246581 0.8933589
0.0438011 0.2252976 0.8933311
0.0437870 0.2259339 0.8932989
0.0437755 0.2265703 0.8932668
0.0437661 0.2272023 0.8932317
0.0437578 0.2278294 0.8931932
0.0437493 0.2284554 0.8931512
0.0440190 0.2106505 0.8946321
0.0440212 0.2112707 0.8945480
0.0445712 0.2289339 0.8929849
0.0446102 0.2118834 0.8944779
0.0446084 0.2125066 0.8943816
0.0446086 0.2131288 0.8942870
0.0446095 0.2137510 0.8941896
0.0446115 0.2143743 0.8940932
0.0446148 0.2150030 0.8940009
0.0446181 0.2156366 0.8939099
0.0446201 0.2162770 0.8938275
0.0446184 0.2169227 0.8937487
0.0446153 0.2175636 0.8936751
0.0446029 0.2182061 0.8936091
0.0445896 0.2188503 0.8935556
0.0445727 0.2194964 0.8934950
0.0445497 0.2201408 0.8934455
0.0445271 0.2207851 0.8934057
0.0445040 0.2214302 0.8933718
0.0444780 0.2220731 0.8933413
0.0444541 0.2227168 0.8933162
0.0444311 0.2233627 0.8932829
0.0444138 0.2240044 0.8932621
0.0443948 0.2246452 0.8932387
0.0443769 0.2252884 0.8932106
0.0443604 0.2259294 0.8931804
0.0443484 0.2265705 0.8931473
0.0443399 0.2272045 0.8931126
0.0443337 0.2278325 0.8930757
0.0443275 0.2284590 0.8930362
0.0446663 0.2106569 0.8946621
0.0446681 0.2112791 0.8945704
0.0452555 0.2237854 0.8931073
0.0452472 0.2244279 0.8930768
0.0452240 0.2257111 0.8930096
0.0452131 0.2263534 0.8929794
0.0452019 0.2269963 0.8929505
0.0451915 0.2276392 0.8929205
0.0451815 0.2282812 0.8928901
0.0451704 0.2289219 0.8928561
0.0452502 0.2118821 0.8944991
0.0452508 0.2125046 0.8943980
0.0452527 0.2131275 0.8942963
0.0452544 0.2137493 0.8941914
0.0452562 0.2143721 0.8940891
0.0452584 0.2150004 0.8939907
0.0452596 0.2156331 0.8938948
0.0452580 0.2162701 0.8938015
0.0452527 0.2169123 0.8937137
0.0452460 0.2175509 0.8936337
0.0452301 0.2181892 0.8935579
0.0452128 0.2188293 0.8934957
0.0451932 0.2194719 0.8934405
0.0451631 0.2201130 0.8933683
0.0451345 0.2207548 0.8933162
0.0451055 0.2213987 0.8932734
0.0450744 0.2220446 0.8932201
0.0450449 0.2226911 0.8931906
0.0450176 0.2233405 0.8931651
0.0449521 0.2252772 0.8930813
0.0453159 0.2106640 0.8946938
0.0453181 0.2112875 0.8945936
0.0458999 0.2205845 0.8932090
0.0458942 0.2212220 0.8931529
0.0458843 0.2218595 0.8930933
0.0458758 0.2224977 0.8930502
0.0458648 0.2231370 0.8930091
0.0458514 0.2237782 0.8929687
0.0458376 0.2244197 0.8929324
0.0458221 0.2250616 0.8928959
0.0458080 0.2257048 0.8928597
0.0457974 0.2263484 0.8928304
0.0457865 0.2269915 0.8927967
0.0457781 0.2276329 0.8927667
0.0457710 0.2282744 0.8927382
0.0457650 0.2289150 0.8927106
0.0458864 0.2118822 0.8945245
0.0458910 0.2125055 0.8944205
0.0458955 0.2131284 0.8943128
0.0458989 0.2137494 0.8942011
0.0459018 0.2143716 0.8940922
0.0459033 0.2149993 0.8939889
0.0459023 0.2156302 0.8938836
0.0458973 0.2162642 0.8937815
0.0458883 0.2169029 0.8936841
0.0458766 0.2175373 0.8935918
0.0458569 0.2181709 0.8935071
0.0458351 0.2188053 0.8934318
0.0458106 0.2194431 0.8933667
0.0457769 0.2200817 0.8932964
0.0459649 0.2106729 0.8947344
0.0459686 0.2112968 0.8946264
0.0465302 0.2205787 0.8931072
0.0465124 0.2212115 0.8930316
0.0464945 0.2218465 0.8929713
0.0464748 0.2224833 0.8929143
0.0464540 0.2231224 0.8928594
0.0464352 0.2237633 0.8928156
0.0464162 0.2244059 0.8927753
0.0463979 0.2250510 0.8927427
0.0463841 0.2256992 0.8927080
0.0463751 0.2263463 0.8926785
0.0463683 0.2269937 0.8926521
0.0463652 0.2276357 0.8926273
0.0463631 0.2282780 0.8926029
0.0463626 0.2289183 0.8925782
0.0465247 0.2118870 0.8945579
0.0465338 0.2125106 0.8944468
0.0465410 0.2131336 0.8943353
0.0465460 0.2137538 0.8942180
0.0465492 0.2143749 0.8941049
0.0465489 0.2149993 0.8939891
0.0465441 0.2156275 0.8938760
0.0465326 0.2162580 0.8937669
0.0465164 0.2168916 0.8936594
0.0464973 0.2175203 0.8935583
0.0464708 0.2181467 0.8934600
0.0464417 0.2187731 0.8933710
0.0464091 0.2194035 0.8932912
0.0463670 0.2200367 0.8931997
0.0466125 0.2106801 0.8947768
0.0466164 0.2113035 0.8946632
0.0473251 0.2236015 0.8926278
0.0473092 0.2242266 0.8925823
0.0472949 0.2248532 0.8925409
0.0472776 0.2254800 0.8925056
0.0472617 0.2261116 0.8924762
0.0472494 0.2267464 0.8924541
0.0472370 0.2273883 0.8924349
0.0472252 0.2280317 0.8924184
0.0472132 0.2286765 0.8924058
0.0472018 0.2293229 0.8923970
0.0471443 0.2205612 0.8929966
0.0471173 0.2211897 0.8929095
0.0470907 0.2218229 0.8928372
0.0470638 0.2224598 0.8927738
0.0470394 0.2231016 0.8927245
0.0471615 0.2118985 0.8945946
0.0471758 0.2125209 0.8944768
0.0471862 0.2131420 0.8943595
0.0471933 0.2137587 0.8942304
0.0471957 0.2143762 0.8941058
0.0471935 0.2149972 0.8939796
0.0471855 0.2156219 0.8938605
0.0471683 0.2162463 0.8937406
0.0471455 0.2168741 0.8936247
0.0471167 0.2174980 0.8935135
0.0470835 0.2181159 0.8934017
0.0470476 0.2187335 0.8933002
0.0470064 0.2193540 0.8931946
0.0469580 0.2199842 0.8931024
0.0472583 0.2106881 0.8948273
0.0472633 0.2113104 0.8947119
0.0479636 0.2217337 0.8926734
0.0479481 0.2223495 0.8926018
0.0479320 0.2229650 0.8925412
0.0479137 0.2235861 0.8924861
0.0478954 0.2242132 0.8924395
0.0478777 0.2248416 0.8923974
0.0478599 0.2254725 0.8923583
0.0478462 0.2261065 0.8923304
0.0478360 0.2267432 0.8923104
0.0478274 0.2273841 0.8922943
0.0478197 0.2280267 0.8922815
0.0478118 0.2286702 0.8922738
0.0478048 0.2293158 0.8922683
0.0477801 0.2199107 0.8929707
0.0477469 0.2205317 0.8928676
0.0477140 0.2211600 0.8927882
0.0477958 0.2119150 0.8946381
0.0478166 0.2125352 0.8945073
0.0478306 0.2131529 0.8943800
0.0478391 0.2137668 0.8942464
0.0478420 0.2143795 0.8941090
0.0478385 0.2149965 0.8939773
0.0478262 0.2156145 0.8938442
0.0478039 0.2162313 0.8937134
0.0477744 0.2168503 0.8935834
0.0477348 0.2174659 0.8934514
0.0476949 0.2180768 0.8933336
0.0476499 0.2186871 0.8932166
0.0476019 0.2193024 0.8931095
0.0479014 0.2106995 0.8948890
0.0479090 0.2113185 0.8947651
0.0485626 0.2217168 0.8925494
0.0485402 0.2223307 0.8924713
0.0485170 0.2229465 0.8924043
0.0484951 0.2235705 0.8923500
0.0484733 0.2241981 0.8922964
0.0484531 0.2248297 0.8922533
0.0484375 0.2254677 0.8922138
0.0484261 0.2261063 0.8921827
0.0484183 0.2267468 0.8921614
0.0484139 0.2273875 0.8921461
0.0484107 0.2280296 0.8921354
0.0484078 0.2286718 0.8921305
0.0484059 0.2293154 0.8921312
0.0483868 0.2198791 0.8928684
0.0483480 0.2204975 0.8927714
0.0483070 0.2211234 0.8926789
0.0484243 0.2119381 0.8946888
0.0484509 0.2125567 0.8945499
0.0484691 0.2131705 0.8944127
0.0484806 0.2137804 0.8942738
0.0484856 0.2143876 0.8941260
0.0484821 0.2149974 0.8939800
0.0484674 0.2156074 0.8938328
0.0484418 0.2162142 0.8936841
0.0484081 0.2168256 0.8935456
0.0483614 0.2174362 0.8934086
0.0483141 0.2180363 0.8932754
0.0482611 0.2186401 0.8931528
0.0482057 0.2192479 0.8930364
0.0485410 0.2107132 0.8949582
0.0485527 0.2113285 0.8948282
0.0494006 0.2234287 0.8921363
0.0493769 0.2240313 0.8920875
0.0493543 0.2246339 0.8920474
0.0493299 0.2252303 0.8920042
0.0493099 0.2258331 0.8919857
0.0492942 0.2264463 0.8919713
0.0492745 0.2270720 0.8919647
0.0492566 0.2277053 0.8919634
0.0491545 0.2216903 0.8924236
0.0491226 0.2223029 0.8923340
0.0490920 0.2229202 0.8922601
0.0490096 0.2286820 0.8920018
0.0490124 0.2293222 0.8920079
0.0491091 0.2180394 0.8931884
0.0490750 0.2186359 0.8930372
0.0490334 0.2192350 0.8929029
0.0489880 0.2198413 0.8927825
0.0489413 0.2204553 0.8926759
0.0488915 0.2210809 0.8925716
0.0490479 0.2119662 0.8947543
0.0490820 0.2125802 0.8945927
0.0491060 0.2131896 0.8944411
0.0491212 0.2137956 0.8942969
0.0491290 0.2143978 0.8941423
0.0491251 0.2149970 0.8939788
0.0491082 0.2155967 0.8938190
0.0490790 0.2161951 0.8936671
0.0490394 0.2167932 0.8935112
0.0489856 0.2173932 0.8933667
0.0491771 0.2107309 0.8950334
0.0491935 0.2113427 0.8948968
0.0500374 0.2216760 0.8922345
0.0500143 0.2222572 0.8921382
0.0499907 0.2228339 0.8920666
0.0499697 0.2234098 0.8920074
0.0499445 0.2240115 0.8919547
0.0499210 0.2246146 0.8919158
0.0498992 0.2252157 0.8918769
0.0498820 0.2258252 0.8918600
0.0498675 0.2264373 0.8918453
0.0498507 0.2270635 0.8918424
0.0498368 0.2276957 0.8918454
0.0498200 0.2283392 0.8918541
0.0498055 0.2289914 0.8918637
0.0498095 0.2204662 0.8925209
0.0497746 0.2210583 0.8924012
0.0497334 0.2180223 0.8931240
0.0496918 0.2186032 0.8929557
0.0496443 0.2191936 0.8928172
0.0495919 0.2197932 0.8926948
0.0496566 0.2119993 0.8948184
0.0496993 0.2126173 0.8946623
0.0497343 0.2132177 0.8944813
0.0497574 0.2138149 0.8943200
0.0497707 0.2144111 0.8941627
0.0497696 0.2149993 0.8939888
0.0497533 0.2155867 0.8938181
0.0497232 0.2161720 0.8936549
0.0496790 0.2167510 0.8934685
0.0496208 0.2173420 0.8933250
0.0498069 0.2107539 0.8951168
0.0498305 0.2113630 0.8949751
0.0506109 0.2216591 0.8921259
0.0505830 0.2222367 0.8920226
0.0505560 0.2228123 0.8919483
0.0505309 0.2233910 0.8918877
0.0505067 0.2239945 0.8918306
0.0504843 0.2246011 0.8917885
0.0504654 0.2252095 0.8917476
0.0504521 0.2258259 0.8917316
0.0504413 0.2264385 0.8917223
0.0504284 0.2270654 0.8917210
0.0504184 0.2276961 0.8917269
0.0504078 0.2283366 0.8917382
0.0503980 0.2289853 0.8917557
0.0504057 0.2204358 0.8924197
0.0503631 0.2210215 0.8922931
0.0503560 0.2179966 0.8930590
0.0503131 0.2185695 0.8928982
0.0502609 0.2191500 0.8927516
0.0502024 0.2197405 0.8926194
0.0503172 0.2126543 0.8947185
0.0503614 0.2132506 0.8945289
0.0503924 0.2138393 0.8943531
0.0504116 0.2144275 0.8941883
0.0504136 0.2150058 0.8940101
0.0503989 0.2155803 0.8938286
0.0503682 0.2161496 0.8936467
0.0503231 0.2167170 0.8934604
0.0502617 0.2172937 0.8932981
0.0504313 0.2107800 0.8952036
0.0504612 0.2113871 0.8950572
0.0504866 0.2119860 0.8949025
0.0511792 0.2216394 0.8920270
0.0511509 0.2222127 0.8919202
0.0511240 0.2227879 0.8918420
0.0510992 0.2233721 0.8917810
0.0510783 0.2239798 0.8917202
0.0510604 0.2245911 0.8916821
0.0510463 0.2252084 0.8916477
0.0510359 0.2258277 0.8916352
0.0510286 0.2264439 0.8916302
0.0510178 0.2270694 0.8916323
0.0510100 0.2276989 0.8916390
0.0510017 0.2283361 0.8916496
0.0509959 0.2289832 0.8916703
0.0510429 0.2198338 0.8924728
0.0510047 0.2204015 0.8923207
0.0509646 0.2209834 0.8921923
0.0510220 0.2174242 0.8932208
0.0509910 0.2179801 0.8930343
0.0509489 0.2185403 0.8928611
0.0508971 0.2191138 0.8927090
0.0509268 0.2126969 0.8947879
0.0509789 0.2132941 0.8946049
0.0510204 0.2138707 0.8944033
0.0510494 0.2144471 0.8942166
0.0510576 0.2150157 0.8940347
0.0510482 0.2155780 0.8938456
0.0510218 0.2161353 0.8936552
0.0509830 0.2166916 0.8934699
0.0510466 0.2108118 0.8953057
0.0510836 0.2114181 0.8951523
0.0511162 0.2120152 0.8949958
0.0519526 0.2222347 0.8917817
0.0519371 0.2227566 0.8917041
0.0519250 0.2232810 0.8916310
0.0519035 0.2238387 0.8915770
0.0518760 0.2243946 0.8915430
0.0518535 0.2249482 0.8915143
0.0518187 0.2255007 0.8915015
0.0517994 0.2205417 0.8921848
0.0517772 0.2210813 0.8920396
0.0517551 0.2216234 0.8919348
0.0516225 0.2264494 0.8915367
0.0516146 0.2270738 0.8915434
0.0516085 0.2277004 0.8915538
0.0516031 0.2283343 0.8915764
0.0515987 0.2289794 0.8916028
0.0516996 0.2181626 0.8929262
0.0516956 0.2187154 0.8927410
0.0516802 0.2192620 0.8925673
0.0516499 0.2198109 0.8923928
0.0516560 0.2163235 0.8935912
0.0516643 0.2168720 0.8933924
0.0516565 0.2174191 0.8931927
0.0515259 0.2127415 0.8948558
0.0515871 0.2133392 0.8946721
0.0516392 0.2139105 0.8944642
0.0516807 0.2144758 0.8942592
0.0517000 0.2150317 0.8940649
0.0517009 0.2155814 0.8938689
0.0516520 0.2108439 0.8954046
0.0516964 0.2114526 0.8952511
0.0517385 0.2120483 0.8950881
0.0524913 0.2222279 0.8917084
0.0524763 0.2227455 0.8916334
0.0524671 0.2232707 0.8915576
0.0524439 0.2238259 0.8915110
0.0524174 0.2243783 0.8914754
0.0523954 0.2249308 0.8914602
0.0523641 0.2254808 0.8914539
0.0523824 0.2205363 0.8921336
0.0523626 0.2210667 0.8919790
0.0523418 0.2216050 0.8918670
0.0522320 0.2264572 0.8914812
0.0522269 0.2270813 0.8914963
0.0522229 0.2277052 0.8915190
0.0522176 0.2283361 0.8915503
0.0522127 0.2289783 0.8915803
0.0523001 0.2181822 0.8928913
0.0523022 0.2187165 0.8926983
0.0522927 0.2192536 0.8925269
0.0522684 0.2197939 0.8923503
0.0522763 0.2163499 0.8935915
0.0522928 0.2168872 0.8933896
0.0522930 0.2174225 0.8931898
0.0521273 0.2127893 0.8949257
0.0521967 0.2133848 0.8947325
0.0522562 0.2139554 0.8945299
0.0523090 0.2145095 0.8943076
0.0523386 0.2150551 0.8941065
0.0523499 0.2155936 0.8939050
0.0523550 0.2120852 0.8951829
0.0525741 0.2108410 0.8955973
0.0526112 0.2114228 0.8954341
0.0530523 0.2217090 0.8917553
0.0530455 0.2222132 0.8916534
0.0530352 0.2227330 0.8915755
0.0530247 0.2232532 0.8914979
0.0529992 0.2238027 0.8914544
0.0529790 0.2243557 0.8914169
0.0529610 0.2249117 0.8914040
0.0529303 0.2254609 0.8914055
0.0529078 0.2260252 0.8914167
0.0528767 0.2266087 0.8914384
0.0529704 0.2200090 0.8922406
0.0529652 0.2205280 0.8920823
0.0529533 0.2210488 0.8919204
0.0528431 0.2277072 0.8914852
0.0528371 0.2283353 0.8915191
0.0528335 0.2289763 0.8915549
0.0529049 0.2181996 0.8928750
0.0529148 0.2187233 0.8926818
0.0529114 0.2192494 0.8925044
0.0528963 0.2163799 0.8936024
0.0529211 0.2169065 0.8933980
0.0529310 0.2174305 0.8932001
0.0528667 0.2140062 0.8945920
0.0529292 0.2145573 0.8943739
0.0529718 0.2150876 0.8941563
0.0529956 0.2156151 0.8939525
0.0529632 0.2121300 0.8952897
0.0530213 0.2127102 0.8951020
0.0530702 0.2132660 0.8949051
0.0531869 0.2108788 0.8957280
0.0532328 0.2114575 0.8955554
0.0536662 0.2236638 0.8914168
0.0536374 0.2241567 0.8913722
0.0536082 0.2246519 0.8913513
0.0536048 0.2216972 0.8917160
0.0535994 0.2221959 0.8916120
0.0535920 0.2227190 0.8915249
0.0535823 0.2232392 0.8914554
0.0535004 0.2254426 0.8913712
0.0534775 0.2260043 0.8913889
0.0534441 0.2265838 0.8914192
0.0535539 0.2200064 0.8921997
0.0535496 0.2205180 0.8920325
0.0535440 0.2210330 0.8918729
0.0534626 0.2277000 0.8914708
0.0534548 0.2283267 0.8915102
0.0534489 0.2289669 0.8915509
0.0535173 0.2182160 0.8928686
0.0535316 0.2187280 0.8926703
0.0535328 0.2192414 0.8924759
0.0535176 0.2164140 0.8936236
0.0535504 0.2169272 0.8934104
0.0535683 0.2174400 0.8932092
0.0534708 0.2140631 0.8946509
0.0535438 0.2146098 0.8944357
0.0536003 0.2151258 0.8942069
0.0536370 0.2156416 0.8939991
0.0535616 0.2121831 0.8954055
0.0536329 0.2127592 0.8951973
0.0536915 0.2133119 0.8949975
0.0537933 0.2109184 0.8958548
0.0538441 0.2114985 0.8956854
0.0541958 0.2222973 0.8915768
0.0541898 0.2227707 0.8915075
0.0541726 0.2232128 0.8914480
0.0541749 0.2236414 0.8914038
0.0541435 0.2241224 0.8913680
0.0541115 0.2246102 0.8913497
0.0541727 0.2206912 0.8919684
0.0541719 0.2211890 0.8918182
0.0541583 0.2216942 0.8917154
0.0540682 0.2254270 0.8913531
0.0540475 0.2259869 0.8913696
0.0540134 0.2265648 0.8914001
0.0541139 0.2190062 0.8925600
0.0541336 0.2195078 0.8923649
0.0541409 0.2200091 0.8921867
0.0540837 0.2276945 0.8914641
0.0540736 0.2283189 0.8915091
0.0540660 0.2289585 0.8915533
0.0541285 0.2182347 0.8928690
0.0541380 0.2164555 0.8936570
0.0541790 0.2169539 0.8934339
0.0542040 0.2174502 0.8932176
0.0541620 0.2146653 0.8945051
0.0542282 0.2151680 0.8942648
0.0542737 0.2156738 0.8940515
0.0542402 0.2128170 0.8953031
0.0543085 0.2133635 0.8950888
0.0543677 0.2138898 0.8948774
0.0543952 0.2109605 0.8959853
0.0544498 0.2115438 0.8958157
0.0545054 0.2121079 0.8956348
0.0547071 0.2222767 0.8915677
0.0546948 0.2227457 0.8915005
0.0546846 0.2231957 0.8914410
0.0546794 0.2236194 0.8914031
0.0546435 0.2240899 0.8913742
0.0546130 0.2245623 0.8913530
0.0547050 0.2207068 0.8919718
0.0547132 0.2211950 0.8918147
0.0547106 0.2216985 0.8917074
0.0546363 0.2254051 0.8913613
0.0546146 0.2259622 0.8913838
0.0545739 0.2265324 0.8914169
0.0546775 0.2190414 0.8925728
0.0547081 0.2195305 0.8923750
0.0547224 0.2200251 0.8921962
0.0546999 0.2276746 0.8914985
0.0546876 0.2282996 0.8915442
0.0547346 0.2182690 0.8928994
0.0548502 0.2294162 0.8916460
0.0547522 0.2165085 0.8937102
0.0548009 0.2169969 0.8934814
0.0548362 0.2174873 0.8932718
0.0549033 0.2157221 0.8941191
0.0549865 0.2139514 0.8949797
0.0550423 0.2144520 0.8947653
0.0550887 0.2149404 0.8945456
0.0551107 0.2121617 0.8957688
0.0551746 0.2126857 0.8955707
0.0552288 0.2131985 0.8953696
0.0553636 0.2109415 0.8962429
0.0554166 0.2114872 0.8960800
0.0552224 0.2222716 0.8915815
0.0552046 0.2227368 0.8915001
0.0551938 0.2231797 0.8914477
0.0551836 0.2235901 0.8914117
0.0551464 0.2240433 0.8913841
0.0551218 0.2245099 0.8913544
0.0552471 0.2207256 0.8919886
0.0552641 0.2212124 0.8918313
0.0552686 0.2217042 0.8917149
0.0552086 0.2253737 0.8913817
0.0551822 0.2259255 0.8914097
0.0551413 0.2264948 0.8914409
0.0552467 0.2190788 0.8925954
0.0552825 0.2195615 0.8924035
0.0553040 0.2200496 0.8922210
0.0553072 0.2276440 0.8915588
0.0552949 0.2282726 0.8915918
0.0553390 0.2183092 0.8929375
0.0555012 0.2293999 0.8916937
0.0553650 0.2165673 0.8937720
0.0554207 0.2170415 0.8935296
0.0554632 0.2175237 0.8933192
0.0555276 0.2157758 0.8941886
0.0556008 0.2140166 0.8950760
0.0556669 0.2145106 0.8948570
0.0557229 0.2149928 0.8946383
0.0557166 0.2122139 0.8958870
0.0557835 0.2127483 0.8956939
0.0558443 0.2132577 0.8954909
0.0559595 0.2109886 0.8963883
0.0560176 0.2115343 0.8962204
0.0557887 0.2207450 0.8920176
0.0558080 0.2212273 0.8918718
0.0558157 0.2217143 0.8917546
0.0558155 0.2221786 0.8916447
0.0558178 0.2226868 0.8915468
0.0558247 0.2231852 0.8914973
0.0558295 0.2237254 0.8914656
0.0558115 0.2242570 0.8914298
0.0557959 0.2247981 0.8914305
0.0557724 0.2253361 0.8914400
0.0558826 0.2200793 0.8922670
0.0559494 0.2264024 0.8915355
0.0559297 0.2270030 0.8915811
0.0559099 0.2276114 0.8916312
0.0558900 0.2282378 0.8916863
0.0559432 0.2183567 0.8929934
0.0559852 0.2188276 0.8927771
0.0560174 0.2193128 0.8925754
0.0561358 0.2293778 0.8917944
0.0560850 0.2175703 0.8933814
0.0561468 0.2158375 0.8942667
0.0562068 0.2163105 0.8940464
0.0562566 0.2167765 0.8938219
0.0562852 0.2145776 0.8949548
0.0563495 0.2150519 0.8947329
0.0563890 0.2128154 0.8958172
0.0564584 0.2133209 0.8956062
0.0565201 0.2138037 0.8953917
0.0565498 0.2110403 0.8965462
0.0566176 0.2115843 0.8963574
0.0566762 0.2120953 0.8961885
0.0568865 0.2104317 0.8968211
0.0563546 0.2217256 0.8917851
0.0563492 0.2221796 0.8916828
0.0563573 0.2226808 0.8915848
0.0563740 0.2231803 0.8915476
0.0563776 0.2237085 0.8915245
0.0563648 0.2242325 0.8914856
0.0563424 0.2247629 0.8914941
0.0563164 0.2252938 0.8915014
0.0564519 0.2201122 0.8923264
0.0564832 0.2205895 0.8921458
0.0565164 0.2210872 0.8919838
0.0565447 0.2263643 0.8916288
0.0565200 0.2269631 0.8916740
0.0564980 0.2275724 0.8917219
0.0565392 0.2184126 0.8930621
0.0565883 0.2188750 0.8928425
0.0566272 0.2193572 0.8926463
0.0567701 0.2287324 0.8918678
0.0567041 0.2176275 0.8934554
0.0568296 0.2163725 0.8941274
0.0568880 0.2168321 0.8939015
0.0570331 0.2155782 0.8946055
0.0571340 0.2138716 0.8955087
0.0571979 0.2143344 0.8952943
0.0572554 0.2147938 0.8950799
0.0572736 0.2121571 0.8963203
0.0573352 0.2126500 0.8961257
0.0573925 0.2131240 0.8959325
0.0574709 0.2104732 0.8969704
0.0575295 0.2109980 0.8968179
0.0575853 0.2114854 0.8966563
0.0568936 0.2217407 0.8918616
0.0568937 0.2221911 0.8917507
0.0568932 0.2226838 0.8916743
0.0569147 0.2231743 0.8916250
0.0569159 0.2236908 0.8915985
0.0569013 0.2242043 0.8915686
0.0568852 0.2247213 0.8915752
0.0568604 0.2252492 0.8915883
0.0570352 0.2201541 0.8923947
0.0570709 0.2206274 0.8922203
0.0571059 0.2211186 0.8920525
0.0571296 0.2263167 0.8917352
0.0571020 0.2269153 0.8917774
0.0570765 0.2275263 0.8918276
0.0571364 0.2184741 0.8931286
0.0571898 0.2189325 0.8929217
0.0572325 0.2194077 0.8927239
0.0573803 0.2286875 0.8919879
0.0573612 0.2293095 0.8920418
0.0573167 0.2176917 0.8935317
0.0574478 0.2164417 0.8942104
0.0575111 0.2168986 0.8939875
0.0576545 0.2156470 0.8946973
0.0577441 0.2139454 0.8956171
0.0578110 0.2144066 0.8954030
0.0578748 0.2148594 0.8951830
0.0578699 0.2122196 0.8964461
0.0579317 0.2127158 0.8962485
0.0579902 0.2131919 0.8960612
0.0580546 0.2105148 0.8971145
0.0581061 0.2110473 0.8969695
0.0581683 0.2115388 0.8967944
0.0574318 0.2217633 0.8919472
0.0574289 0.2222084 0.8918343
0.0574305 0.2226917 0.8917586
0.0574503 0.2231703 0.8917101
0.0574444 0.2236734 0.8916875
0.0574351 0.2241807 0.8916588
0.0574140 0.2246807 0.8916706
0.0573996 0.2252043 0.8916887
0.0576137 0.2202018 0.8924664
0.0576483 0.2206719 0.8923013
0.0576834 0.2211564 0.8921496
0.0577017 0.2262674 0.8918598
0.0576728 0.2268626 0.8919014
0.0577329 0.2185415 0.8932007
0.0577851 0.2189941 0.8930038
0.0578343 0.2194622 0.8928040
0.0579919 0.2280213 0.8920889
0.0579678 0.2286360 0.8921451
0.0579453 0.2292668 0.8921958
0.0579258 0.2177680 0.8936272
0.0580617 0.2165215 0.8943047
0.0581306 0.2169694 0.8940752
0.0582728 0.2157245 0.8947960
0.0584263 0.2144820 0.8955051
0.0584947 0.2149324 0.8952880
0.0585329 0.2127896 0.8963804
0.0585952 0.2132603 0.8961741
0.0586638 0.2137135 0.8959645
0.0586979 0.2110984 0.8971106
0.0587593 0.2115978 0.8969323
0.0588056 0.2120797 0.8967672
0.0590025 0.2105100 0.8973838
0.0579706 0.2217832 0.8920333
0.0579656 0.2222218 0.8919282
0.0579647 0.2226950 0.8918611
0.0579785 0.2231604 0.8918165
0.0579759 0.2236569 0.8917899
0.0581820 0.2202468 0.8925535
0.0582179 0.2207159 0.8923893
0.0582523 0.2211975 0.8922494
0.0583301 0.2244834 0.8918834
0.0583147 0.2250603 0.8919091
0.0582938 0.2256352 0.8919416
0.0582659 0.2262124 0.8919861
0.0582321 0.2268043 0.8920317
0.0583251 0.2186061 0.8932696
0.0583788 0.2190565 0.8930799
0.0584308 0.2195221 0.8928887
0.0585725 0.2279638 0.8922508
0.0585290 0.2178476 0.8937227
0.0589356 0.2290865 0.8924719
0.0586738 0.2166052 0.8944016
0.0587449 0.2170484 0.8941726
0.0588876 0.2158075 0.8948974
0.0590380 0.2145628 0.8956108
0.0591085 0.2150111 0.8953940
0.0592658 0.2137904 0.8960836
0.0593965 0.2121426 0.8968934
0.0594533 0.2126090 0.8967043
0.0595175 0.2130543 0.8965105
0.0595916 0.2105535 0.8975280
0.0596270 0.2110368 0.8973853
0.0596615 0.2114806 0.8972254
0.0584855 0.2217989 0.8921462
0.0584903 0.2222308 0.8920431
0.0584907 0.2226966 0.8919885
0.0584977 0.2231514 0.8919474
0.0584878 0.2236356 0.8919162
0.0587357 0.2202967 0.8926552
0.0587677 0.2207602 0.8925019
0.0588078 0.2212357 0.8923570
0.0588791 0.2244442 0.8920268
0.0588629 0.2250130 0.8920550
0.0588418 0.2255794 0.8920855
0.0588133 0.2261515 0.8921281
0.0587773 0.2267420 0.8921719
0.0589063 0.2186844 0.8933709
0.0589620 0.2191291 0.8931792
0.0590093 0.2195910 0.8930032
0.0591399 0.2279007 0.8924084
0.0591348 0.2179269 0.8938139
0.0595188 0.2290280 0.8926426
0.0592867 0.2166929 0.8944996
0.0593558 0.2171347 0.8942788
0.0595007 0.2158936 0.8950009
0.0596474 0.2146481 0.8957199
0.0597185 0.2150931 0.8954973
0.0598660 0.2138661 0.8961889
0.0407073 0.2321965 0.8931963
0.0407053 0.2328222 0.8931452
0.0407049 0.2334525 0.8931008
0.0407063 0.2340882 0.8930678
0.0407065 0.2347304 0.8930470
0.0407067 0.2353741 0.8930429
0.0407056 0.2360176 0.8930396
0.0407038 0.2366580 0.8930525
0.0407022 0.2372966 0.8930669
0.0407010 0.2379348 0.8930774
0.0407003 0.2385678 0.8931021
0.0407015 0.2391960 0.8931286
0.0407084 0.2297210 0.8934653
0.0407099 0.2303405 0.8933970
0.0407122 0.2309665 0.8933317
0.0407225 0.2316057 0.8932680
0.0407338 0.2402738 0.8931764
0.0407222 0.2408965 0.8931972
0.0407063 0.2415136 0.8932083
0.0406918 0.2421277 0.8932034
0.0406647 0.2427335 0.8931573
0.0406367 0.2433358 0.8931178
0.0402589 0.2469575 0.8922869
0.0404453 0.2440560 0.8930389
0.0404033 0.2445313 0.8929824
0.0403496 0.2449988 0.8928951
0.0402878 0.2454543 0.8928216
0.0402199 0.2459110 0.8926499
0.0401634 0.2463878 0.8925380
0.0413553 0.2321886 0.8931590
0.0413519 0.2328173 0.8931153
0.0413499 0.2334498 0.8930761
0.0413497 0.2340866 0.8930457
0.0413495 0.2347292 0.8930285
0.0413498 0.2353731 0.8930263
0.0413488 0.2360164 0.8930250
0.0413474 0.2366567 0.8930383
0.0413460 0.2372953 0.8930520
0.0413452 0.2379338 0.8930643
0.0413447 0.2385670 0.8930899
0.0413458 0.2391957 0.8931146
0.0413296 0.2297167 0.8934003
0.0413300 0.2303383 0.8933392
0.0413305 0.2309656 0.8932805
0.0413397 0.2316085 0.8932248
0.0413538 0.2402667 0.8931620
0.0413402 0.2408870 0.8931721
0.0413262 0.2415046 0.8931856
0.0413090 0.2421181 0.8931738
0.0412766 0.2427208 0.8931192
0.0412436 0.2433184 0.8930712
0.0409152 0.2464362 0.8924103
0.0408174 0.2468814 0.8922121
0.0410127 0.2439949 0.8930052
0.0409694 0.2444650 0.8929485
0.0409142 0.2449321 0.8928560
0.0408485 0.2453919 0.8927847
0.0407786 0.2458486 0.8925960
0.0420246 0.2309219 0.8932321
0.0420116 0.2315469 0.8931652
0.0420033 0.2321769 0.8931193
0.0419977 0.2328095 0.8930785
0.0419940 0.2334453 0.8930430
0.0419923 0.2340845 0.8930159
0.0419919 0.2347283 0.8930008
0.0419922 0.2353728 0.8929985
0.0419914 0.2360165 0.8929998
0.0419908 0.2366576 0.8930141
0.0419903 0.2372970 0.8930302
0.0419902 0.2379359 0.8930451
0.0419902 0.2385700 0.8930661
0.0419916 0.2392004 0.8930896
0.0417442 0.2465390 0.8922043
0.0416592 0.2470069 0.8920128
0.0415523 0.2474486 0.8918226
0.0419465 0.2297138 0.8933456
0.0419450 0.2303384 0.8932886
0.0419731 0.2402621 0.8931315
0.0419587 0.2408819 0.8931362
0.0419446 0.2414989 0.8931469
0.0419210 0.2421090 0.8931199
0.0418873 0.2427101 0.8930737
0.0418468 0.2432986 0.8930157
0.0418045 0.2438662 0.8929373
0.0417564 0.2444060 0.8928651
0.0417067 0.2449217 0.8927393
0.0416523 0.2454337 0.8926347
0.0415813 0.2458951 0.8924671
0.0426672 0.2309014 0.8931591
0.0426544 0.2315313 0.8931039
0.0426456 0.2321650 0.8930615
0.0426391 0.2328012 0.8930260
0.0426346 0.2334401 0.8929960
0.0426322 0.2340819 0.8929739
0.0426321 0.2347277 0.8929638
